0 0 0 0 0 0 0 0 0 0 0 0 0 0 0 0 0 0 0 0 0 0 0 0 0 0 0 0 0 0 0 0 0 0 0 0 0 0 0 0 0 0 0 0 0 0 0 0 0 0 0 0 0 0 0 0 0 0 0 0 0 0 0 0 0 0 0 0 0 0 0 0 0 0 0 0 0 0 0 0 0 0 0 0 0 0 0 0 0 0 0 0 0 0 0 0 0 0 0 0 0 0 0 0 0 0 0 0 0 0 0 0 0 0 0 0 0 0 0 0
0 0 0 0 0 0 0 0 0 0 0 0 0 0 0 0 0 0 0 0 0 0 0 0 0 0 0 0 0 0 0 0 0 0 0 0 0 0 0 0 0 0 0 0 0 0 0 0 0 0 0 0 0 0 0 0 0 0 0 0 0 0 0 0 0 0 0 0 0 0 0 0 0 0 0 0 0 0 0 0 0 0 0 0 0 0 0 0 0 0 0 0 0 0 0 0 0 0 0 0 0 0 0 0 0 0 0 0 0 0 0 0 0 0 0 0 0 0 0 0
0 0 0 0 0 0 0 0 0 0 0 0 0 0 0 0 0 0 0 0 0 0 0 0 0 0 0 0 0 0 0 0 0 0 0 0 0 0 0 0 0 0 0 0 0 0 0 0 0 0 0 0 0 0 0 0 0 0 0 0 0 0 0 0 0 0 0 0 0 0 0 0 0 0 0 0 0 0 0 0 0 0 0 0 0 0 0 0 0 0 0 0 0 0 0 0 0 0 0 0 0 0 0 0 0 0 0 0 0 0 0 0 0 0 0 0 0 0 0 0
0 0 0 0 0 0 0 0 0 0 0 0 0 0 0 0 0 0 0 0 0 0 0 0 0 0 0 0 0 0 0 0 0 0 0 0 0 0 0 0 0 0 0 0 0 0 0 0 0 0 0 0 0 0 0 0 0 0 0 0 0 0 0 0 0 0 0 0 0 0 0 0 0 0 0 0 0 0 0 0 0 0 0 0 0 0 0 0 0 0 0 0 0 0 0 0 0 0 0 0 0 0 0 0 0 0 0 0 0 0 0 0 0 0 0 0 0 0 0 0
0 0 0 0 0 0 0 0 0 0 0 0 0 0 0 0 0 0 0 0 0 0 0 0 0 0 0 0 0 0 0 0 0 0 0 0 0 0 0 0 0 0 0 0 0 0 0 0 0 0 0 0 0 0 0 0 0 0 0 0 0 0 0 0 0 0 0 0 0 0 0 0 0 0 0 0 0 0 0 0 0 0 0 0 0 0 0 0 0 0 0 0 0 0 0 0 0 0 0 0 0 0 0 0 0 0 0 0 0 0 0 0 0 0 0 0 0 0 0 0
0 0 0 0 0 0 0 0 0 0 0 0 0 0 0 0 0 0 0 0 0 0 0 0 0 0 0 0 0 0 0 0 0 0 0 0 0 0 0 574 534 515 492 514 538 506 504 491 500 526 524 522 485 520 527 0 0 0 0 0 0 0 0 0 0 0 0 0 0 0 0 0 0 0 0 0 0 0 0 0 0 0 0 0 0 0 0 0 0 0 0 0 0 0 0 0 0 0 0 0 0 0 0 0 0 0 0 0 0 0 0 0 0 0 0 0 0 0 0 0
0 0 0 0 0 0 0 0 0 0 0 0 0 0 0 0 0 0 0 0 0 0 0 0 0 0 0 0 0 0 0 0 0 0 0 0 0 494 488 501 503 488 500 501 485 500 504 513 506 521 510 499 500 512 492 497 527 474 522 497 0 0 0 0 0 0 0 0 0 0 0 0 0 0 0 0 0 0 0 0 0 0 0 0 0 0 0 0 0 0 0 0 0 0 0 0 0 0 0 0 0 0 0 0 0 0 0 0 0 0 0 0 0 0 0 0 0 0 0 0
0 0 0 0 0 0 0 0 0 0 0 0 0 0 0 0 0 0 0 0 0 0 0 0 0 0 0 0 0 0 0 0 0 0 0 519 523 529 510 491 511 503 517 518 483 505 495 509 520 514 509 508 512 515 529 527 509 526 507 520 518 510 518 536 507 0 0 0 0 0 0 0 0 0 0 0 0 0 0 0 0 0 0 0 0 0 0 0 0 0 0 0 0 0 0 0 0 0 0 0 0 0 0 0 0 0 0 0 0 0 0 0 0 0 0 0 0 0 0 0
0 0 0 0 0 0 0 0 0 0 0 0 0 0 0 0 0 0 0 0 0 0 0 0 0 0 0 0 0 0 0 0 0 492 499 486 505 502 508 506 509 495 510 509 505 505 496 497 509 511 510 496 505 496 491 516 511 499 510 507 501 504 498 516 514 506 509 534 559 570 537 535 588 0 591 568 571 511 585 519 0 0 0 0 0 0 0 0 0 0 0 0 0 0 0 0 0 0 0 0 0 0 0 0 0 0 0 0 0 0 0 0 0 0 0 0 0 0 0 0
0 0 0 0 0 0 0 0 0 0 0 0 0 0 0 0 0 0 0 0 0 0 0 0 0 0 0 0 0 0 0 501 516 506 500 503 481 498 508 500 504 507 493 505 505 512 508 509 509 503 501 511 507 506 486 498 502 499 503 510 520 508 502 507 504 509 496 518 513 511 559 576 557 592 570 569 615 561 569 557 548 579 520 545 0 546 514 542 557 598 557 605 581 558 585 559 606 577 593 572 579 597 526 561 591 0 0 0 0 0 0 0 0 0 0 0 0 0 0 0
0 0 0 0 0 0 0 0 0 0 0 0 0 0 0 0 0 0 0 0 0 0 0 0 0 0 0 0 0 0 518 497 516 486 491 498 495 509 495 509 519 499 503 494 496 508 499 511 498 507 508 504 508 527 508 519 508 505 505 510 508 510 516 510 511 515 523 512 516 521 567 594 536 582 613 569 583 572 593 623 595 559 613 621 587 570 606 584 614 597 570 598 602 608 622 584 565 575 620 590 609 588 558 610 612 586 590 0 0 0 0 0 0 0 0 0 0 0 0 0
0 0 0 0 0 0 0 0 0 0 0 0 0 0 0 0 0 0 0 0 0 0 0 0 0 0 0 0 482 507 494 487 490 509 504 498 495 496 511 498 489 502 498 497 518 502 503 500 491 515 502 501 497 494 504 498 500 511 498 508 513 496 505 509 506 495 507 495 511 508 533 529 552 544 536 587 512 559 584 560 523 509 540 490 538 552 548 577 540 528 526 522 609 566 564 540 524 570 545 519 599 547 572 554 541 540 556 586 0 0 0 0 0 0 0 0 0 0 0 0
0 0 0 0 0 0 0 0 0 0 0 0 0 0 0 0 0 0 0 0 0 0 0 0 0 0 0 501 504 515 507 496 502 500 505 513 500 496 507 508 499 513 501 510 502 506 501 514 503 513 514 500 504 507 514 504 504 515 502 517 511 507 514 520 511 515 507 520 511 521 518 537 564 606 553 589 587 588 581 602 577 598 565 585 572 605 573 582 553 565 584 568 533 573 584 563 588 527 556 557 567 554 553 553 615 599 595 607 0 0 0 0 0 0 0 0 0 0 0 0
0 0 0 0 0 0 0 0 0 0 0 0 0 0 0 0 0 0 0 0 0 0 0 0 0 0 459 501 490 499 491 491 491 490 490 496 499 483 498 487 489 501 503 508 510 505 499 501 501 490 504 510 504 508 503 499 507 509 518 510 513 505 513 501 522 517 511 503 512 513 509 510 545 539 554 581 545 563 583 553 534 565 580 518 575 555 559 558 538 502 550 547 565 540 531 577 549 592 567 568 570 506 542 519 544 527 541 576 577 0 0 0 0 0 0 0 0 0 0 0
0 0 0 0 0 0 0 0 0 0 0 0 0 0 0 0 0 0 0 0 0 0 0 0 0 474 504 484 500 491 495 495 501 496 489 493 498 500 494 500 506 505 509 503 501 502 506 500 506 505 491 501 498 502 501 498 494 500 506 501 510 505 503 505 503 509 500 492 512 513 504 502 518 514 519 549 530 510 536 541 506 547 504 523 510 509 505 522 558 509 512 532 519 550 527 533 533 505 573 534 538 516 531 544 520 533 529 547 488 520 477 0 0 0 0 0 0 0 0 0
0 0 0 0 0 0 0 0 0 0 0 0 0 0 0 0 0 0 0 0 0 0 0 0 0 510 489 484 492 499 497 492 492 491 490 500 495 499 500 500 501 503 504 497 501 501 505 499 494 501 503 510 510 508 502 499 504 506 498 508 506 500 508 503 507 502 515 514 508 503 514 508 516 521 563 571 525 547 546 572 575 547 593 544 541 538 545 574 546 549 552 540 537 549 522 546 560 540 597 539 589 572 519 556 532 541 570 542 552 617 0 0 542 547 0 0 0 0 0 0
0 0 0 0 0 0 0 0 0 0 0 0 0 0 0 0 0 0 0 0 0 0 0 0 440 487 494 487 487 489 499 500 497 494 495 497 496 490 500 498 494 512 500 497 505 497 492 499 494 504 500 502 498 506 507 500 503 498 507 503 500 505 501 503 507 499 510 495 507 504 502 504 506 511 511 526 493 500 518 508 537 527 520 537 553 508 540 535 532 502 535 529 540 503 552 503 562 527 534 518 501 531 537 514 543 538 521 543 505 506 477 0 0 0 0 0 0 0 0 0
0 0 0 0 0 0 0 0 0 0 0 0 0 0 0 0 0 0 0 0 0 0 0 0 481 484 499 492 498 497 490 485 500 491 490 501 500 488 501 494 495 496 500 498 491 501 507 506 503 498 507 502 509 504 501 502 503 509 503 505 497 501 506 502 508 511 506 509 509 517 502 508 512 509 496 531 513 533 528 517 533 557 536 529 519 539 537 525 525 512 535 525 497 535 543 518 547 536 504 537 540 567 534 580 569 541 537 567 517 544 0 0 0 0 0 0 0 0 0 0
0 0 0 0 0 0 0 0 0 0 0 0 0 0 0 0 0 0 0 0 0 0 0 492 493 495 498 494 486 481 483 505 493 496 496 496 493 505 491 497 501 500 497 500 494 513 503 508 501 503 498 502 493 504 512 506 513 506 505 498 514 498 503 500 507 504 511 506 507 498 503 515 513 503 506 530 529 520 543 585 546 533 549 546 519 545 535 520 544 541 556 542 564 545 523 529 519 553 547 545 576 559 567 560 562 537 565 572 564 573 572 0 0 0 0 0 0 0 0 0
0 0 0 0 0 0 0 0 0 0 0 0 0 0 0 0 0 0 0 0 0 0 0 494 489 492 484 488 481 495 488 490 493 493 490 492 483 495 489 497 488 493 494 494 499 500 499 502 495 505 496 500 494 504 502 504 505 510 499 508 499 505 506 505 496 492 498 511 501 502 507 503 503 503 510 512 527 520 501 534 524 536 526 549 507 526 553 542 517 517 525 512 530 533 522 530 551 527 527 548 513 520 563 527 546 532 537 517 513 504 535 0 0 0 0 0 0 0 0 0
0 0 0 0 0 0 0 0 0 0 0 0 0 0 0 0 0 0 0 0 0 0 512 487 492 496 486 498 488 489 490 511 496 491 482 493 495 496 485 488 502 499 502 508 491 495 496 505 506 506 499 505 501 500 506 508 503 504 503 504 498 505 511 498 502 513 503 497 503 501 506 509 502 511 507 508 523 558 531 577 551 533 542 538 526 560 556 548 523 535 553 523 549 544 545 549 545 533 560 536 546 530 532 555 524 540 514 581 567 523 576 534 523 0 0 0 0 0 0 0
0 0 0 0 0 0 0 0 0 0 0 0 0 0 0 0 0 0 0 0 0 0 494 494 493 486 495 493 498 490 486 493 496 483 489 491 492 488 496 497 497 495 484 493 502 497 501 497 502 498 501 501 498 499 495 507 510 506 502 501 512 505 506 505 507 513 507 509 512 503 506 509 506 513 515 506 508 537 534 527 515 545 534 526 552 552 526 522 535 524 535 533 539 558 546 527 542 546 532 512 521 514 534 547 510 554 536 547 519 526 542 515 0 0 0 0 0 0 0 0
0 0 0 0 0 0 0 0 0 0 0 0 0 0 0 0 0 0 0 0 0 0 508 483 486 478 494 494 490 486 486 486 486 485 486 485 493 492 488 499 489 490 496 496 498 501 493 493 495 504 492 502 496 502 495 498 497 507 503 499 502 506 508 502 499 501 510 507 507 504 498 503 512 497 509 506 516 517 517 500 532 533 526 536 482 506 538 508 542 546 498 500 520 539 520 529 537 536 514 500 530 493 481 514 526 535 505 515 520 528 523 535 498 0 0 0 0 0 0 0
0 0 0 0 0 0 0 0 0 0 0 0 0 0 0 0 0 0 0 0 0 0 495 498 496 495 492 502 483 496 496 488 492 491 487 490 482 490 489 494 499 500 492 488 494 496 499 499 497 497 501 506 503 499 500 503 508 500 505 507 509 507 506 503 498 501 508 505 497 503 515 510 512 513 494 511 502 524 549 508 527 527 501 530 560 526 525 508 520 512 523 529 546 553 511 539 548 556 546 538 547 526 516 549 534 548 569 508 562 551 528 576 575 0 0 0 0 0 0 0
0 0 0 0 0 0 0 0 0 0 0 0 0 0 0 0 0 0 0 0 0 0 474 474 479 489 487 482 486 490 485 484 497 488 490 487 492 488 488 488 493 495 504 491 493 492 495 505 498 499 497 496 501 497 499 499 496 500 502 504 500 508 496 502 498 503 503 499 506 501 506 499 512 505 509 505 511 517 514 513 524 527 532 501 475 547 499 513 535 519 508 536 519 502 530 525 502 517 538 507 530 527 506 513 522 545 531 553 493 491 555 516 578 0 0 0 0 0 0 0
0 0 0 0 0 0 0 0 0 0 0 0 0 0 0 0 0 0 0 0 0 0 476 480 487 487 486 487 485 479 490 486 484 488 495 487 487 491 499 494 491 492 493 490 488 491 492 497 493 496 495 497 505 502 497 497 497 500 507 495 502 499 500 512 501 496 498 500 502 501 495 505 509 507 497 503 503 514 507 517 500 494 516 494 501 518 509 506 504 511 484 534 522 511 511 534 513 515 522 506 516 479 504 499 516 530 546 543 518 576 492 509 540 478 0 0 0 0 0 0
0 0 0 0 0 0 0 0 0 0 0 0 0 0 0 0 0 0 0 0 0 453 476 489 494 486 491 489 491 493 486 486 489 499 493 483 498 493 490 494 491 500 490 492 491 494 497 500 492 499 494 504 496 505 498 499 498 500 501 501 506 510 506 512 500 504 502 508 497 504 507 503 506 508 502 503 507 513 520 526 523 506 526 490 509 511 501 550 525 520 523 546 538 504 541 529 568 528 530 575 559 560 569 519 556 527 563 534 542 582 519 0 0 0 0 0 0 0 0 0
0 0 0 0 0 0 0 0 0 0 0 0 0 0 0 0 0 0 0 0 0 434 479 482 486 484 475 479 482 481 483 482 488 480 482 488 487 487 488 496 494 489 494 491 494 490 495 493 496 493 499 497 496 497 497 500 492 503 506 501 499 502 498 492 505 504 504 497 505 495 501 495 499 495 501 508 506 512 514 501 518 498 492 496 498 491 509 509 509 492 492 506 510 511 520 512 523 494 492 512 492 490 527 498 495 509 525 491 507 523 519 536 0 0 0 0 0 0 0 0
0 0 0 0 0 0 0 0 0 0 0 0 0 0 0 0 0 0 0 0 0 462 480 489 492 480 497 489 478 480 489 484 484 494 485 486 493 488 487 492 494 489 492 495 497 493 496 499 493 498 493 494 496 496 494 506 498 497 506 496 501 502 505 501 506 504 514 507 507 497 504 501 505 505 503 505 493 503 504 520 511 531 517 532 532 521 527 520 529 513 510 532 511 521 514 515 517 503 501 527 531 502 535 504 491 515 541 562 573 506 555 518 541 587 0 0 0 0 0 0
0 0 0 0 0 0 0 0 0 0 0 0 0 0 0 0 0 0 0 0 0 460 475 488 476 474 477 480 490 484 482 479 483 483 481 488 485 484 483 493 487 492 498 492 492 493 490 494 490 494 493 499 498 500 495 497 502 498 502 492 493 495 500 503 501 497 502 501 505 501 499 502 506 505 508 506 505 505 498 507 507 492 502 504 504 532 495 511 508 513 530 493 497 488 501 518 469 507 530 514 527 475 502 523 504 508 520 473 476 504 485 518 461 0 0 0 0 0 0 0
0 0 0 0 0 0 0 0 0 0 0 0 0 0 0 0 0 0 0 0 0 462 481 476 480 479 484 476 476 478 486 483 484 486 487 488 490 486 485 488 487 490 489 494 489 490 489 492 494 497 494 501 498 497 496 498 497 497 497 497 501 499 504 497 496 496 500 505 513 503 504 500 497 497 506 499 499 509 497 523 493 485 490 533 504 516 494 515 492 491 512 511 495 508 499 516 484 511 497 517 517 503 494 481 519 498 501 504 495 529 499 532 510 0 0 0 0 0 0 0
0 0 0 0 0 0 0 0 0 0 0 0 0 0 0 0 0 0 0 0 0 463 482 481 477 487 483 480 489 490 482 481 484 480 488 483 483 490 499 485 491 491 489 492 493 493 494 492 494 493 489 494 496 498 499 496 493 495 496 500 500 502 496 501 498 504 507 502 500 510 506 508 507 502 511 505 501 497 510 520 502 510 511 518 511 521 516 523 501 514 527 528 522 503 505 506 488 511 527 517 530 546 512 523 537 497 505 568 499 530 524 497 547 0 0 0 0 0 0 0
0 0 0 0 0 0 0 0 0 0 0 0 0 0 0 0 0 0 0 0 0 439 490 469 476 475 474 478 480 475 485 479 486 475 484 485 479 486 486 487 492 488 489 495 493 486 492 490 492 492 499 492 495 498 500 497 490 494 497 494 495 497 502 497 498 494 494 498 498 503 503 498 503 497 497 508 507 502 499 490 492 488 483 484 495 495 484 488 494 474 523 477 514 493 494 474 479 494 526 490 547 482 495 490 490 520 498 480 482 496 530 479 494 476 0 0 0 0 0 0
0 0 0 0 0 0 0 0 0 0 0 0 0 0 0 0 0 0 0 0 0 464 477 478 473 476 482 475 479 481 486 484 485 482 487 490 485 485 486 490 490 484 490 490 492 495 488 491 496 493 491 497 494 496 493 495 491 496 497 501 494 497 501 498 491 502 497 496 495 500 501 497 491 498 494 495 498 499 504 485 496 507 496 504 488 535 516 510 501 495 520 497 509 501 490 502 508 525 496 514 502 526 529 518 549 499 526 515 524 511 548 544 542 0 0 0 0 0 0 0
0 0 0 0 0 0 0 0 0 0 0 0 0 0 0 0 0 0 0 0 0 461 480 476 478 481 477 478 482 487 478 484 481 486 485 484 484 485 490 491 487 486 486 495 492 497 488 493 493 489 497 492 497 499 499 498 494 501 493 500 497 499 498 496 503 496 499 503 502 507 503 499 496 505 495 505 504 494 500 507 510 511 522 498 503 497 510 535 495 522 522 511 515 499 510 526 516 503 533 518 528 519 517 520 511 499 510 528 517 509 527 518 518 508 0 0 0 0 0 0
0 0 0 0 0 0 0 0 0 0 0 0 0 0 0 0 0 0 0 0 0 458 468 470 470 478 472 480 481 483 474 479 482 482 477 477 486 482 484 488 486 485 485 489 487 488 488 486 489 491 491 491 492 496 499 495 494 495 495 493 495 499 498 498 498 501 500 503 496 496 496 494 497 501 497 497 493 498 489 491 501 487 498 488 511 502 485 494 488 495 483 495 465 495 521 516 499 491 463 486 472 485 488 526 489 491 445 475 474 466 508 460 490 491 0 0 0 0 0 0
0 0 0 0 0 0 0 0 0 0 0 0 0 0 0 0 0 0 0 0 0 502 482 475 483 472 483 472 482 476 479 480 487 482 485 490 484 481 482 495 486 487 488 485 487 487 490 489 492 492 494 493 489 491 494 497 500 495 494 499 495 501 497 501 503 499 503 498 498 494 498 496 499 499 498 497 497 497 498 486 511 510 502 511 501 500 495 498 494 486 528 492 497 486 512 500 489 494 492 517 524 513 510 485 489 518 511 516 492 521 548 509 509 504 0 0 0 0 0 0
0 0 0 0 0 0 0 0 0 0 0 0 0 0 0 0 0 0 0 0 0 0 470 478 474 476 475 477 484 475 480 486 490 478 486 477 484 485 482 485 484 484 488 494 480 489 489 491 494 493 492 496 493 496 496 496 494 495 494 492 502 496 500 497 496 502 496 495 495 493 497 496 500 497 496 497 501 493 505 494 498 507 507 507 520 508 521 499 528 496 518 498 508 504 499 497 514 497 514 510 515 486 471 508 532 498 501 507 523 501 491 484 505 486 0 0 0 0 0 0
0 0 0 0 0 0 0 0 0 0 0 0 0 0 0 0 0 0 0 0 0 0 495 469 470 475 479 480 479 480 475 478 480 485 477 483 479 484 488 484 488 481 485 483 481 486 491 492 491 487 489 492 494 491 489 494 496 496 489 495 494 495 493 496 496 496 495 497 493 496 500 493 497 494 495 490 496 498 492 497 495 500 484 504 511 502 506 487 500 496 523 489 495 513 491 484 500 490 492 492 492 465 508 491 457 464 500 504 492 474 523 485 471 464 0 0 0 0 0 0
0 0 0 0 0 0 0 0 0 0 0 0 0 0 0 0 0 0 0 0 0 0 526 473 474 480 481 474 481 481 476 478 481 485 482 481 482 484 477 489 488 486 486 488 489 491 490 485 486 489 489 492 493 494 497 496 497 491 496 498 497 493 494 493 498 496 499 495 493 496 496 496 500 493 492 495 497 499 495 501 503 502 502 507 504 515 492 510 504 499 526 524 508 513 515 514 515 484 507 504 526 498 507 524 522 488 497 513 531 522 518 476 493 524 508 503 0 0 0 0
0 0 0 0 0 0 0 0 0 0 0 0 0 0 0 0 0 0 0 0 0 0 571 469 467 467 475 473 475 474 472 477 476 478 481 483 483 482 485 482 483 488 488 486 485 488 488 483 492 483 487 492 494 491 492 495 492 490 494 493 493 494 500 502 498 493 496 494 492 494 491 489 491 498 493 491 494 488 495 508 494 498 500 518 503 500 491 500 499 492 523 502 513 516 504 496 526 512 486 515 495 507 460 485 477 503 494 505 481 490 498 488 441 479 492 0 0 0 0 0
0 0 0 0 0 0 0 0 0 0 0 0 0 0 0 0 0 0 0 0 0 0 0 476 467 474 470 473 475 474 482 481 482 481 478 477 480 483 482 479 486 487 489 487 485 487 488 493 489 490 488 491 493 487 491 487 494 493 491 495 496 497 492 493 495 493 494 503 495 493 492 493 491 494 493 491 490 504 490 489 493 504 481 501 501 497 497 501 493 502 488 490 503 518 492 514 497 506 497 520 488 519 496 492 492 488 463 486 496 473 485 493 502 0 0 0 0 0 0 0
0 0 0 0 0 0 0 0 0 0 0 0 0 0 0 0 0 0 0 0 0 0 0 491 471 471 473 479 476 479 479 477 482 476 482 475 479 481 485 479 480 480 491 488 490 484 492 492 487 487 485 490 490 488 495 496 493 487 497 490 492 494 494 496 492 498 495 495 494 493 502 492 494 496 492 490 490 493 479 500 491 508 482 506 506 502 511 507 503 509 506 504 504 521 511 535 518 504 531 561 541 521 523 507 512 511 515 483 531 517 524 545 513 0 0 0 0 0 0 0
0 0 0 0 0 0 0 0 0 0 0 0 0 0 0 0 0 0 0 0 0 0 0 528 467 468 473 471 477 471 473 473 474 479 478 481 480 481 476 484 485 480 485 488 486 483 486 483 490 484 490 489 491 487 493 489 495 496 489 493 497 492 490 499 495 497 499 496 497 494 493 500 492 497 494 494 492 498 503 496 496 497 502 502 506 531 515 516 481 512 507 515 523 494 495 517 513 469 497 519 496 510 499 472 490 519 465 458 497 492 455 478 493 0 0 0 0 0 0 0
0 0 0 0 0 0 0 0 0 0 0 0 0 0 0 0 0 0 0 0 0 0 0 0 466 463 468 476 471 473 467 474 481 481 477 473 475 484 479 479 481 483 484 482 487 486 483 485 488 489 491 491 488 493 489 495 491 492 488 495 495 495 493 494 498 497 493 495 494 495 498 490 495 493 495 487 502 489 501 493 495 497 511 501 518 505 507 495 512 503 500 505 518 510 522 481 489 494 522 508 501 492 512 505 485 492 493 520 506 496 468 491 504 528 504 517 0 0 0 0
0 0 0 0 0 0 0 0 0 0 0 0 0 0 0 0 0 0 0 0 0 0 0 0 519 468 466 472 471 479 474 474 472 474 477 480 479 478 478 485 483 481 481 483 483 487 487 483 482 491 494 492 489 491 489 491 494 491 494 491 493 489 492 496 493 497 493 492 492 491 498 489 493 492 492 487 484 495 497 505 517 504 486 490 520 492 497 492 499 490 529 496 509 495 527 499 508 511 513 476 489 487 513 477 516 458 488 477 492 472 469 484 466 475 477 0 0 0 0 0
0 0 0 0 0 0 0 0 0 0 0 0 0 0 0 0 0 0 0 0 0 0 0 0 0 472 465 467 471 471 474 469 476 470 471 478 475 479 478 484 482 483 478 486 487 482 483 483 484 487 488 489 483 488 488 490 492 490 483 486 494 491 493 493 492 487 486 497 495 492 492 490 494 491 487 488 483 479 487 488 492 489 483 484 471 493 494 495 509 500 480 481 500 486 510 517 487 495 504 503 503 508 471 469 501 448 483 450 463 479 475 484 452 463 0 0 0 0 0 0
0 0 0 0 0 0 0 0 0 0 0 0 0 0 0 0 0 0 0 0 0 0 0 0 0 587 472 472 467 474 470 471 472 477 476 479 473 478 476 478 483 479 480 482 486 484 484 486 484 487 484 484 486 492 492 497 496 487 494 495 487 488 491 487 490 496 491 490 491 491 493 490 496 492 487 481 501 493 478 489 490 492 480 492 494 488 519 491 492 496 498 516 510 509 521 505 501 498 519 518 495 498 501 471 493 471 513 502 479 443 482 466 519 484 0 0 0 0 0 0
0 0 0 0 0 0 0 0 0 0 0 0 0 0 0 0 0 0 0 0 0 0 0 0 0 0 487 464 465 464 463 464 469 472 470 471 479 474 476 476 475 481 476 480 481 485 484 484 484 484 483 487 489 488 485 490 487 488 488 488 486 487 484 487 493 489 486 484 488 490 493 487 487 489 483 482 477 481 480 482 488 484 487 491 474 483 488 479 482 501 482 481 479 473 498 487 493 477 504 481 506 462 469 473 483 462 486 465 455 446 457 462 422 476 0 0 0 0 0 0
0 0 0 0 0 0 0 0 0 0 0 0 0 0 0 0 0 0 0 0 0 0 0 0 0 0 0 468 468 462 464 474 478 480 468 471 477 476 475 479 480 483 475 483 477 488 481 481 486 486 484 483 481 486 488 482 488 492 482 492 485 486 490 489 485 490 491 494 490 490 486 487 486 486 484 476 483 479 486 481 494 475 496 482 475 491 494 497 494 480 478 513 497 483 501 501 503 499 503 502 498 493 507 459 501 492 463 467 450 455 457 466 494 484 442 0 0 0 0 0
0 0 0 0 0 0 0 0 0 0 0 0 0 0 0 0 0 0 0 0 0 0 0 0 0 0 0 505 468 466 466 468 473 473 472 470 472 473 475 476 475 474 482 481 480 481 483 484 481 488 486 483 485 483 484 483 487 484 484 488 488 490 489 490 492 483 493 491 489 492 486 492 486 487 491 487 493 487 491 479 487 507 496 507 502 488 496 477 505 477 480 479 489 499 500 520 510 500 530 513 477 497 497 502 486 464 503 495 475 470 481 473 502 527 0 0 0 0 0 0
0 0 0 0 0 0 0 0 0 0 0 0 0 0 0 0 0 0 0 0 0 0 0 0 0 0 0 0 529 466 468 466 469 462 473 469 475 472 475 474 477 475 478 477 475 483 473 478 479 480 485 482 484 484 486 484 482 484 483 486 483 490 486 487 484 487 488 484 486 485 482 487 476 489 478 486 481 477 482 470 491 461 474 488 481 479 492 472 492 491 466 483 485 499 471 477 472 476 485 496 481 478 467 478 451 463 460 502 468 495 496 455 486 458 490 0 0 0 0 0
0 0 0 0 0 251 241 267 338 0 0 0 0 0 0 0 0 0 0 0 0 2333 0 0 0 0 0 0 0 520 465 469 471 468 468 473 469 474 471 473 478 474 478 473 474 482 479 482 481 477 481 479 478 486 482 483 482 485 487 485 485 486 483 485 489 490 483 488 479 487 485 493 474 491 490 485 500 490 490 498 498 493 485 506 496 489 491 476 486 484 501 498 533 507 515 475 509 508 484 491 482 502 459 491 474 481 490 485 508 489 455 511 456 509 520 0 0 0 0 0
0 0 0 0 236 223 231 234 237 280 363 0 0 0 0 0 0 0 0 0 0 2390 0 0 0 0 0 0 0 0 456 464 460 464 465 467 471 467 470 473 475 473 471 471 479 477 482 474 473 472 479 483 480 482 485 485 483 480 485 487 480 478 482 486 482 487 485 484 482 480 482 475 476 484 477 489 482 474 471 471 486 473 505 479 488 474 474 478 472 485 481 486 483 471 510 485 491 472 471 519 466 467 505 459 477 465 475 455 456 468 453 444 413 0 0 0 0 0 0 0
0 0 0 248 213 222 225 226 234 241 332 0 0 0 0 0 0 0 0 0 0 0 0 0 0 0 0 0 0 0 0 464 460 470 461 465 471 467 471 467 471 466 469 472 472 475 467 472 477 472 474 471 478 473 482 476 483 474 480 477 482 483 477 480 479 476 482 477 469 476 463 475 465 475 476 472 477 472 482 480 476 469 489 477 475 479 485 465 467 482 472 477 469 461 467 469 464 466 480 472 466 457 442 462 440 447 437 432 461 454 455 437 436 438 395 0 0 0 0 0
249 229 277 243 261 307 293 228 238 236 301 0 423 425 431 409 424 430 429 428 460 454 433 436 453 445 452 456 456 452 449 473 464 466 466 467 465 465 469 464 463 470 474 466 476 471 472 471 475 474 476 476 475 482 480 480 474 482 483 484 475 482 477 479 484 477 483 477 480 472 482 483 473 473 476 464 472 475 470 489 476 458 467 480 481 506 487 480 488 475 471 484 469 475 466 476 484 475 470 489 483 479 482 463 457 460 465 462 477 467 444 483 460 501 461 0 0 0 0 0
218 163 201 209 221 231 240 228 229 257 369 357 374 393 392 392 398 392 405 398 412 413 404 423 418 428 418 436 440 441 447 455 453 459 463 460 452 456 456 453 456 461 453 464 460 460 467 464 469 472 466 468 470 471 468 461 467 473 468 466 480 473 471 474 464 468 474 473 470 472 468 472 456 473 459 449 454 453 454 457 454 459 455 447 452 452 439 450 450 446 459 447 448 435 445 445 442 452 434 447 458 440 441 434 421 447 429 430 445 450 432 439 447 411 432 432 390 0 0 0
163 172 205 218 230 237 232 225 235 309 391 339 373 385 366 376 374 372 371 375 374 384 395 397 403 411 415 418 427 441 440 440 440 447 441 442 445 444 448 447 444 453 453 451 447 449 454 455 458 452 450 453 461 461 460 461 452 450 454 463 456 462 465 463 464 461 458 457 454 454 457 451 444 436 433 442 436 430 428 429 430 429 418 419 418 425 433 430 421 431 429 450 429 433 425 428 423 427 413 415 416 440 415 405 415 404 413 409 424 407 435 415 414 421 408 433 425 408 417 391
254 290 250 225 230 228 238 238 270 350 344 335 349 332 348 349 334 350 352 351 361 360 365 382 381 385 400 404 413 417 415 422 425 432 428 429 436 431 437 433 428 435 426 431 436 440 440 443 442 436 449 440 443 440 447 447 443 452 445 443 447 445 448 440 435 444 441 436 445 444 433 437 431 427 423 420 407 404 404 401 398 401 412 391 394 417 407 396 407 406 400 395 393 408 419 407 396 392 394 409 385 409 396 397 398 414 382 399 394 396 409 391 417 395 418 372 408 409 398 0
299 285 296 225 226 236 230 239 284 299 309 307 309 284 317 311 310 314 304 319 319 325 328 346 351 364 383 377 391 396 392 404 409 412 405 406 403 404 410 413 418 418 407 413 418 416 416 424 419 416 419 417 420 418 422 421 420 423 419 420 420 421 418 417 417 418 421 417 417 417 410 412 411 398 400 391 381 378 376 367 359 358 363 360 359 357 354 365 356 360 359 356 366 364 370 366 372 362 350 367 351 352 367 366 358 354 363 372 359 367 359 370 361 354 355 336 358 358 356 397
278 282 293 272 256 261 247 294 285 286 281 288 286 292 291 285 287 298 289 285 306 304 313 312 333 345 354 370 374 371 388 390 388 389 386 387 389 391 395 394 403 394 395 397 394 397 391 392 400 390 392 397 400 400 398 397 399 399 404 406 398 401 404 391 396 391 398 393 397 400 390 390 389 384 370 364 355 343 345 336 342 320 334 337 328 331 334 340 331 334 336 332 336 335 345 342 336 326 321 333 332 328 339 346 339 342 331 338 330 332 338 337 346 334 362 357 345 357 353 329
259 235 253 250 249 241 251 261 262 258 253 262 249 263 253 259 272 265 268 264 263 282 290 309 302 317 331 338 343 360 351 365 372 359 363 372 365 365 366 371 371 360 374 376 367 372 371 371 367 374 377 367 373 375 379 374 379 375 380 373 377 372 375 375 368 374 371 377 368 377 364 367 366 357 347 342 329 328 310 305 304 296 299 308 314 307 301 292 307 299 299 296 311 295 306 304 296 290 301 302 304 323 299 296 303 308 311 298 305 310 304 321 318 317 295 305 327 319 323 333
224 229 228 226 229 235 236 231 242 232 231 240 241 247 244 236 237 240 249 247 263 264 272 280 295 291 318 322 319 329 326 333 342 341 346 342 343 341 339 343 350 341 348 344 351 341 341 359 342 341 339 345 343 351 353 354 350 353 348 347 348 350 347 347 352 345 348 352 351 340 345 336 342 332 325 315 300 295 287 285 283 277 282 279 289 280 280 283 274 269 271 276 280 270 265 274 271 264 267 282 289 269 278 276 267 268 268 258 276 287 273 283 274 296 259 268 290 254 250 270
213 213 225 228 224 213 215 217 220 223 231 222 221 232 225 232 238 233 233 245 243 249 253 265 272 287 293 296 303 302 313 310 321 324 314 318 320 319 324 324 320 320 322 323 328 325 324 331 327 324 323 328 328 326 329 322 328 326 331 327 331 329 326 326 322 328 326 327 326 320 320 324 328 307 307 299 291 277 272 273 267 262 263 261 263 260 265 260 253 255 258 261 263 256 258 262 252 250 261 257 260 265 255 264 252 260 258 263 258 260 261 273 269 282 261 286 261 265 283 276
197 204 206 214 209 209 215 211 207 214 207 211 208 206 211 204 214 220 221 223 226 234 243 251 248 261 270 270 282 285 285 293 293 286 294 293 293 297 305 299 299 300 300 300 306 302 301 297 308 308 307 298 304 304 298 301 306 306 303 300 303 302 308 299 305 307 303 302 300 297 292 298 298 289 289 278 261 262 249 248 247 248 244 241 246 244 237 237 236 242 248 244 238 238 249 232 235 239 238 236 238 236 252 241 240 236 241 243 247 240 240 238 250 262 239 242 252 241 253 279
199 201 200 197 199 200 208 207 199 207 189 199 190 203 183 189 210 211 191 213 216 223 228 231 240 246 250 260 263 262 265 267 272 270 273 276 275 279 280 280 279 282 289 288 280 283 281 287 283 281 283 280 279 285 280 288 287 283 283 288 285 288 287 288 280 283 279 284 290 287 286 278 275 273 268 260 252 251 234 240 232 234 230 224 229 230 224 225 224 230 227 233 235 228 220 224 230 224 225 228 229 230 230 227 224 223 225 228 229 234 236 239 247 233 227 227 233 213 231 255
193 181 178 193 189 181 184 208 185 185 189 177 182 180 180 180 189 184 194 205 212 216 221 227 233 232 239 242 245 252 253 255 259 257 257 258 257 258 267 266 262 264 265 267 266 266 266 269 265 269 262 265 264 264 270 270 267 272 266 272 267 267 265 273 268 270 271 270 268 267 266 258 262 258 251 242 239 231 230 220 215 216 216 220 215 221 213 212 218 216 216 223 217 198 215 218 213 212 211 214 219 219 210 213 210 216 217 219 221 216 227 239 229 237 222 227 227 230 224 239
177 176 170 178 178 181 177 176 178 176 181 179 180 178 182 184 180 185 189 181 187 196 190 215 213 223 228 224 232 230 232 242 239 238 239 241 240 243 246 242 243 241 245 248 254 247 248 245 247 252 245 253 245 247 241 246 248 249 248 249 248 246 252 243 243 250 252 250 240 249 247 244 241 238 239 231 218 216 198 198 198 195 185 196 190 190 193 197 193 190 194 189 198 181 192 183 194 187 187 207 202 205 204 188 185 188 205 202 188 198 186 212 203 204 213 200 205 208 207 213
167 171 174 174 173 179 173 173 173 175 179 174 174 173 180 180 177 182 189 183 186 178 185 191 208 206 216 218 220 224 228 229 228 227 230 229 231 234 233 229 230 231 234 234 231 237 228 232 234 231 235 233 235 236 235 234 234 241 240 239 233 237 234 232 238 237 237 231 234 232 236 234 231 223 220 215 197 195 187 192 194 196 194 191 192 193 187 184 190 187 191 192 189 179 189 184 184 190 189 186 188 182 184 178 189 185 189 175 173 176 182 198 200 187 209 205 220 202 203 223
163 164 171 169 172 166 169 167 166 166 167 162 167 171 171 173 175 172 179 182 175 179 179 190 186 184 189 191 207 210 212 212 209 211 211 217 216 217 212 197 214 220 218 216 218 222 220 216 218 218 217 221 217 216 219 222 222 220 219 218 219 222 222 221 218 216 219 218 221 219 223 213 219 211 193 191 187 198 191 190 190 183 186 184 185 188 182 180 183 185 184 181 182 180 184 180 180 179 181 183 179 180 185 183 176 183 183 180 176 179 179 179 175 170 185 168 177 196 172 205
145 154 161 155 155 164 158 163 163 162 151 161 155 161 159 157 161 171 166 175 171 175 180 181 182 186 182 182 192 193 181 188 182 187 195 189 186 185 187 191 197 191 191 189 196 198 190 191 190 192 196 195 195 196 195 192 194 193 191 196 200 198 196 190 194 190 192 196 196 193 200 195 196 194 187 196 196 185 187 181 176 175 177 171 172 170 177 176 173 174 169 178 173 174 170 172 169 169 171 168 165 175 173 171 178 171 173 170 171 177 164 177 172 175 172 171 168 164 170 166
146 149 149 153 158 154 156 156 161 156 155 157 155 154 161 159 158 162 162 170 167 168 172 177 182 181 177 184 183 186 191 184 188 192 189 190 190 194 191 193 193 196 192 197 194 196 194 196 195 194 193 197 197 196 197 194 199 197 196 198 198 188 197 198 193 194 196 197 198 195 197 193 189 194 192 184 187 184 179 172 174 170 168 162 165 167 172 169 172 169 168 170 172 165 169 164 164 163 168 168 166 170 175 166 163 161 162 165 168 169 165 163 175 171 171 163 165 159 169 162
140 135 141 144 146 145 147 148 149 148 149 149 145 151 154 149 155 148 158 158 160 163 168 170 170 171 171 174 172 179 178 181 181 179 177 179 181 178 181 181 181 182 183 187 182 188 183 182 186 186 183 188 189 186 187 186 187 188 0 187 189 185 183 186 187 185 186 184 184 186 184 183 183 178 175 174 171 172 170 165 160 156 161 158 160 160 162 161 161 161 160 161 163 160 162 161 154 157 161 163 158 160 158 156 157 158 161 154 155 154 153 160 152 159 157 165 151 155 156 152
137 138 138 140 144 150 147 149 142 143 142 144 141 148 142 146 146 148 150 151 158 160 163 160 166 167 169 166 170 173 168 174 180 174 173 170 175 177 172 175 178 180 176 178 175 178 175 182 174 180 177 178 177 180 181 180 182 0 0 179 180 183 178 181 182 176 175 179 177 175 174 177 176 175 169 170 166 165 161 160 161 157 155 156 155 159 155 154 153 154 149 155 158 152 154 153 152 155 154 155 157 154 151 155 153 148 145 151 158 160 154 151 149 153 150 159 162 164 148 173
136 133 130 139 144 145 148 142 143 141 140 140 144 146 146 141 138 148 148 151 146 153 156 158 162 158 164 160 166 165 161 166 169 166 163 167 165 168 169 168 172 0 174 170 172 177 172 173 171 171 174 174 176 173 175 0 174 174 0 176 172 0 176 175 174 173 173 169 172 170 168 168 172 171 165 163 163 160 159 154 153 155 149 150 152 153 151 146 152 158 147 154 151 149 148 146 152 149 152 148 146 144 146 151 151 145 140 145 152 150 148 152 149 162 155 153 146 156 162 163
129 125 127 125 134 134 141 133 131 130 130 133 133 132 137 132 134 136 136 139 139 145 150 151 148 156 157 155 156 159 161 158 157 159 156 154 160 160 0 0 0 0 0 0 0 0 0 166 165 165 166 162 168 167 0 0 168 165 167 0 0 0 0 0 164 166 168 0 161 163 162 160 161 159 153 155 153 157 147 149 148 145 143 148 141 150 143 141 144 144 145 142 146 143 137 135 140 145 142 144 135 136 140 138 134 138 134 133 138 139 139 134 144 138 142 138 137 138 140 133
123 127 126 124 124 131 134 133 134 131 127 135 125 134 125 126 121 141 138 136 140 140 147 147 146 149 151 151 154 156 156 153 157 159 151 152 155 0 0 0 0 0 0 0 0 0 0 0 0 161 164 160 0 0 0 0 0 0 0 0 0 0 0 0 0 161 0 0 0 0 0 158 160 156 153 149 151 149 149 144 142 144 144 142 137 143 141 136 149 146 136 139 139 144 139 135 142 143 139 134 136 137 139 139 131 133 131 134 140 144 137 143 144 140 137 139 133 126 135 163
112 105 119 122 126 125 127 129 127 126 123 122 122 118 118 130 124 123 132 134 127 124 135 144 140 142 143 143 143 151 149 150 151 150 152 150 0 0 0 0 0 0 0 0 0 0 0 0 152 152 156 0 0 0 0 0 0 0 0 0 0 0 0 0 0 0 0 0 0 0 0 0 149 150 150 147 145 144 141 144 138 141 128 140 127 126 137 137 129 130 138 130 132 136 118 131 137 137 132 133 126 139 132 122 126 136 134 133 132 139 130 135 137 136 141 138 131 126 117 141
102 110 111 112 109 114 121 119 112 121 114 111 117 115 126 123 124 121 116 116 130 122 125 123 137 141 140 139 142 144 139 142 146 145 145 143 0 0 0 0 0 0 0 0 0 0 0 0 0 0 0 0 0 0 0 0 0 0 0 0 0 0 0 0 0 0 0 0 0 0 0 0 143 136 141 140 137 130 126 131 127 123 120 119 128 121 124 123 121 135 121 135 116 135 125 134 125 125 122 118 118 122 130 114 121 129 118 120 134 132 125 133 118 115 110 131 109 95 111 105
114 111 117 118 111 112 114 115 118 119 114 117 117 115 118 122 119 128 122 114 118 114 120 119 131 128 140 138 0 135 0 0 0 141 139 141 0 0 0 0 0 0 0 0 0 0 0 0 0 0 0 0 0 0 0 0 0 0 0 0 0 0 0 0 0 0 0 0 0 0 0 0 0 142 125 126 125 125 120 125 119 118 122 124 119 120 117 118 120 118 120 124 114 116 112 120 118 121 120 118 120 123 129 121 121 116 113 124 110 131 126 113 121 116 130 120 127 146 139 134
103 100 103 113 107 104 102 103 101 102 108 104 105 108 108 109 106 114 117 110 111 115 110 117 118 120 124 122 119 127 0 0 0 0 127 0 0 0 0 0 0 0 0 0 0 0 0 0 0 0 0 0 0 0 0 0 0 0 0 0 0 0 0 0 0 0 0 0 0 0 0 0 131 0 0 121 119 119 122 113 114 115 109 114 113 118 112 111 109 113 112 117 108 110 108 105 111 115 115 106 111 111 110 113 112 114 112 105 109 109 106 108 99 113 108 104 100 110 108 140
97 99 92 96 100 102 105 101 104 103 100 104 104 107 108 107 105 110 115 110 108 111 108 112 114 112 115 116 117 119 0 124 0 0 0 0 0 0 0 0 0 0 0 0 0 0 0 0 0 0 0 0 0 0 0 0 0 0 0 0 0 0 0 0 0 0 0 0 0 0 0 0 0 121 0 114 124 117 112 113 116 111 109 110 112 108 111 116 103 106 114 112 108 110 106 115 108 106 101 118 116 108 111 106 105 109 115 111 115 110 105 103 107 108 96 134 129 108 103 118
96 103 95 101 99 99 103 93 93 101 97 98 104 97 100 96 101 104 114 117 112 104 98 109 113 106 111 112 115 121 116 118 122 0 0 0 0 0 0 0 0 0 0 0 0 0 0 0 0 0 0 0 0 0 0 0 0 0 0 0 0 0 0 0 0 0 0 0 0 0 0 0 123 122 108 122 113 117 118 116 105 110 103 115 107 109 102 100 105 105 106 110 113 94 100 102 105 101 112 106 106 112 110 109 111 111 110 97 104 103 101 111 105 100 126 96 145 128 126 137
87 85 80 85 83 81 79 97 90 80 88 92 94 94 92 84 77 92 93 88 92 88 102 105 101 98 115 107 0 0 104 108 116 0 0 0 0 0 114 0 0 0 0 0 0 0 0 0 0 0 0 0 0 0 0 0 0 0 0 0 0 0 0 0 0 0 0 0 0 0 107 113 113 111 104 110 105 103 103 101 102 101 94 93 97 95 88 98 107 97 91 98 104 85 83 97 92 102 85 94 88 95 90 88 80 89 95 91 91 90 87 89 85 99 90 97 97 80 99 141
95 84 91 90 98 96 96 108 90 93 96 96 93 90 96 94 96 90 101 95 96 102 105 103 103 106 110 107 0 105 112 110 119 112 119 110 0 0 117 0 0 116 0 0 0 0 0 0 0 0 0 0 0 0 0 0 0 0 0 0 0 0 0 0 114 0 0 0 108 0 108 110 118 113 115 110 106 111 101 99 111 107 105 87 99 100 102 103 99 104 106 105 106 99 98 105 99 93 99 114 101 98 95 102 100 103 98 94 93 80 91 97 88 101 102 101 111 112 122 138
86 93 90 90 94 96 92 93 84 99 86 89 86 92 89 85 94 96 98 95 98 94 96 111 88 103 105 100 104 108 92 0 105 103 98 102 0 115 117 0 109 0 0 0 0 0 0 0 0 0 0 0 0 0 108 0 107 110 0 0 109 107 106 111 112 110 107 100 112 106 108 100 104 100 112 107 100 91 102 96 94 92 99 84 97 89 93 103 106 92 95 104 108 87 83 84 89 92 94 84 90 85 91 96 88 88 99 91 102 88 90 99 86 99 88 96 109 103 144 124
82 86 80 85 89 92 102 91 89 83 87 89 84 92 88 88 88 89 92 86 82 92 92 83 82 91 90 90 104 90 92 96 97 97 91 109 99 100 101 102 104 98 101 108 105 90 0 0 93 100 0 109 107 94 98 109 106 100 107 103 99 104 111 98 101 111 100 95 100 110 97 110 105 98 102 91 92 97 101 86 91 90 91 96 96 95 88 96 95 94 98 93 94 91 90 90 88 92 89 81 90 89 88 89 87 89 91 82 77 91 87 98 89 105 89 84 98 80 100 97
84 80 86 85 83 87 97 104 85 90 84 81 84 87 85 88 90 94 93 96 82 96 92 92 91 96 94 88 99 102 96 86 96 96 98 96 96 102 96 107 104 96 100 106 100 98 103 0 106 103 97 105 99 96 102 103 102 107 97 108 104 94 96 106 105 98 99 104 96 108 101 105 99 94 106 86 93 97 91 85 96 94 94 93 100 97 87 84 94 93 85 96 88 90 91 94 94 93 97 91 93 96 83 91 88 97 92 94 91 90 92 94 96 96 106 117 106 93 150 86
81 73 68 70 79 83 86 88 87 82 87 80 85 77 88 81 88 87 81 86 92 86 89 89 87 86 91 92 84 92 92 91 80 93 94 95 95 97 89 97 89 90 96 88 94 93 88 100 91 90 94 96 97 88 89 81 101 90 96 95 98 82 82 78 95 98 96 99 94 98 92 86 97 93 86 96 93 93 92 84 83 91 81 84 84 90 90 85 86 86 90 76 84 81 88 86 83 77 79 86 82 88 81 72 80 81 86 80 83 80 69 79 87 74 88 88 112 83 82 47
73 74 80 84 71 84 87 89 84 82 83 90 80 83 84 88 86 89 81 86 81 91 82 92 89 94 94 85 92 88 85 97 89 94 86 91 85 94 96 93 95 96 96 88 90 98 88 96 97 89 95 96 96 84 103 98 86 97 92 97 95 98 93 96 93 94 88 96 106 94 83 96 88 85 90 83 97 96 95 95 91 88 88 87 78 89 89 78 92 92 81 88 77 81 92 82 89 84 81 84 82 83 78 79 77 82 85 86 86 91 91 87 83 88 129 107 106 112 128 158
