0 0 0 0 0 0 0 0 0 0 0 0 0 0 0 0 0 0 0 0 0 0 0 0 0 0 0 0 0 0 0 0 0 0 0 0 0 0 0 0 0 0 0 0 0 0 0 0 0 0 0 0 0 0 0 0 0 0 0 0 0 0 0 0 0 0 0 0 0 0 0 0 0 0 0 0 0 0 0 0 0 0 0 0 0 0 0 0 0 0 0 0 0 0 0 0 0 0 0 0 0 0 0 0 0 0 0 0 0 0 0 0 0 0 0 0 0 0 0 0
0 0 0 0 0 0 0 0 0 0 0 0 0 0 0 0 0 0 0 0 0 0 0 0 0 0 0 0 0 0 0 0 0 0 0 0 0 0 0 0 0 0 0 0 0 0 0 0 0 0 0 0 0 0 0 0 0 0 0 0 0 0 0 0 0 0 0 0 0 0 0 0 0 0 0 0 0 0 0 0 0 0 0 0 0 0 0 0 0 0 0 0 0 0 0 0 0 0 0 0 0 0 0 0 0 0 0 0 0 0 0 0 0 0 0 0 0 0 0 0
0 0 0 0 0 0 0 0 0 0 0 0 0 0 0 0 0 0 0 0 0 0 0 0 0 0 0 0 0 0 0 0 0 0 0 0 0 0 0 0 0 0 0 0 0 0 0 0 0 0 0 0 0 0 0 0 0 0 0 0 0 0 0 0 0 0 0 0 0 0 0 0 0 0 0 0 0 0 0 0 0 0 0 0 0 0 0 0 0 0 0 0 0 0 0 0 0 0 0 0 0 0 0 0 0 0 0 0 0 0 0 0 0 0 0 0 0 0 0 0
0 0 0 0 0 0 0 0 0 0 0 0 0 0 0 0 0 0 0 0 0 0 0 0 0 0 0 0 0 0 0 0 0 0 0 0 0 0 0 0 0 0 0 0 0 0 0 0 0 0 0 0 0 0 0 0 0 0 0 0 0 0 0 0 0 0 0 0 0 0 0 0 0 0 0 0 0 0 0 0 0 0 0 0 0 0 0 0 0 0 0 0 0 0 0 0 0 0 0 0 0 0 0 0 0 0 0 0 0 0 0 0 0 0 0 0 0 0 0 0
0 0 0 0 0 0 0 0 0 0 0 0 0 0 0 0 0 0 0 0 0 0 0 0 0 0 0 0 0 0 0 0 0 0 0 0 0 0 0 0 0 0 0 0 0 0 0 0 0 0 0 0 0 0 0 0 0 0 0 0 0 0 0 0 0 0 0 0 0 0 0 0 0 0 0 0 0 0 0 0 0 0 0 0 0 0 0 0 0 0 0 0 0 0 0 0 0 0 0 0 0 0 0 0 0 0 0 0 0 0 0 0 0 0 0 0 0 0 0 0
0 0 0 0 0 0 0 0 0 0 0 0 0 0 0 0 0 0 0 0 0 0 0 0 0 0 0 0 0 0 0 0 0 0 0 0 0 0 0 504 479 517 503 490 512 478 522 509 488 494 498 529 511 484 497 0 0 0 0 0 0 0 0 0 0 0 0 0 0 0 0 0 0 0 0 0 0 0 0 0 0 0 0 0 0 0 0 0 0 0 0 0 0 0 0 0 0 0 0 0 0 0 0 0 0 0 0 0 0 0 0 0 0 0 0 0 0 0 0 0
0 0 0 0 0 0 0 0 0 0 0 0 0 0 0 0 0 0 0 0 0 0 0 0 0 0 0 0 0 0 0 0 0 0 0 0 0 479 518 510 501 492 500 484 499 485 507 503 501 517 499 518 493 503 507 505 495 508 530 487 0 0 0 0 0 0 0 0 0 0 0 0 0 0 0 0 0 0 0 0 0 0 0 0 0 0 0 0 0 0 0 0 0 0 0 0 0 0 0 0 0 0 0 0 0 0 0 0 0 0 0 0 0 0 0 0 0 0 0 0
0 0 0 0 0 0 0 0 0 0 0 0 0 0 0 0 0 0 0 0 0 0 0 0 0 0 0 0 0 0 0 0 0 0 0 515 509 516 515 494 513 520 489 517 505 506 496 505 517 508 510 513 499 503 522 510 512 518 504 509 519 545 514 511 530 0 0 0 0 0 0 0 0 0 0 0 0 0 0 0 0 0 0 0 0 0 0 0 0 0 0 0 0 0 0 0 0 0 0 0 0 0 0 0 0 0 0 0 0 0 0 0 0 0 0 0 0 0 0 0
0 0 0 0 0 0 0 0 0 0 0 0 0 0 0 0 0 0 0 0 0 0 0 0 0 0 0 0 0 0 0 0 0 494 482 497 505 515 489 495 505 499 494 487 503 497 499 502 502 507 494 492 511 495 503 498 501 494 514 509 495 492 486 497 491 514 497 517 501 473 484 509 505 0 556 565 549 530 585 566 0 0 0 0 0 0 0 0 0 0 0 0 0 0 0 0 0 0 0 0 0 0 0 0 0 0 0 0 0 0 0 0 0 0 0 0 0 0 0 0
0 0 0 0 0 0 0 0 0 0 0 0 0 0 0 0 0 0 0 0 0 0 0 0 0 0 0 0 0 0 0 554 518 523 500 507 500 503 514 499 512 498 506 513 495 516 512 508 514 508 512 505 513 505 500 499 512 508 513 508 521 517 516 516 512 514 511 533 551 564 619 587 584 580 581 587 602 588 610 582 579 582 645 615 554 644 530 566 596 602 596 642 652 584 623 585 612 599 655 573 643 577 628 582 0 0 0 0 0 0 0 0 0 0 0 0 0 0 0 0
0 0 0 0 0 0 0 0 0 0 0 0 0 0 0 0 0 0 0 0 0 0 0 0 0 0 0 0 0 0 515 505 513 509 493 504 501 499 487 507 501 496 498 502 507 499 510 499 500 504 512 507 505 513 508 509 508 503 500 510 513 497 503 505 501 504 527 513 514 522 536 598 550 550 582 578 580 552 579 567 577 553 558 578 549 558 605 565 581 598 591 568 574 591 575 567 575 609 547 607 580 608 565 632 583 519 587 638 555 0 0 0 0 0 0 0 0 0 0 0
0 0 0 0 0 0 0 0 0 0 0 0 0 0 0 0 0 0 0 0 0 0 0 0 0 0 0 0 512 499 492 496 492 505 511 497 499 499 502 489 501 497 483 507 509 507 500 504 495 509 492 502 497 493 504 497 494 496 495 507 502 501 500 506 512 500 515 497 513 498 510 535 524 533 580 560 526 555 543 543 550 563 525 573 530 521 527 532 585 577 563 555 547 571 555 614 522 529 513 564 510 554 519 560 564 541 572 541 579 0 0 0 0 0 0 0 0 0 0 0
0 0 0 0 0 0 0 0 0 0 0 0 0 0 0 0 0 0 0 0 0 0 0 0 0 0 0 488 520 512 500 497 500 501 503 495 504 498 507 492 517 506 502 509 503 507 499 509 506 518 500 500 507 510 500 505 503 519 508 512 511 504 499 507 509 503 507 515 510 511 512 517 553 558 565 565 580 583 588 531 573 590 544 590 578 561 596 605 587 580 596 572 580 560 560 569 595 590 547 589 595 590 624 565 605 602 555 600 576 0 0 0 0 0 0 0 0 0 0 0
0 0 0 0 0 0 0 0 0 0 0 0 0 0 0 0 0 0 0 0 0 0 0 0 0 0 491 502 496 502 500 489 494 487 504 496 503 485 504 494 494 504 494 502 504 515 503 505 502 504 508 499 501 509 505 503 503 507 511 503 513 503 511 498 506 503 509 498 512 507 516 512 527 524 527 526 545 551 523 554 538 521 555 521 531 530 529 517 545 541 565 521 557 556 538 547 552 541 533 503 523 549 565 516 530 578 562 499 564 0 0 0 0 0 0 0 0 0 0 0
0 0 0 0 0 0 0 0 0 0 0 0 0 0 0 0 0 0 0 0 0 0 0 0 0 459 494 491 502 501 498 494 503 492 488 488 488 495 513 489 504 500 502 506 504 497 504 505 499 503 502 503 506 502 498 510 500 505 501 502 510 502 501 518 508 507 500 500 505 504 509 499 523 533 534 507 525 527 537 508 525 537 511 532 528 528 504 537 535 505 565 551 528 529 508 527 534 519 548 527 537 538 475 524 475 569 538 497 527 524 534 0 0 0 0 0 0 0 0 0
0 0 0 0 0 0 0 0 0 0 0 0 0 0 0 0 0 0 0 0 0 0 0 0 0 494 485 485 499 494 499 491 506 497 492 499 500 500 496 504 504 507 502 497 498 498 509 497 496 500 501 504 500 508 500 497 506 505 504 501 506 506 511 513 512 503 510 512 506 516 516 509 506 514 522 546 550 573 553 571 563 547 549 551 562 564 569 576 544 557 559 557 554 559 601 537 559 567 575 537 580 520 553 578 554 569 566 543 556 0 0 0 0 560 0 0 0 0 0 0
0 0 0 0 0 0 0 0 0 0 0 0 0 0 0 0 0 0 0 0 0 0 0 0 482 485 482 493 495 488 490 483 494 489 500 495 496 498 493 491 495 489 491 498 499 497 496 501 494 498 491 504 502 498 507 501 502 500 506 505 496 502 503 502 494 509 508 505 513 500 505 505 500 500 506 510 499 519 513 537 517 488 530 495 510 524 531 495 532 493 538 543 525 507 525 536 544 520 541 524 505 511 557 527 537 543 529 531 517 483 0 0 0 0 0 0 0 0 0 0
0 0 0 0 0 0 0 0 0 0 0 0 0 0 0 0 0 0 0 0 0 0 0 0 484 494 502 488 493 497 491 493 490 488 489 499 505 494 496 494 501 492 505 497 495 498 508 500 498 498 507 501 498 507 501 499 502 502 508 501 516 510 505 511 502 514 515 506 507 511 509 512 510 513 502 529 516 533 534 541 567 555 539 517 578 517 554 555 526 582 529 568 565 529 547 526 536 545 535 553 571 534 549 523 580 545 579 541 509 541 551 0 0 0 0 0 0 0 0 0
0 0 0 0 0 0 0 0 0 0 0 0 0 0 0 0 0 0 0 0 0 0 0 461 488 493 486 486 496 498 490 500 491 491 491 499 496 495 492 495 503 493 503 503 501 505 500 505 497 501 507 499 501 507 499 498 503 500 509 501 503 499 498 506 502 511 505 501 503 508 503 509 511 506 514 526 512 546 530 552 500 560 521 521 530 553 562 537 522 529 531 527 563 548 559 506 533 520 544 553 550 555 512 560 552 519 543 547 556 533 518 0 0 0 0 0 0 0 0 0
0 0 0 0 0 0 0 0 0 0 0 0 0 0 0 0 0 0 0 0 0 0 0 481 491 485 494 490 491 487 494 489 490 496 488 492 478 485 484 503 483 495 498 495 507 502 495 501 485 507 495 494 495 500 506 502 503 508 505 494 493 500 504 499 507 492 498 504 513 509 498 506 503 510 511 504 523 535 517 495 502 511 536 576 535 523 540 500 522 517 516 521 530 511 490 521 531 539 512 498 506 495 532 539 528 518 503 537 516 518 464 0 0 0 0 0 0 0 0 0
0 0 0 0 0 0 0 0 0 0 0 0 0 0 0 0 0 0 0 0 0 0 462 490 493 486 490 497 485 485 488 502 498 496 489 496 498 488 496 485 497 500 497 505 497 497 499 493 501 506 501 505 500 494 514 502 510 506 499 505 503 505 511 504 506 512 504 504 507 510 504 504 508 509 500 515 519 546 545 543 557 535 550 520 543 553 538 548 530 563 552 517 558 560 533 566 540 534 543 534 538 551 512 515 546 541 533 544 552 555 568 500 538 0 0 0 0 0 0 0
0 0 0 0 0 0 0 0 0 0 0 0 0 0 0 0 0 0 0 0 0 0 477 491 478 492 492 484 489 501 491 487 493 486 499 488 490 488 490 487 496 493 490 496 493 493 494 495 500 499 495 500 500 505 499 499 503 505 500 505 500 501 506 507 499 507 511 502 517 503 507 511 504 502 517 508 497 516 543 510 537 509 499 536 533 491 547 511 525 543 527 489 533 527 512 488 503 516 515 517 514 504 519 510 508 542 530 513 550 515 523 537 0 0 0 0 0 0 0 0
0 0 0 0 0 0 0 0 0 0 0 0 0 0 0 0 0 0 0 0 0 0 472 478 484 496 480 481 497 483 486 481 489 486 483 484 492 494 491 494 500 506 497 490 496 501 495 492 492 496 492 501 498 499 500 493 501 510 510 501 506 509 504 501 495 504 501 508 508 498 505 501 510 508 507 506 505 528 517 496 519 516 526 518 541 531 508 504 508 493 509 521 510 537 526 534 516 512 523 513 504 495 504 495 500 551 486 529 495 543 537 511 507 0 0 0 0 0 0 0
0 0 0 0 0 0 0 0 0 0 0 0 0 0 0 0 0 0 0 0 0 0 499 492 490 490 493 491 487 491 492 489 491 490 494 488 486 486 494 486 495 494 495 497 506 498 498 498 496 502 506 507 507 499 500 502 502 501 497 502 507 503 506 498 501 504 504 509 507 501 508 508 506 506 511 512 506 523 528 516 528 532 544 537 529 556 520 539 552 512 506 555 553 547 538 509 571 573 557 518 540 550 524 536 552 538 576 546 547 577 545 525 536 515 0 0 0 0 0 0
0 0 0 0 0 0 0 0 0 0 0 0 0 0 0 0 0 0 0 0 0 0 469 481 478 484 480 486 483 488 489 484 497 486 495 489 487 486 490 488 497 484 501 496 488 499 489 495 498 498 495 492 497 497 501 498 503 500 501 497 502 507 499 510 509 504 493 499 501 508 502 496 504 503 507 501 502 516 500 514 479 507 507 518 507 479 514 534 514 506 512 485 499 500 475 514 509 533 507 507 517 514 494 490 509 508 526 528 499 502 428 493 448 0 0 0 0 0 0 0
0 0 0 0 0 0 0 0 0 0 0 0 0 0 0 0 0 0 0 0 0 0 481 485 493 489 492 482 488 493 501 489 487 493 494 492 487 490 500 493 491 493 497 494 502 493 490 499 505 496 496 495 507 497 500 502 500 502 502 501 509 503 500 511 503 503 506 502 498 507 502 512 506 502 504 499 511 523 527 518 528 510 531 527 535 521 540 534 542 499 537 559 520 530 542 502 544 524 503 529 539 513 512 539 513 553 553 571 593 0 482 533 546 0 0 0 0 0 0 0
0 0 0 0 0 0 0 0 0 0 0 0 0 0 0 0 0 0 0 0 0 464 478 493 491 482 492 490 489 491 490 490 486 496 491 486 494 495 496 497 497 498 492 492 496 494 500 499 494 496 501 493 497 499 497 497 497 500 504 500 506 499 506 510 499 503 507 506 502 508 508 501 504 511 506 505 502 510 514 506 497 538 513 490 516 517 538 540 521 505 517 510 479 530 537 503 489 557 525 560 509 539 542 538 524 526 540 519 514 513 561 0 0 0 0 0 0 0 0 0
0 0 0 0 0 0 0 0 0 0 0 0 0 0 0 0 0 0 0 0 0 444 477 480 487 483 477 478 484 476 483 482 488 481 484 492 495 492 490 490 493 493 491 494 492 491 492 495 494 495 498 495 494 504 504 499 501 500 492 502 500 497 498 499 503 505 498 502 505 492 498 501 499 504 504 506 498 503 512 510 521 511 502 530 495 505 528 501 502 535 488 488 492 511 504 494 508 523 488 478 504 503 529 519 505 477 492 492 495 532 484 484 478 0 0 0 0 0 0 0
0 0 0 0 0 0 0 0 0 0 0 0 0 0 0 0 0 0 0 0 0 475 480 477 486 479 484 480 486 481 485 485 489 489 486 486 484 490 485 496 495 487 492 494 494 495 498 497 494 495 497 500 494 496 497 503 497 502 506 499 506 504 500 504 499 506 511 511 509 504 506 506 500 509 510 505 500 515 514 505 507 524 515 527 521 522 514 507 525 524 549 545 520 530 556 524 527 545 519 531 520 521 541 506 544 549 531 534 521 587 577 601 567 0 0 0 0 0 0 0
0 0 0 0 0 0 0 0 0 0 0 0 0 0 0 0 0 0 0 0 0 458 473 478 476 472 479 485 485 486 477 485 484 489 484 490 486 487 485 493 487 492 493 494 489 494 488 492 489 492 494 499 495 498 497 495 495 502 500 499 492 499 499 500 498 500 499 503 499 503 504 503 502 497 504 496 507 502 516 482 486 482 496 490 491 476 486 491 486 498 519 522 496 500 499 512 477 493 521 501 480 518 477 495 487 489 510 502 477 445 489 520 460 0 0 0 0 0 0 0
0 0 0 0 0 0 0 0 0 0 0 0 0 0 0 0 0 0 0 0 0 448 486 480 488 483 479 480 476 481 485 484 482 484 484 488 485 491 485 493 481 492 490 492 491 489 484 493 495 492 491 497 501 497 499 494 499 501 492 497 497 497 497 493 495 503 504 501 498 496 497 496 496 505 495 494 496 505 507 505 490 517 476 498 510 505 502 474 513 483 507 508 498 506 488 495 474 499 517 508 515 489 512 478 519 477 507 483 498 506 446 519 476 0 0 0 0 0 0 0
0 0 0 0 0 0 0 0 0 0 0 0 0 0 0 0 0 0 0 0 0 457 479 479 476 484 478 475 492 479 485 492 491 481 487 484 485 489 490 490 491 490 488 494 492 491 493 497 496 493 490 496 497 494 496 502 494 498 503 501 492 496 498 499 496 503 503 500 504 498 493 496 501 508 504 504 505 501 518 514 503 515 517 520 553 519 536 518 524 528 521 523 525 525 507 534 528 537 498 525 508 503 549 536 530 518 544 569 525 526 518 554 556 0 0 0 0 0 0 0
0 0 0 0 0 0 0 0 0 0 0 0 0 0 0 0 0 0 0 0 0 431 477 480 470 474 470 483 477 484 481 482 486 487 485 486 484 489 483 489 491 487 487 492 492 489 492 488 495 495 497 495 493 497 497 496 492 498 499 495 494 491 500 497 499 500 495 503 501 503 498 500 499 497 506 492 498 500 500 496 495 513 509 505 527 541 510 504 503 489 492 513 500 493 493 492 485 503 478 474 489 492 499 496 491 511 480 483 515 478 530 494 457 0 0 0 0 0 0 0
0 0 0 0 0 0 0 0 0 0 0 0 0 0 0 0 0 0 0 0 0 462 485 473 479 481 479 483 475 477 483 482 486 489 480 487 485 486 483 493 491 486 493 496 493 493 491 495 493 495 489 494 492 494 496 495 494 500 494 499 505 496 501 501 499 497 503 499 494 503 500 497 492 499 498 494 500 500 493 515 517 501 509 521 513 514 505 515 525 493 495 514 507 501 511 520 514 545 519 533 517 528 536 523 536 520 503 509 498 534 508 524 516 0 0 0 0 0 0 0
0 0 0 0 0 0 0 0 0 0 0 0 0 0 0 0 0 0 0 0 0 429 478 479 475 473 479 477 481 480 481 485 486 491 484 478 480 484 487 488 487 486 486 491 491 491 489 493 493 492 494 491 491 494 495 493 493 495 493 496 495 502 496 497 503 499 499 497 498 497 500 498 498 503 498 498 496 504 505 501 505 495 501 505 501 487 516 486 506 498 481 498 500 485 490 521 495 519 528 486 517 482 504 535 509 510 515 520 506 500 483 461 526 501 0 0 0 0 0 0
0 0 0 0 0 0 0 0 0 0 0 0 0 0 0 0 0 0 0 0 0 423 467 469 467 471 472 474 472 480 476 480 480 477 482 479 484 478 478 480 485 488 481 492 481 486 488 486 486 493 494 493 494 489 500 494 492 496 490 492 495 496 498 492 494 500 499 496 494 495 498 495 498 496 496 488 507 495 498 503 509 480 494 477 496 484 514 510 495 487 469 478 487 497 497 477 487 477 491 473 502 493 489 494 488 462 475 507 483 494 496 429 504 474 0 0 0 0 0 0
0 0 0 0 0 0 0 0 0 0 0 0 0 0 0 0 0 0 0 0 0 520 474 471 485 473 483 471 475 478 481 482 480 484 481 483 484 487 485 488 479 485 491 488 490 490 486 492 488 495 495 495 495 497 492 494 494 495 492 494 495 502 498 502 499 496 499 502 501 497 499 497 496 498 502 497 492 490 516 489 513 498 525 488 502 501 480 496 510 501 510 512 486 522 499 526 491 509 534 499 533 523 511 515 516 519 515 507 534 539 550 534 510 521 0 0 0 0 0 0
0 0 0 0 0 0 0 0 0 0 0 0 0 0 0 0 0 0 0 0 0 0 480 472 473 474 476 474 478 482 478 479 492 477 481 482 487 485 485 486 485 483 489 490 485 485 488 492 490 490 493 499 492 492 494 494 489 493 492 493 495 496 493 499 496 498 500 497 493 496 495 498 493 496 494 496 490 492 488 490 487 497 493 486 518 487 504 505 499 487 494 518 494 505 505 499 473 505 506 499 485 512 454 496 512 517 490 461 502 468 469 483 468 532 0 0 0 0 0 0
0 0 0 0 0 0 0 0 0 0 0 0 0 0 0 0 0 0 0 0 0 0 497 480 471 476 475 476 477 478 479 478 481 478 480 484 481 486 488 479 486 485 483 480 487 488 482 485 486 493 488 489 492 493 496 495 493 490 492 489 492 493 492 493 496 496 492 500 493 496 497 493 496 493 493 494 495 496 498 488 502 500 505 507 521 518 525 505 513 492 511 506 506 521 512 489 495 505 500 484 498 497 475 492 462 500 506 494 479 487 453 465 446 466 0 0 0 0 0 0
0 0 0 0 0 0 0 0 0 0 0 0 0 0 0 0 0 0 0 0 0 0 524 479 469 475 476 475 479 472 478 479 482 484 478 486 478 488 478 487 481 481 488 486 491 485 486 492 487 489 492 497 495 491 493 498 493 489 496 494 500 496 496 492 497 494 496 498 496 491 495 496 492 494 497 496 498 500 504 512 507 514 503 502 528 507 538 513 512 497 530 516 518 530 526 524 517 521 515 519 494 514 523 532 519 501 501 493 544 520 545 506 494 499 517 499 0 0 0 0
0 0 0 0 0 0 0 0 0 0 0 0 0 0 0 0 0 0 0 0 0 0 601 469 480 478 477 471 475 478 473 478 478 480 479 484 482 483 486 482 485 486 486 485 487 486 484 485 491 487 490 497 492 491 490 493 492 490 496 490 492 499 495 496 498 494 502 502 494 493 490 493 493 494 492 493 499 499 491 512 495 496 499 496 511 491 489 506 504 518 509 488 523 514 530 535 498 504 508 498 498 517 470 470 466 483 487 492 460 469 487 449 481 479 504 450 0 0 0 0
0 0 0 0 0 0 0 0 0 0 0 0 0 0 0 0 0 0 0 0 0 0 786 480 469 473 472 474 470 471 477 477 479 481 476 482 478 482 478 480 486 485 490 486 488 489 488 493 488 492 491 487 498 489 486 488 492 495 495 496 493 496 491 496 496 492 493 501 498 496 499 493 498 490 495 493 491 504 486 495 504 511 491 488 497 489 500 501 489 517 488 528 503 521 506 513 521 526 517 509 515 523 535 471 490 489 473 521 487 500 500 473 491 0 499 0 0 0 0 0
0 0 0 0 0 0 0 0 0 0 0 0 0 0 0 0 0 0 0 0 0 0 0 489 478 472 473 472 479 477 479 480 477 473 480 474 481 480 487 479 485 485 490 487 483 484 489 490 494 490 490 489 492 487 497 495 495 490 493 496 491 494 493 492 491 494 492 495 496 498 494 495 494 491 492 487 487 485 504 510 500 502 496 491 508 495 499 496 504 524 494 501 505 487 488 521 522 513 515 530 556 500 513 508 496 516 506 493 520 517 490 474 466 0 0 0 0 0 0 0
0 0 0 0 0 0 0 0 0 0 0 0 0 0 0 0 0 0 0 0 0 0 0 487 472 477 471 472 469 477 474 472 479 478 471 477 479 481 481 481 484 484 486 483 483 485 484 489 487 484 488 489 487 487 493 488 499 490 488 492 496 493 488 497 494 494 492 491 491 488 491 492 488 497 495 491 489 482 491 482 500 493 503 499 494 501 485 492 506 487 496 503 491 496 502 482 503 474 504 480 484 479 501 459 461 489 468 471 475 503 481 457 464 436 0 0 0 0 0 0
0 0 0 0 0 0 0 0 0 0 0 0 0 0 0 0 0 0 0 0 0 0 0 0 487 468 460 468 477 471 475 476 479 481 473 478 477 483 484 482 479 480 481 485 491 485 487 488 493 489 489 495 488 491 490 490 491 488 489 493 488 498 493 493 494 493 495 492 497 500 498 493 486 490 489 489 494 520 504 499 498 514 517 520 528 519 506 524 507 497 525 500 508 516 531 509 511 516 513 513 499 531 506 506 498 496 464 517 502 520 492 512 535 517 537 484 0 0 0 0
0 0 0 0 0 0 0 0 0 0 0 0 0 0 0 0 0 0 0 0 0 0 0 0 466 467 473 473 481 470 469 473 471 471 477 474 476 477 480 478 482 483 481 488 485 481 490 490 484 487 488 488 488 492 491 488 495 490 493 488 485 487 488 492 492 490 490 491 491 492 493 490 494 488 492 486 490 491 487 490 502 490 472 480 505 523 483 489 504 505 517 479 496 504 510 521 512 516 506 488 478 523 478 479 447 483 457 440 463 467 475 493 467 464 451 422 0 0 0 0
0 0 0 0 0 0 0 0 0 0 0 0 0 0 0 0 0 0 0 0 0 0 0 0 0 470 469 469 468 472 470 472 476 475 474 476 474 474 481 478 479 476 481 481 482 481 488 485 483 483 491 484 488 490 487 484 487 487 485 488 493 488 490 491 493 491 492 494 496 497 490 489 493 495 489 479 489 488 479 486 492 486 487 495 488 494 488 492 497 487 497 495 498 485 501 512 499 515 497 507 484 501 517 491 475 468 451 466 491 450 497 482 483 441 481 0 0 0 0 0
0 0 0 0 0 0 0 0 0 0 0 0 0 0 0 0 0 0 0 0 0 0 0 0 0 547 477 475 474 469 469 470 478 472 479 474 476 475 480 475 484 482 481 482 487 481 476 484 491 486 485 484 484 489 490 490 496 487 492 492 488 490 490 488 488 493 496 486 489 490 493 491 495 490 496 499 491 495 483 475 509 502 489 489 486 500 491 503 491 495 508 495 499 520 520 504 516 514 513 511 545 505 519 512 522 492 512 468 487 496 495 474 473 499 0 0 0 0 0 0
0 0 0 0 0 0 0 0 0 0 0 0 0 0 0 0 0 0 0 0 0 0 0 0 0 0 472 466 464 468 467 474 468 472 476 474 476 475 476 478 476 477 481 476 484 481 483 484 480 481 491 488 488 487 489 488 487 486 487 491 488 486 483 488 492 492 491 485 491 491 497 491 485 485 481 482 476 486 491 486 471 484 479 484 476 482 485 476 478 486 472 502 477 491 470 478 480 487 514 495 476 477 483 458 471 464 465 468 474 446 432 460 427 418 0 0 0 0 0 0
0 0 0 0 0 0 0 0 0 0 0 0 0 0 0 0 0 0 0 0 0 0 0 0 0 0 0 475 470 463 469 468 472 473 471 472 476 474 473 478 477 485 479 482 477 482 481 478 485 485 483 485 486 490 488 482 490 487 483 491 486 484 493 491 486 490 486 487 487 496 491 486 484 478 486 482 486 476 489 482 495 499 493 476 498 489 490 485 476 480 489 523 479 490 487 479 504 519 513 506 512 477 528 502 509 502 477 504 473 477 498 462 472 499 0 0 0 0 0 0
0 0 0 0 0 0 0 0 0 0 0 0 0 0 0 0 0 0 0 0 0 0 0 0 0 0 0 515 465 464 469 465 471 473 472 472 474 472 474 479 477 481 479 480 479 475 480 481 483 482 482 481 488 488 484 484 484 487 486 487 484 485 490 492 488 488 488 490 487 489 484 482 484 481 484 498 489 481 497 492 489 495 489 483 495 502 516 473 503 503 501 508 476 503 504 490 504 503 479 489 478 511 498 495 460 458 486 489 472 455 446 470 471 494 0 0 0 0 0 0
0 0 0 0 0 0 0 0 0 0 0 0 0 0 0 0 0 0 0 0 0 0 0 0 0 0 0 0 497 465 467 462 469 467 474 464 474 469 475 477 474 474 475 478 478 477 474 479 482 479 481 478 487 486 484 484 481 486 485 482 485 484 487 487 481 489 487 482 490 488 484 483 479 480 486 486 488 479 487 461 474 471 479 477 483 466 495 478 469 482 486 478 480 474 471 475 457 461 484 467 476 464 470 472 442 444 463 430 432 435 415 470 432 424 436 0 0 0 0 0
0 0 0 0 0 246 237 267 304 0 0 0 0 0 0 0 0 0 0 0 0 2335 0 0 0 0 0 0 0 516 462 467 471 466 462 475 473 468 471 473 473 479 479 468 475 481 478 481 477 476 478 480 478 483 482 482 485 482 484 481 483 488 487 491 485 486 485 486 477 490 475 492 484 487 474 493 499 491 491 484 482 485 493 494 486 500 485 507 500 490 508 505 522 497 507 488 512 514 500 496 481 485 506 492 455 479 475 493 492 505 442 476 489 477 494 0 0 0 0 0
0 0 0 0 234 226 232 233 230 283 316 0 0 0 0 0 0 0 0 0 0 2393 0 0 0 0 0 0 0 0 445 463 461 469 468 466 467 468 473 472 472 475 471 473 478 474 478 474 479 479 476 481 477 481 481 481 480 477 478 485 479 480 481 483 481 487 480 484 478 484 472 467 466 464 476 477 471 470 471 477 480 465 478 473 470 479 487 473 468 467 463 469 478 483 470 470 467 474 467 477 474 468 461 456 449 453 448 454 457 436 463 435 434 0 0 0 0 0 0 0
0 0 0 239 219 229 228 225 231 238 329 0 0 0 0 0 0 0 0 0 0 0 0 0 0 0 0 0 0 0 0 472 462 469 465 466 467 469 467 468 465 468 474 470 470 475 471 472 473 473 480 476 474 475 480 474 480 476 474 483 484 486 476 478 476 477 484 475 479 474 468 474 483 484 466 471 477 460 486 481 479 491 477 471 477 472 483 481 473 488 462 488 490 462 499 468 481 471 460 482 459 489 450 455 467 456 441 462 465 476 444 457 456 421 468 0 0 0 0 0
246 248 276 265 244 300 267 229 234 233 319 0 407 433 422 417 457 416 450 421 461 463 459 436 456 462 446 455 450 454 452 468 460 469 460 459 462 468 471 469 467 470 472 472 474 470 470 473 475 471 471 472 478 480 482 487 475 481 479 481 474 479 476 480 484 483 479 478 480 475 478 473 472 485 478 462 483 484 479 475 481 479 482 471 483 470 478 480 491 470 473 478 487 473 485 468 491 478 476 488 477 479 474 490 480 467 451 470 474 463 461 457 479 486 494 0 0 0 0 0
163 210 179 224 213 228 241 230 230 254 319 359 380 408 374 405 395 396 403 403 394 405 394 418 415 418 420 444 434 432 450 452 454 450 450 456 450 454 458 457 459 460 456 461 467 472 470 472 470 472 462 468 472 475 466 471 467 473 467 476 468 465 474 473 464 468 476 471 466 465 473 459 466 466 463 454 453 451 444 459 452 450 449 448 456 451 445 446 451 456 447 444 442 433 454 436 454 465 454 455 456 454 446 440 430 447 429 442 443 428 442 413 439 422 410 426 394 0 0 0
210 201 216 238 244 242 230 225 240 307 357 370 384 359 378 383 368 374 373 372 379 400 381 413 409 414 428 418 423 432 443 444 447 442 438 437 441 451 447 448 439 452 453 446 447 449 454 454 455 454 457 453 455 452 453 457 453 456 457 461 459 462 453 460 461 455 456 457 455 454 460 450 448 442 441 431 436 432 424 439 419 431 438 429 437 432 429 426 432 425 428 440 426 429 444 411 428 429 430 417 413 414 440 438 429 422 402 427 427 416 422 421 444 425 425 412 457 467 414 413
279 288 256 232 229 225 231 235 260 364 337 333 357 339 349 324 346 349 346 357 354 354 365 374 377 382 397 400 418 410 415 430 417 432 424 425 436 431 428 433 434 431 431 431 434 429 436 441 441 436 448 437 440 443 449 445 449 445 440 446 446 443 448 444 437 444 437 440 442 441 431 433 425 429 426 415 412 409 397 392 399 401 389 404 405 403 400 386 396 388 403 395 409 392 401 399 397 403 395 393 403 395 400 401 385 388 387 384 372 377 373 378 393 355 367 391 401 386 400 432
283 301 263 233 231 232 234 242 282 294 306 308 305 291 300 304 317 300 306 310 325 317 332 351 351 363 375 378 400 388 391 400 404 414 407 404 409 403 412 412 410 415 411 414 413 415 415 428 411 417 413 413 418 428 417 419 415 420 416 416 419 424 415 422 415 416 421 412 422 413 413 409 407 403 392 394 384 364 360 352 355 362 349 370 359 352 357 360 356 365 360 370 351 356 372 355 353 359 359 354 360 361 341 359 350 363 352 338 349 360 351 349 354 337 352 331 362 330 298 300
295 277 281 263 266 256 255 287 284 285 267 291 286 286 294 293 290 288 287 282 294 310 306 324 328 349 366 369 364 373 379 388 393 391 388 388 393 395 393 396 398 388 389 392 396 398 396 386 399 395 386 400 399 402 400 397 397 398 402 398 396 397 392 397 395 389 402 398 403 395 393 391 391 389 373 369 361 349 343 343 343 325 322 344 339 328 328 335 335 328 339 343 341 345 350 345 337 326 319 348 329 332 332 331 346 353 338 338 331 326 340 337 339 339 362 342 330 341 321 387
238 248 253 246 238 249 244 255 258 258 253 245 258 252 252 250 253 261 265 270 265 277 290 298 305 315 323 338 344 350 351 364 366 365 358 360 368 365 366 368 370 369 366 371 369 368 370 367 366 365 376 374 375 370 384 374 374 383 370 370 374 372 374 373 365 373 373 374 374 365 362 363 362 350 352 341 323 317 313 308 312 299 306 296 306 309 302 300 301 286 303 298 306 287 306 300 296 294 291 298 299 300 302 302 299 302 294 296 295 284 284 306 308 296 277 287 276 331 262 259
237 232 235 225 231 235 235 234 240 233 243 246 251 243 248 245 243 244 251 249 249 263 270 280 289 304 309 326 329 326 330 339 338 333 336 342 339 338 341 346 342 349 348 345 349 345 343 352 348 343 340 343 347 351 348 348 343 351 349 346 358 350 352 340 341 345 348 355 346 348 342 339 336 336 325 323 305 291 295 292 281 278 274 277 278 279 276 277 276 275 278 280 275 280 274 271 276 274 278 279 286 274 275 278 263 265 267 284 274 282 272 287 293 287 268 298 276 284 286 281
222 208 224 216 225 212 226 220 222 222 230 221 220 238 227 231 229 230 234 242 245 246 254 264 269 284 291 294 301 299 308 320 314 317 315 321 317 327 323 325 321 320 325 322 327 326 323 327 323 320 327 325 323 331 331 323 329 318 329 330 331 331 327 327 325 324 327 315 325 319 320 324 318 311 303 299 283 275 275 272 272 258 269 269 259 266 261 260 259 248 258 267 258 263 252 258 258 254 262 257 262 260 266 266 251 258 262 262 268 261 246 274 264 254 261 293 237 269 277 257
174 207 205 207 214 206 211 213 206 210 207 215 206 219 218 215 211 217 213 220 221 230 242 242 251 260 268 270 279 287 293 290 288 290 294 299 292 296 301 306 300 296 297 304 302 299 300 301 304 305 307 302 296 296 298 307 308 301 303 304 301 301 304 303 302 303 299 299 303 296 290 297 298 287 287 278 265 260 253 251 247 246 246 249 242 242 241 237 239 240 241 240 242 238 237 232 241 237 244 235 243 239 249 238 247 237 239 231 237 241 242 245 245 241 256 249 246 222 232 243
181 201 197 200 209 205 211 208 198 209 205 183 202 193 184 210 206 206 213 213 218 220 223 231 241 247 249 260 266 273 269 264 271 272 280 277 282 284 278 280 281 281 285 287 283 282 278 287 284 283 280 285 285 283 279 281 287 282 283 286 286 288 286 287 286 284 283 287 285 287 279 281 279 270 269 261 253 245 245 239 236 228 230 225 225 224 222 223 227 229 227 229 223 230 223 231 222 220 229 224 229 231 228 226 228 223 229 227 228 238 236 230 235 241 233 231 232 232 231 236
173 192 190 173 182 196 202 190 178 182 177 174 182 180 188 177 182 189 189 192 214 209 218 232 228 230 236 244 248 246 253 261 256 251 261 253 256 257 262 265 262 264 265 269 261 266 267 267 260 268 263 269 265 263 267 265 263 267 262 272 266 268 267 274 261 270 268 267 270 264 266 257 255 255 256 240 238 236 224 220 224 217 215 213 215 221 213 218 218 219 218 216 220 213 216 208 196 210 210 216 216 217 218 213 192 211 222 209 221 219 218 228 232 221 223 227 228 212 213 223
176 171 171 174 177 172 177 175 178 176 177 179 183 175 187 183 182 183 179 190 188 189 205 211 213 221 221 220 229 230 233 242 241 238 241 236 234 245 246 245 243 245 250 248 245 252 244 248 244 249 245 249 246 250 244 248 253 248 249 252 247 246 253 249 243 250 245 245 246 246 242 245 239 237 238 228 222 221 214 196 194 198 191 187 191 191 192 195 185 193 193 195 190 179 184 188 183 187 191 188 190 188 188 190 189 193 188 177 199 206 203 199 210 207 208 200 200 206 182 202
170 170 176 176 174 179 173 171 176 179 178 175 175 174 175 177 176 183 181 181 179 188 191 189 211 192 216 214 216 226 224 227 223 224 228 225 231 231 230 229 227 229 233 233 230 235 227 231 235 237 234 234 236 233 238 232 236 241 237 239 237 239 237 233 236 231 236 231 230 234 234 231 230 224 218 218 210 196 190 191 195 195 197 192 194 194 194 185 190 189 190 180 191 180 190 184 182 189 188 184 175 179 190 182 181 179 182 176 180 185 184 204 194 200 207 206 218 213 208 196
161 163 166 166 171 163 171 164 166 166 163 164 163 170 167 166 170 174 174 181 175 182 189 186 186 185 186 188 191 210 209 212 208 210 193 210 211 213 212 197 212 215 215 214 216 219 219 219 220 222 215 218 216 219 221 218 216 224 221 220 219 221 218 222 217 216 215 218 218 220 220 214 216 194 191 193 185 192 194 185 186 180 181 182 186 184 183 185 184 183 183 178 177 178 186 182 182 179 183 183 185 181 180 184 178 177 181 180 176 179 179 181 176 169 197 170 177 176 171 198
149 153 161 161 159 167 160 160 162 161 159 160 159 160 160 160 162 171 165 172 172 176 181 179 182 185 184 181 183 184 186 186 194 184 187 187 186 186 186 189 194 191 193 197 197 194 194 193 192 193 197 195 195 194 199 191 196 193 193 197 214 197 195 190 195 198 194 195 198 192 199 195 193 194 197 196 193 190 186 179 177 178 174 173 177 174 176 176 173 175 172 173 171 170 172 168 168 167 169 176 171 174 170 171 175 170 170 164 171 166 167 174 169 173 177 171 166 164 188 173
150 154 150 153 155 150 153 159 160 156 155 157 157 151 156 156 160 160 157 166 167 167 178 175 179 180 179 185 182 185 189 191 188 188 191 189 189 192 188 192 195 195 188 195 194 197 195 198 198 193 192 188 199 195 197 194 195 197 194 199 199 196 197 188 194 194 195 199 196 194 194 196 192 192 190 186 183 181 179 174 169 172 167 165 166 167 170 167 167 168 170 171 171 170 171 168 165 163 165 167 169 166 173 168 162 162 162 166 166 161 163 167 172 169 177 161 167 168 174 168
143 142 146 142 142 151 149 147 152 150 147 152 151 152 150 149 153 149 151 159 161 164 163 169 174 173 173 174 174 174 177 175 182 182 175 178 182 177 182 181 182 184 186 185 184 185 183 186 188 182 186 189 188 185 187 185 187 187 0 189 187 189 184 183 188 186 187 189 181 187 184 185 181 178 175 171 175 172 166 164 159 158 158 159 157 161 162 158 160 161 158 159 158 160 160 160 153 155 162 161 160 157 161 155 152 155 156 154 160 157 149 155 157 157 159 168 151 154 156 163
135 142 138 142 140 147 146 144 141 145 144 145 145 144 142 145 144 147 145 152 159 161 165 163 166 167 169 170 168 171 170 173 175 175 170 174 177 171 173 176 174 179 176 177 176 177 178 177 176 177 178 182 178 181 182 181 182 0 0 179 178 177 180 182 180 176 178 179 179 170 175 177 176 172 171 170 169 164 163 158 163 154 154 154 159 159 157 151 152 155 152 155 158 154 154 152 155 155 154 156 158 154 152 153 152 144 144 150 156 152 155 143 153 154 149 155 152 159 155 163
136 134 132 135 140 144 150 145 139 141 140 137 141 144 139 141 140 148 146 148 149 154 155 157 159 156 158 161 166 165 159 163 166 167 163 167 168 169 167 171 174 0 169 169 170 172 171 172 171 174 172 171 173 175 177 0 172 172 0 173 0 0 176 173 172 171 174 168 172 172 167 167 167 168 166 164 165 157 159 150 149 155 151 151 153 150 151 145 151 153 146 152 150 149 147 147 153 150 154 147 149 145 146 150 148 141 145 141 151 143 152 141 146 159 148 145 148 155 149 170
128 121 129 113 135 135 141 135 129 120 132 131 131 126 136 132 138 138 137 141 138 147 148 152 149 157 158 155 159 161 156 155 157 159 154 156 164 162 0 0 0 0 0 0 0 0 165 166 164 165 165 163 167 164 0 0 168 166 168 0 0 0 0 0 166 165 166 0 164 163 162 159 160 159 152 155 153 156 147 147 150 145 146 148 142 149 143 146 147 142 139 144 143 145 139 138 141 145 142 146 132 139 138 138 135 131 135 134 136 143 137 145 149 150 147 142 137 142 137 134
116 118 123 113 128 132 133 132 136 131 132 133 126 132 131 127 130 138 134 135 145 141 147 146 148 150 153 152 153 155 154 153 156 156 153 155 153 0 0 0 0 0 0 0 0 0 0 0 156 161 166 160 0 0 0 0 0 0 0 0 0 0 0 0 162 160 0 0 0 0 0 157 159 154 154 151 150 153 150 146 141 139 143 143 140 143 141 138 146 141 133 140 138 141 139 136 140 141 138 138 135 134 137 133 129 131 136 132 140 143 135 151 145 146 141 135 140 116 142 167
111 106 120 123 125 115 126 127 130 126 124 118 119 119 119 120 130 133 130 128 126 134 133 142 140 143 143 144 147 148 149 147 152 150 149 145 0 0 0 0 0 0 0 0 0 0 0 0 149 153 157 0 0 0 0 0 0 0 0 0 0 0 0 0 0 0 0 0 0 0 0 0 148 148 149 148 145 143 140 146 129 141 128 127 125 128 135 141 128 128 140 129 137 126 118 127 138 138 132 136 127 137 133 123 126 129 138 126 137 138 135 141 130 132 137 130 127 116 109 132
104 109 111 109 107 110 117 119 111 118 117 115 114 117 128 121 118 117 116 118 130 123 126 124 135 136 138 138 142 140 143 143 144 141 145 140 0 0 0 0 0 0 0 0 0 0 0 0 0 0 0 0 0 0 0 0 0 0 0 0 0 0 0 0 0 0 0 0 0 0 0 0 143 139 142 139 137 131 127 129 123 121 120 119 125 121 122 126 121 126 122 125 115 127 127 124 126 123 121 117 119 121 133 118 121 122 127 121 134 135 116 133 123 129 122 129 114 100 121 133
108 108 114 116 111 116 114 115 117 117 114 116 116 117 118 122 118 119 122 116 118 114 121 116 137 138 141 131 0 133 0 0 0 137 143 0 0 0 0 0 0 0 0 0 0 0 0 0 0 0 0 0 0 0 0 0 0 0 0 0 0 0 0 0 0 0 0 0 0 0 0 0 0 143 124 136 124 123 121 126 123 119 122 129 114 122 117 118 120 120 120 125 110 118 112 121 119 120 119 119 118 124 121 120 121 118 117 123 114 135 128 108 131 122 131 129 127 130 152 139
102 100 107 110 107 103 106 99 99 102 109 105 101 105 104 110 109 114 116 111 114 117 113 118 119 119 125 119 117 126 0 0 0 0 0 0 0 0 0 0 0 0 0 0 0 0 0 0 0 0 0 0 0 0 0 0 0 0 0 0 0 0 0 0 0 0 0 0 0 0 0 0 128 0 0 127 120 117 121 116 116 112 108 115 115 113 110 113 112 109 111 113 109 111 110 106 111 111 115 107 113 108 111 110 110 112 110 112 110 103 104 113 104 121 113 98 108 121 114 146
100 101 94 96 103 98 102 101 104 102 103 99 104 109 107 103 105 107 115 104 111 111 105 108 117 110 115 116 123 121 0 125 0 0 0 0 0 0 0 0 0 0 0 0 0 0 0 0 0 0 0 0 0 0 0 0 0 0 0 0 0 0 0 0 0 0 0 0 0 0 0 0 0 0 0 118 121 115 112 109 110 111 104 105 112 108 107 116 105 109 112 111 110 111 106 116 107 107 95 117 111 108 112 105 108 116 110 110 114 110 108 105 116 102 102 119 128 112 127 141
99 100 97 101 96 95 104 89 90 99 96 96 98 94 101 94 104 103 114 115 115 106 96 108 112 107 111 114 114 120 120 117 122 0 0 0 0 0 0 0 0 0 0 0 0 0 0 0 0 0 0 0 0 0 0 0 0 0 0 0 0 0 0 0 0 0 0 0 0 0 0 0 122 120 105 121 112 113 116 118 106 109 103 115 107 105 102 102 103 104 104 103 110 96 99 102 106 100 110 105 105 115 112 110 105 107 108 89 95 103 106 100 104 98 101 97 135 125 128 119
88 84 81 84 79 82 83 93 87 85 89 91 96 93 90 89 76 94 92 87 92 85 97 104 99 102 116 108 0 0 105 104 117 0 107 0 0 0 0 0 0 0 0 0 0 0 0 0 0 0 0 0 0 0 0 0 0 0 0 0 0 0 0 0 0 0 0 0 0 0 0 116 110 110 104 111 105 109 100 99 101 105 96 91 99 95 84 97 106 101 90 95 101 84 84 95 93 105 83 94 88 93 94 89 81 85 96 91 87 90 91 91 77 97 90 97 102 89 91 125
95 87 91 91 97 95 98 105 87 95 93 94 94 96 97 93 98 91 99 94 96 105 106 103 101 105 110 107 0 104 111 109 116 112 123 107 111 0 0 0 0 117 0 0 0 0 0 0 0 0 0 0 0 0 0 0 0 0 0 0 0 0 0 116 109 0 0 0 112 0 109 107 115 111 115 109 108 108 101 97 111 105 109 87 97 98 105 103 100 103 106 108 109 98 99 104 100 94 97 110 104 98 95 102 97 101 95 90 93 87 85 99 91 94 108 103 101 136 109 131
86 93 90 88 94 99 92 93 88 96 88 91 86 93 90 83 94 96 100 93 98 92 98 108 89 103 103 100 102 108 88 102 105 101 93 103 0 111 114 0 107 0 0 0 0 0 0 0 0 0 0 0 0 0 0 0 0 107 0 0 108 102 106 108 115 110 102 101 113 103 105 102 102 100 109 109 100 94 105 94 94 96 100 86 96 93 93 104 104 90 97 102 108 87 84 83 89 93 94 84 90 82 87 94 89 88 99 92 95 85 86 88 81 96 93 82 108 102 97 98
85 86 83 88 91 91 102 87 90 82 89 86 82 91 87 90 88 91 89 89 80 91 96 85 84 94 92 90 103 88 95 98 98 96 95 107 100 102 104 101 104 97 98 107 104 89 0 0 96 0 0 109 104 90 99 110 106 103 108 105 102 105 109 102 101 112 103 95 99 108 94 104 106 97 100 94 95 95 98 91 96 90 93 96 88 94 91 90 95 95 100 88 95 95 92 89 86 91 90 81 85 89 89 89 87 91 96 86 86 95 83 101 85 99 86 94 114 91 105 121
85 82 87 83 82 89 99 102 87 82 83 82 83 87 81 88 90 94 91 97 84 98 92 86 93 96 94 88 99 98 95 84 95 94 96 98 97 97 94 108 102 96 100 107 99 95 104 0 104 101 97 104 100 101 101 104 103 107 97 108 102 94 93 105 100 101 97 97 94 104 97 103 100 95 107 84 93 97 94 84 98 100 94 93 100 96 86 86 93 91 83 99 87 92 82 80 91 91 102 87 82 98 84 92 91 100 97 91 92 88 83 92 105 108 91 118 142 112 125 163
80 72 68 70 81 82 83 85 87 76 84 81 83 78 86 86 87 89 85 83 83 84 92 87 88 85 92 91 86 92 91 93 95 93 92 93 94 96 86 83 92 89 86 91 97 93 89 101 92 88 91 95 96 88 88 83 103 87 98 93 95 85 85 98 96 81 97 90 96 97 93 97 93 94 83 95 91 92 90 84 85 95 81 88 86 91 90 88 83 86 89 76 89 80 88 85 84 75 79 88 79 85 81 72 81 81 86 84 87 81 80 85 80 84 89 103 94 113 114 52
75 74 82 87 72 84 89 88 83 81 81 89 77 83 84 85 84 90 81 86 84 89 85 93 86 86 92 87 94 90 94 95 92 94 87 93 84 93 94 96 92 96 91 92 88 96 90 89 100 87 90 85 97 83 98 94 92 85 90 95 96 85 96 96 91 97 93 96 107 94 95 97 89 84 95 83 94 83 93 93 91 91 89 88 79 84 91 80 94 92 79 89 78 83 92 84 91 85 79 86 84 80 81 80 76 85 84 80 88 90 86 93 86 99 128 128 143 87 195 216
