0 0 0 0 0 0 0 0 0 0 0 0 0 0 0 0 0 0 0 0 0 0 0 0 0 0 0 0 0 0 0 0 0 0 0 0 0 0 0 0 0 0 0 0 0 0 0 0 0 0 0 0 0 0 0 0 0 0 0 0 0 0 0 0 0 0 0 0 0 0 0 0 0 0 0 0 0 0 0 0 0 0 0 0 0 0 0 0 0 0 0 0 0 0 0 0 0 0 0 0 0 0 0 0 0 0 0 0 0 0 0 0 0 0 0 0 0 0 0 0
0 0 0 0 0 0 0 0 0 0 0 0 0 0 0 0 0 0 0 0 0 0 0 0 0 0 0 0 0 0 0 0 0 0 0 0 0 0 0 0 0 0 0 0 0 0 0 0 0 0 0 0 0 0 0 0 0 0 0 0 0 0 0 0 0 0 0 0 0 0 0 0 0 0 0 0 0 0 0 0 0 0 0 0 0 0 0 0 0 0 0 0 0 0 0 0 0 0 0 0 0 0 0 0 0 0 0 0 0 0 0 0 0 0 0 0 0 0 0 0
0 0 0 0 0 0 0 0 0 0 0 0 0 0 0 0 0 0 0 0 0 0 0 0 0 0 0 0 0 0 0 0 0 0 0 0 0 0 0 0 0 0 0 0 0 0 0 0 0 0 0 0 0 0 0 0 0 0 0 0 0 0 0 0 0 0 0 0 0 0 0 0 0 0 0 0 0 0 0 0 0 0 0 0 0 0 0 0 0 0 0 0 0 0 0 0 0 0 0 0 0 0 0 0 0 0 0 0 0 0 0 0 0 0 0 0 0 0 0 0
0 0 0 0 0 0 0 0 0 0 0 0 0 0 0 0 0 0 0 0 0 0 0 0 0 0 0 0 0 0 0 0 0 0 0 0 0 0 0 0 0 0 0 0 0 0 0 0 0 0 0 0 0 0 0 0 0 0 0 0 0 0 0 0 0 0 0 0 0 0 0 0 0 0 0 0 0 0 0 0 0 0 0 0 0 0 0 0 0 0 0 0 0 0 0 0 0 0 0 0 0 0 0 0 0 0 0 0 0 0 0 0 0 0 0 0 0 0 0 0
0 0 0 0 0 0 0 0 0 0 0 0 0 0 0 0 0 0 0 0 0 0 0 0 0 0 0 0 0 0 0 0 0 0 0 0 0 0 0 0 0 0 0 0 0 0 0 0 0 0 0 0 0 0 0 0 0 0 0 0 0 0 0 0 0 0 0 0 0 0 0 0 0 0 0 0 0 0 0 0 0 0 0 0 0 0 0 0 0 0 0 0 0 0 0 0 0 0 0 0 0 0 0 0 0 0 0 0 0 0 0 0 0 0 0 0 0 0 0 0
0 0 0 0 0 0 0 0 0 0 0 0 0 0 0 0 0 0 0 0 0 0 0 0 0 0 0 0 0 0 0 0 0 0 0 0 0 0 0 513 509 515 490 513 527 519 523 523 505 511 520 498 510 484 512 473 0 0 0 0 0 0 0 0 0 0 0 0 0 0 0 0 0 0 0 0 0 0 0 0 0 0 0 0 0 0 0 0 0 0 0 0 0 0 0 0 0 0 0 0 0 0 0 0 0 0 0 0 0 0 0 0 0 0 0 0 0 0 0 0
0 0 0 0 0 0 0 0 0 0 0 0 0 0 0 0 0 0 0 0 0 0 0 0 0 0 0 0 0 0 0 0 0 0 0 0 0 537 518 516 510 511 497 506 522 513 510 511 508 523 511 506 511 531 512 525 527 506 543 524 0 0 0 0 0 0 0 0 0 0 0 0 0 0 0 0 0 0 0 0 0 0 0 0 0 0 0 0 0 0 0 0 0 0 0 0 0 0 0 0 0 0 0 0 0 0 0 0 0 0 0 0 0 0 0 0 0 0 0 0
0 0 0 0 0 0 0 0 0 0 0 0 0 0 0 0 0 0 0 0 0 0 0 0 0 0 0 0 0 0 0 0 0 0 0 478 507 501 494 501 515 501 515 496 487 509 506 512 500 503 507 499 502 505 511 513 513 497 492 491 506 495 495 489 521 0 0 0 0 0 0 0 0 0 0 0 0 0 0 0 0 0 0 0 0 0 0 0 0 0 0 0 0 0 0 0 0 0 0 0 0 0 0 0 0 0 0 0 0 0 0 0 0 0 0 0 0 0 0 0
0 0 0 0 0 0 0 0 0 0 0 0 0 0 0 0 0 0 0 0 0 0 0 0 0 0 0 0 0 0 0 0 0 531 514 515 516 496 499 511 517 506 502 525 517 511 514 512 514 517 511 496 519 506 501 528 512 514 521 520 526 507 523 512 518 528 514 538 600 610 623 644 643 0 601 605 590 599 641 652 0 0 0 0 0 0 0 0 0 0 0 0 0 0 0 0 0 0 0 0 0 0 0 0 0 0 0 0 0 0 0 0 0 0 0 0 0 0 0 0
0 0 0 0 0 0 0 0 0 0 0 0 0 0 0 0 0 0 0 0 0 0 0 0 0 0 0 0 0 0 0 537 492 510 497 498 495 508 508 498 508 505 496 501 492 499 506 509 494 500 511 501 510 503 509 495 511 499 504 512 519 508 510 512 506 523 513 513 523 532 544 549 543 585 551 592 585 600 615 608 611 600 608 596 0 636 0 568 595 579 581 603 588 571 658 592 536 581 601 572 0 587 614 621 0 0 0 0 0 0 0 0 0 0 0 0 0 0 0 0
0 0 0 0 0 0 0 0 0 0 0 0 0 0 0 0 0 0 0 0 0 0 0 0 0 0 0 0 0 0 494 494 502 479 494 496 499 499 499 504 508 498 500 500 501 507 515 493 500 507 504 506 511 508 503 522 506 512 493 513 508 498 513 506 515 507 507 501 508 520 516 550 541 572 574 575 584 584 547 579 558 528 509 536 572 523 593 527 518 556 539 532 546 535 552 565 577 568 559 593 591 538 543 517 553 511 553 0 533 0 0 0 0 0 0 0 0 0 0 0
0 0 0 0 0 0 0 0 0 0 0 0 0 0 0 0 0 0 0 0 0 0 0 0 0 0 0 0 495 502 490 508 493 493 507 491 505 484 511 500 503 503 500 497 514 503 506 504 501 502 505 502 500 503 501 500 510 513 499 512 506 505 515 507 519 508 506 506 502 511 528 538 561 540 546 577 522 532 543 520 557 552 558 562 541 560 505 534 522 598 534 546 588 543 552 571 533 555 574 518 544 576 531 538 563 601 564 525 571 0 0 0 0 0 0 0 0 0 0 0
0 0 0 0 0 0 0 0 0 0 0 0 0 0 0 0 0 0 0 0 0 0 0 0 0 0 0 454 508 492 489 490 493 496 491 512 496 494 508 502 504 505 496 502 499 504 494 497 495 501 507 503 500 505 507 503 498 501 503 508 505 505 506 499 502 501 507 507 514 515 506 519 527 523 531 533 520 527 558 552 498 551 552 556 523 560 540 519 549 509 557 556 527 516 517 541 539 503 508 526 543 533 463 510 529 540 527 538 0 0 0 0 0 0 0 0 0 0 0 0
0 0 0 0 0 0 0 0 0 0 0 0 0 0 0 0 0 0 0 0 0 0 0 0 0 0 512 502 510 505 506 502 499 492 502 501 504 505 499 500 508 505 503 509 503 509 511 503 507 506 513 516 511 509 513 506 517 513 510 514 516 512 511 505 511 511 506 506 516 506 508 511 536 554 565 569 531 574 538 564 558 524 570 531 559 557 547 544 592 575 593 570 569 564 536 558 571 539 569 599 581 540 585 585 570 538 570 576 598 598 0 0 0 0 0 0 0 0 0 0
0 0 0 0 0 0 0 0 0 0 0 0 0 0 0 0 0 0 0 0 0 0 0 0 0 472 496 478 503 499 506 502 504 495 503 509 500 505 506 496 502 501 501 513 497 508 503 513 503 508 507 511 508 506 505 515 503 506 500 509 508 508 508 517 509 508 514 503 504 515 511 509 522 544 568 566 529 623 558 581 556 539 551 587 549 533 578 579 590 532 584 562 568 566 569 568 557 573 558 577 556 540 624 570 581 563 573 566 570 0 0 0 0 0 0 0 0 0 0 0
0 0 0 0 0 0 0 0 0 0 0 0 0 0 0 0 0 0 0 0 0 0 0 0 0 477 491 489 488 491 492 496 491 509 494 491 492 502 499 498 499 497 502 502 496 501 499 502 498 506 500 507 506 513 498 500 510 501 509 506 508 503 503 508 503 510 510 512 505 508 510 503 507 511 548 586 526 530 546 561 537 552 571 536 517 544 563 571 551 526 534 558 565 527 533 554 532 530 569 548 525 512 539 531 527 540 536 535 0 551 0 0 526 582 0 0 0 0 0 0
0 0 0 0 0 0 0 0 0 0 0 0 0 0 0 0 0 0 0 0 0 0 0 0 495 495 501 493 494 496 491 504 503 502 507 495 495 502 501 503 499 506 492 509 510 509 502 507 500 506 499 512 505 512 499 521 513 508 502 512 508 509 511 510 506 509 510 509 511 515 509 522 513 508 540 544 540 563 565 566 559 546 573 564 570 549 550 561 552 556 576 551 551 572 561 546 542 569 593 551 539 561 595 593 589 533 568 593 606 574 566 0 0 0 0 0 0 0 0 0
0 0 0 0 0 0 0 0 0 0 0 0 0 0 0 0 0 0 0 0 0 0 0 0 492 495 495 498 500 496 487 499 496 493 503 495 495 494 490 500 499 491 502 498 500 497 502 502 507 502 506 500 509 506 498 491 501 506 504 509 504 505 506 506 508 507 508 504 499 511 511 507 500 504 506 523 521 512 517 507 521 534 565 531 524 525 542 533 559 540 549 546 526 524 550 517 541 551 554 564 537 535 531 535 543 538 553 505 519 534 0 0 0 0 0 0 0 0 0 0
0 0 0 0 0 0 0 0 0 0 0 0 0 0 0 0 0 0 0 0 0 0 0 475 488 488 492 496 483 482 489 489 492 492 492 492 503 494 490 502 504 497 501 498 502 501 499 498 496 499 503 498 495 508 496 502 505 508 501 499 504 493 501 499 500 502 512 512 503 505 505 504 498 496 513 506 516 481 523 508 497 528 515 549 526 519 523 521 530 527 524 498 532 524 528 507 536 511 499 533 563 527 519 506 501 530 504 507 507 502 463 0 0 0 0 0 0 0 0 0
0 0 0 0 0 0 0 0 0 0 0 0 0 0 0 0 0 0 0 0 0 0 0 500 497 499 483 493 483 487 505 493 502 488 489 490 484 491 489 498 497 502 502 506 502 496 506 510 491 503 495 498 500 509 507 512 509 507 501 497 500 506 505 501 502 514 500 508 514 509 504 511 516 517 513 520 538 550 541 537 526 529 540 553 532 561 554 552 536 559 552 555 527 533 535 532 558 559 553 544 510 587 542 534 545 582 548 570 547 569 528 0 0 0 0 0 0 0 0 0
0 0 0 0 0 0 0 0 0 0 0 0 0 0 0 0 0 0 0 0 0 0 456 484 493 485 488 487 488 492 489 500 493 491 489 489 498 497 493 497 492 495 498 497 492 485 503 498 491 499 493 494 500 498 507 493 503 499 507 503 508 500 499 497 497 497 501 507 498 508 506 507 503 507 506 497 490 517 519 516 502 501 494 527 538 515 507 516 504 530 525 513 550 518 519 529 522 537 512 534 511 499 529 518 519 488 493 546 462 478 494 0 507 0 0 0 0 0 0 0
0 0 0 0 0 0 0 0 0 0 0 0 0 0 0 0 0 0 0 0 0 0 463 492 487 491 486 490 495 492 493 485 491 485 489 496 490 494 499 495 502 495 502 503 501 504 497 496 501 493 498 501 490 498 500 507 509 507 507 506 504 511 504 511 512 515 515 511 511 497 507 511 508 514 506 501 529 531 543 522 534 539 514 491 548 484 513 539 536 538 532 546 518 525 529 505 550 525 532 522 561 557 511 506 517 544 520 499 539 511 529 476 0 0 0 0 0 0 0 0
0 0 0 0 0 0 0 0 0 0 0 0 0 0 0 0 0 0 0 0 0 0 509 486 498 490 482 492 492 488 491 486 493 488 493 483 493 494 486 497 494 494 500 496 497 501 500 500 497 502 502 502 499 500 500 505 511 510 503 497 504 509 504 498 504 505 506 503 508 506 507 499 513 504 519 504 511 527 536 524 535 518 563 513 558 533 512 537 511 570 522 540 549 513 516 526 518 532 542 527 540 566 549 552 538 519 566 553 552 493 608 517 515 0 0 0 0 0 0 0
0 0 0 0 0 0 0 0 0 0 0 0 0 0 0 0 0 0 0 0 0 0 502 490 483 486 481 495 492 494 488 485 491 494 483 486 483 492 490 485 496 502 499 492 493 495 496 490 495 500 496 504 503 497 504 500 503 502 498 502 505 507 506 505 498 502 503 505 505 497 508 507 507 504 508 514 504 507 520 513 506 497 533 506 501 533 520 498 502 520 542 498 496 518 560 556 561 493 541 561 525 519 522 528 525 519 537 490 505 500 488 478 505 0 0 0 0 0 0 0
0 0 0 0 0 0 0 0 0 0 0 0 0 0 0 0 0 0 0 0 0 0 513 492 487 489 491 487 496 497 499 491 501 481 490 490 494 494 504 497 490 498 506 497 491 498 493 503 498 503 503 503 503 501 499 508 506 506 499 502 509 507 501 504 507 510 503 503 506 501 507 502 512 507 506 497 513 539 513 543 527 509 552 529 526 553 575 560 579 547 541 523 526 532 494 532 522 539 562 518 529 544 544 564 563 553 514 563 533 581 568 550 576 0 0 0 0 0 0 0
0 0 0 0 0 0 0 0 0 0 0 0 0 0 0 0 0 0 0 0 0 0 494 473 484 488 489 482 484 487 497 483 490 485 498 480 491 493 494 497 498 490 493 491 491 493 494 493 490 499 497 499 502 499 498 497 505 501 502 501 508 503 499 507 504 501 498 511 495 502 502 508 505 515 506 503 498 505 526 503 532 493 509 516 517 537 518 526 533 543 487 494 525 501 524 543 509 525 531 494 478 513 472 512 549 504 496 531 526 0 512 508 514 0 0 0 0 0 0 0
0 0 0 0 0 0 0 0 0 0 0 0 0 0 0 0 0 0 0 0 0 405 472 486 488 477 487 479 491 486 479 486 485 496 483 491 496 491 489 492 489 497 490 495 489 494 492 496 499 494 497 499 496 499 498 499 500 496 508 502 502 504 507 503 498 499 498 497 500 505 509 496 494 501 499 498 496 503 506 519 515 501 512 499 493 504 527 515 536 493 481 475 496 456 513 489 501 484 500 466 495 492 495 484 484 511 516 483 517 453 467 484 472 0 0 0 0 0 0 0
0 0 0 0 0 0 0 0 0 0 0 0 0 0 0 0 0 0 0 0 0 451 484 485 492 493 493 489 480 487 490 487 485 494 488 493 487 487 490 490 497 500 489 492 499 494 497 497 501 499 498 495 494 505 502 501 504 503 500 507 507 496 498 497 507 508 508 504 505 507 506 502 504 505 509 509 506 507 515 518 502 517 529 514 506 524 533 509 513 477 512 508 496 509 501 501 523 540 494 515 519 524 478 503 531 506 511 530 566 508 555 547 0 0 0 0 0 0 0 0
0 0 0 0 0 0 0 0 0 0 0 0 0 0 0 0 0 0 0 0 0 453 474 480 487 476 485 487 475 479 480 481 485 482 483 485 488 483 488 492 492 485 491 495 491 489 494 496 500 497 497 498 497 495 493 504 494 497 501 500 501 499 501 499 501 498 508 504 503 504 499 501 503 506 504 498 503 498 497 503 495 501 501 502 500 501 487 512 510 491 511 466 479 507 499 488 453 511 490 478 496 479 514 470 471 497 506 473 510 496 500 466 453 0 0 0 0 0 0 0
0 0 0 0 0 0 0 0 0 0 0 0 0 0 0 0 0 0 0 0 0 473 482 481 481 483 485 486 487 487 483 484 488 489 492 490 488 490 482 492 489 492 491 495 496 498 494 496 497 493 499 495 500 497 497 503 501 498 498 501 499 501 500 500 499 502 507 502 502 507 498 502 505 502 500 508 500 503 496 504 524 498 484 511 497 505 503 530 503 501 525 499 507 512 509 520 506 507 510 528 527 486 504 527 508 521 500 533 510 506 514 500 551 0 0 0 0 0 0 0
0 0 0 0 0 0 0 0 0 0 0 0 0 0 0 0 0 0 0 0 0 464 481 477 479 478 479 478 481 486 483 483 488 491 487 491 483 491 489 495 490 494 494 493 499 489 492 499 490 494 497 502 497 497 500 500 499 506 500 500 500 505 499 501 497 505 504 503 509 505 499 498 507 499 499 504 495 516 522 524 508 534 532 545 499 494 530 507 527 514 515 506 505 524 526 527 534 525 517 501 521 515 544 530 526 518 519 529 535 522 540 502 0 0 0 0 0 0 0 0
0 0 0 0 0 0 0 0 0 0 0 0 0 0 0 0 0 0 0 0 0 467 476 475 481 477 472 484 479 490 478 487 488 483 487 483 488 489 493 490 491 497 491 492 491 491 496 496 495 494 491 497 494 490 494 498 492 495 504 502 494 497 500 497 500 500 504 501 503 499 496 496 504 502 502 498 499 503 501 497 498 496 492 500 504 498 519 484 520 497 491 492 514 507 486 501 479 505 511 514 494 472 494 491 499 489 492 508 513 525 484 471 452 0 0 0 0 0 0 0
0 0 0 0 0 0 0 0 0 0 0 0 0 0 0 0 0 0 0 0 0 466 486 480 475 485 480 482 481 481 490 486 484 484 483 488 490 494 485 492 494 492 486 492 489 492 496 493 492 495 500 497 495 499 496 503 496 500 502 495 503 503 499 503 501 504 500 503 495 500 502 504 512 502 501 505 503 508 514 496 512 498 495 517 500 532 537 513 515 508 539 475 490 532 527 531 513 484 519 511 560 515 515 522 523 534 528 542 525 471 510 534 550 518 0 0 0 0 0 0
0 0 0 0 0 0 0 0 0 0 0 0 0 0 0 0 0 0 0 0 0 425 481 475 483 480 479 483 476 478 482 481 479 487 483 486 478 484 486 496 486 481 485 492 487 493 490 497 493 491 492 493 496 492 496 496 491 496 494 494 495 498 497 499 504 497 504 503 501 495 499 497 494 497 498 500 501 500 489 494 500 510 476 494 490 502 491 492 507 508 500 525 491 484 505 504 481 476 484 497 494 471 477 488 486 497 524 476 511 468 506 501 464 0 0 0 0 0 0 0
0 0 0 0 0 0 0 0 0 0 0 0 0 0 0 0 0 0 0 0 0 453 473 472 476 474 474 479 480 484 473 481 479 485 480 486 482 486 491 487 492 491 489 489 491 491 487 490 492 495 498 497 490 496 498 493 498 494 492 495 496 500 494 500 497 500 498 500 499 495 503 506 498 499 495 494 496 499 493 488 494 492 489 492 488 477 485 493 500 495 499 485 479 483 479 483 499 489 495 487 489 489 473 500 494 495 505 508 484 495 458 500 460 477 0 0 0 0 0 0
0 0 0 0 0 0 0 0 0 0 0 0 0 0 0 0 0 0 0 0 0 459 474 479 475 481 477 476 478 482 482 482 475 483 484 481 487 482 486 486 483 484 489 492 488 488 490 489 493 495 495 496 490 493 499 494 494 503 500 499 498 498 494 501 496 500 500 500 498 497 495 495 496 495 496 499 499 502 507 495 488 531 497 491 501 496 520 496 536 505 502 485 501 521 515 526 536 527 492 513 505 480 514 518 513 492 552 527 520 505 496 527 518 550 0 0 0 0 0 0
0 0 0 0 0 0 0 0 0 0 0 0 0 0 0 0 0 0 0 0 0 440 478 467 477 469 478 475 478 476 487 484 479 484 485 488 484 473 477 483 483 485 492 489 486 488 487 492 491 493 495 493 490 492 494 490 491 489 492 496 494 501 497 497 495 493 500 495 500 493 495 492 498 495 498 495 494 484 487 474 483 490 476 482 486 487 478 485 478 475 481 479 486 475 476 483 460 470 467 484 485 482 482 465 466 509 445 484 488 470 431 454 493 0 0 0 0 0 0 0
0 0 0 0 0 0 0 0 0 0 0 0 0 0 0 0 0 0 0 0 0 0 477 479 477 475 471 480 479 481 477 481 488 482 480 484 486 489 486 488 487 484 491 485 486 491 488 495 493 491 489 495 491 496 495 493 493 493 497 492 495 503 496 501 498 505 497 503 496 495 502 498 499 499 499 502 493 498 494 494 495 502 496 500 507 494 488 484 520 506 508 508 494 512 484 501 529 503 512 506 498 516 511 518 502 473 489 516 522 470 480 511 507 492 502 0 0 0 0 0
0 0 0 0 0 0 0 0 0 0 0 0 0 0 0 0 0 0 0 0 0 0 498 476 471 475 478 475 481 481 483 482 478 485 481 478 486 488 491 486 489 493 488 485 488 492 489 491 495 488 493 496 498 495 493 492 494 492 495 497 500 499 499 497 495 499 502 499 499 497 499 495 500 487 498 496 500 509 519 521 516 533 518 534 540 530 537 522 557 502 552 514 519 531 529 526 526 541 534 528 511 480 501 530 506 513 525 523 513 526 495 524 558 0 0 0 0 0 0 0
0 0 0 0 0 0 0 0 0 0 0 0 0 0 0 0 0 0 0 0 0 0 520 475 462 478 481 484 482 477 477 479 481 483 483 483 481 483 482 488 483 488 489 490 484 494 491 488 494 495 493 496 497 491 495 485 495 494 494 492 495 495 493 493 496 497 498 496 494 497 496 494 491 495 495 495 495 497 494 499 495 501 511 507 505 508 495 521 517 522 509 515 496 511 480 492 502 492 486 520 509 507 502 454 493 526 494 496 482 494 497 494 539 495 452 459 0 0 0 0
0 0 0 0 0 0 0 0 0 0 0 0 0 0 0 0 0 0 0 0 0 0 619 480 475 479 478 472 470 481 478 482 480 478 489 487 487 484 484 489 486 491 486 493 492 492 492 489 494 494 490 497 491 491 498 497 492 495 493 490 495 495 499 503 492 491 498 497 499 499 494 496 495 507 499 493 499 514 506 513 505 501 516 508 520 512 513 511 512 531 509 555 533 549 546 583 547 523 518 523 513 510 521 534 527 534 503 489 517 516 521 532 534 541 512 0 0 0 0 0
0 0 0 0 0 0 0 0 0 0 0 0 0 0 0 0 0 0 0 0 0 0 0 475 465 475 475 474 472 474 472 480 481 482 477 476 480 481 485 482 486 485 487 487 490 489 489 494 493 496 494 489 494 492 491 490 496 493 494 494 497 495 493 493 495 494 493 499 494 498 499 491 501 492 487 498 490 493 492 493 514 503 498 478 502 496 496 501 487 521 488 498 489 498 498 496 482 509 512 510 485 505 523 499 496 504 476 474 470 492 516 500 444 0 0 0 0 0 0 0
0 0 0 0 0 0 0 0 0 0 0 0 0 0 0 0 0 0 0 0 0 0 0 497 479 468 475 475 473 474 475 481 477 479 480 476 478 478 482 478 485 481 488 488 484 486 488 489 492 492 492 490 489 490 493 490 494 491 496 491 492 491 496 496 494 496 496 495 495 496 492 493 493 497 493 491 494 489 489 478 502 493 490 490 488 486 499 504 510 491 499 503 487 525 504 508 496 495 500 509 498 501 510 463 456 459 496 478 483 433 497 441 454 448 0 0 0 0 0 0
0 0 0 0 0 0 0 0 0 0 0 0 0 0 0 0 0 0 0 0 0 0 0 543 467 477 476 476 467 469 475 479 481 479 477 487 477 486 478 483 481 482 487 491 487 490 490 486 490 486 490 495 487 489 495 489 493 494 491 492 500 492 491 498 495 498 493 495 493 493 496 495 495 491 495 494 495 503 512 507 487 481 495 503 496 519 508 522 506 500 507 515 503 497 509 508 481 512 508 495 522 522 523 490 520 480 485 510 500 498 515 490 498 485 511 0 0 0 0 0
0 0 0 0 0 0 0 0 0 0 0 0 0 0 0 0 0 0 0 0 0 0 0 0 476 468 465 467 470 472 480 471 473 477 479 473 480 476 480 479 473 479 482 483 485 486 488 488 487 491 489 492 490 493 489 490 494 492 489 494 491 492 493 493 496 493 498 496 493 492 494 496 496 492 493 493 486 486 496 485 486 489 489 494 487 504 486 495 486 501 484 488 488 489 514 480 493 482 496 466 497 471 458 485 459 454 476 462 476 442 500 455 457 411 432 440 0 0 0 0
0 0 0 0 0 0 0 0 0 0 0 0 0 0 0 0 0 0 0 0 0 0 0 0 507 480 469 471 478 476 477 476 472 473 476 482 478 480 479 479 484 482 480 488 483 490 489 486 485 492 490 497 491 491 491 490 497 493 494 493 493 492 497 496 500 496 496 493 492 493 496 493 493 490 498 498 486 492 495 511 508 500 492 504 492 530 486 521 492 516 517 533 518 492 561 505 532 540 532 500 505 537 520 514 492 484 498 459 496 499 506 493 490 487 485 515 0 0 0 0
0 0 0 0 0 0 0 0 0 0 0 0 0 0 0 0 0 0 0 0 0 0 0 0 0 475 471 469 466 475 468 472 479 476 473 476 478 480 475 477 481 483 479 484 481 485 488 485 488 490 490 487 484 490 490 491 490 488 491 489 492 491 494 491 495 492 488 493 492 496 497 495 495 489 493 489 494 491 494 495 487 493 496 492 489 495 516 478 495 500 511 519 512 501 514 493 526 521 535 534 524 511 523 510 476 470 493 468 500 499 480 479 493 526 0 0 0 0 0 0
0 0 0 0 0 0 0 0 0 0 0 0 0 0 0 0 0 0 0 0 0 0 0 0 0 498 471 469 466 468 471 477 472 477 475 475 476 478 478 477 476 478 485 483 481 479 479 488 485 484 486 480 490 490 489 489 491 484 485 493 489 492 489 489 492 488 493 485 493 494 491 490 494 491 487 488 478 488 485 482 479 490 474 492 493 485 489 502 497 490 494 497 493 484 475 509 485 479 473 507 516 502 498 495 457 465 443 486 464 468 456 474 429 498 0 0 0 0 0 0
0 0 0 0 0 0 0 0 0 0 0 0 0 0 0 0 0 0 0 0 0 0 0 0 0 0 495 474 466 474 469 472 472 477 479 477 477 478 480 479 476 478 479 483 486 483 483 488 487 483 490 484 490 493 487 489 490 493 493 489 493 488 495 488 493 488 492 489 498 488 493 493 490 487 493 488 483 487 501 509 502 512 487 489 490 489 489 495 515 499 499 498 500 490 488 494 487 516 520 519 500 514 510 492 510 491 492 502 521 467 500 501 519 489 0 0 0 0 0 0
0 0 0 0 0 0 0 0 0 0 0 0 0 0 0 0 0 0 0 0 0 0 0 0 0 0 0 467 465 460 468 474 474 470 466 472 473 476 474 478 479 478 481 481 478 480 485 479 484 478 483 484 483 481 485 488 491 490 481 490 485 483 489 490 490 490 487 487 493 490 490 481 490 480 481 494 487 481 486 477 480 481 496 463 493 487 480 477 482 497 487 502 492 496 467 500 506 494 508 512 506 473 512 459 485 462 468 484 466 445 455 419 441 448 476 0 0 0 0 0
0 0 0 0 0 0 0 0 0 0 0 0 0 0 0 0 0 0 0 0 0 0 0 0 0 0 0 475 470 471 472 469 467 478 473 471 477 473 480 470 477 475 479 477 480 480 481 478 480 482 481 480 484 487 484 485 485 484 482 490 489 490 487 491 489 484 491 489 492 491 484 482 487 476 489 486 477 487 492 478 477 477 479 486 484 497 490 502 502 505 482 493 469 493 487 499 488 471 494 494 482 501 493 483 464 451 453 454 463 466 469 470 480 451 472 0 0 0 0 0
0 0 0 0 0 0 0 0 0 0 0 0 0 0 0 0 0 0 0 0 0 0 0 0 0 0 0 0 514 475 460 469 467 471 474 466 469 476 470 476 476 477 473 473 478 478 469 481 482 479 483 483 485 483 481 485 481 484 484 487 487 484 487 486 486 487 485 486 488 486 489 487 478 493 486 487 498 493 492 482 489 484 490 484 492 477 515 487 486 492 491 477 497 484 471 492 474 515 494 472 481 499 464 469 452 502 476 484 466 457 497 459 478 482 486 0 0 0 0 0
0 0 0 0 0 233 219 251 294 0 0 0 0 0 0 0 0 0 0 0 0 2375 0 0 0 0 0 0 0 500 459 464 467 468 467 470 470 471 468 472 474 474 479 470 477 474 479 479 475 481 486 482 480 481 480 479 483 482 485 484 484 482 485 484 483 488 481 479 480 485 471 482 475 476 480 468 471 475 476 470 486 478 479 477 474 472 476 475 480 478 469 479 472 476 476 473 456 488 467 467 472 485 446 466 436 470 453 457 462 442 453 458 441 464 460 0 0 0 0 0
0 0 0 0 256 234 236 239 233 289 409 0 0 0 0 0 0 0 0 0 0 0 0 0 0 0 0 0 0 0 466 459 468 467 472 472 474 468 472 471 476 476 472 468 477 476 479 475 483 480 475 482 486 482 482 484 478 482 487 481 483 486 483 491 480 486 485 484 483 488 481 481 485 482 482 490 479 480 486 483 491 486 483 486 495 487 490 478 484 485 493 492 488 480 489 483 496 486 491 509 466 498 464 485 495 485 470 462 494 457 464 494 503 0 0 0 0 0 0 0
0 0 0 251 219 222 228 224 236 242 351 0 0 0 0 0 0 0 0 0 0 0 0 0 0 0 0 0 0 0 0 465 462 472 464 467 470 467 470 474 471 473 470 471 476 473 474 478 476 477 476 479 481 478 478 477 486 474 480 478 481 488 477 483 477 478 482 479 477 478 479 486 477 478 475 481 491 481 482 489 491 481 482 470 489 484 478 484 494 495 478 484 501 474 485 505 478 473 481 504 485 485 501 489 476 491 474 461 457 471 505 452 462 478 500 0 0 0 0 0
221 219 247 239 249 281 264 230 234 242 318 0 391 395 388 399 396 412 403 429 434 456 439 437 457 454 437 441 437 458 455 459 462 464 458 467 462 461 467 470 470 469 471 464 474 464 473 475 479 469 472 477 474 473 479 477 473 478 477 472 475 484 482 476 481 473 473 480 479 477 471 465 476 470 469 465 478 476 481 475 465 470 469 467 463 457 468 480 474 475 469 470 476 462 482 463 455 463 465 491 472 476 484 476 470 455 428 438 454 477 437 457 466 489 440 0 0 0 0 0
244 221 224 205 251 248 275 233 227 269 406 443 414 409 396 393 401 407 430 413 418 417 427 422 431 425 415 426 433 448 456 461 458 458 454 455 457 461 458 456 458 469 462 465 462 464 468 473 477 476 474 471 475 472 472 470 476 476 474 474 480 470 476 477 473 476 473 479 474 472 472 470 468 465 458 466 465 461 462 471 464 473 457 471 460 458 462 467 461 463 446 467 451 439 450 457 458 462 469 457 454 436 448 439 457 460 451 457 455 446 443 428 438 465 462 465 445 0 0 0
174 171 179 222 223 214 224 230 231 267 362 349 359 349 361 353 377 358 360 365 379 388 371 401 417 400 415 417 432 438 437 441 438 442 438 443 437 446 445 440 439 450 444 449 444 452 447 449 457 451 447 452 457 457 452 450 453 453 455 462 457 457 450 459 462 453 458 452 453 457 458 443 444 447 436 432 424 423 415 427 418 426 431 438 417 429 415 424 412 425 427 424 427 415 421 414 419 412 419 399 407 418 414 410 428 400 399 417 416 420 401 413 413 395 410 398 392 380 394 0
300 269 250 230 233 228 231 237 265 345 345 322 342 336 338 335 344 336 333 339 353 354 362 363 376 397 392 405 412 412 421 418 423 431 426 432 433 423 431 434 429 427 428 430 435 428 435 436 437 440 444 439 437 447 442 447 442 436 443 438 446 438 442 437 435 438 442 437 434 434 426 432 433 425 418 417 408 403 403 394 405 396 396 388 392 398 399 394 402 392 401 378 400 395 387 391 383 391 396 387 385 399 405 385 377 385 394 386 387 386 369 362 379 385 384 371 358 402 389 374
303 293 290 239 233 241 234 245 295 303 313 301 299 310 300 317 308 302 306 320 332 313 335 344 357 373 379 385 392 397 404 414 406 412 408 406 409 410 410 419 417 419 415 411 417 416 417 430 421 417 415 418 421 418 423 416 426 423 422 426 424 426 416 421 421 424 426 414 415 411 413 411 406 401 403 394 379 368 370 369 368 368 361 361 369 353 361 366 359 363 367 369 342 356 376 382 360 352 376 353 368 366 353 360 360 371 349 358 356 353 343 379 359 382 343 361 350 361 376 347
274 268 289 263 245 232 258 284 274 281 290 279 272 275 277 283 291 282 284 285 304 298 298 317 335 346 356 363 359 371 380 377 381 388 392 387 386 394 390 392 391 393 393 382 385 402 395 390 396 389 392 400 389 397 393 395 394 396 400 402 393 390 400 396 393 378 399 398 392 395 390 393 393 384 374 362 358 343 330 330 338 322 317 332 331 325 327 319 322 316 327 322 328 342 345 318 332 327 319 324 326 324 333 330 321 327 318 343 316 326 331 331 309 328 328 314 312 313 298 290
249 252 248 246 254 258 254 262 266 262 261 253 265 274 268 262 268 265 276 270 271 279 289 307 306 318 325 343 346 358 363 360 365 363 370 365 364 371 369 366 374 369 371 368 370 374 371 367 362 373 374 373 378 375 380 370 376 377 380 377 383 376 383 373 372 375 376 376 371 369 369 364 369 359 344 344 331 322 314 313 304 300 311 304 312 312 301 302 299 298 296 306 312 310 310 291 292 294 291 316 302 306 312 303 296 313 318 314 309 305 302 310 323 311 307 305 309 305 301 326
222 231 222 234 235 235 245 234 244 242 242 243 246 251 244 244 243 240 250 247 253 268 265 279 292 295 322 322 320 324 331 334 343 339 340 339 344 346 340 343 348 348 351 353 351 350 341 349 350 340 344 351 345 350 350 357 350 356 358 348 351 351 353 340 352 353 345 349 352 348 343 343 341 335 334 322 308 298 289 287 282 277 281 282 278 281 279 279 273 278 276 281 280 280 279 283 274 279 282 282 296 277 282 279 274 287 274 278 288 285 274 296 291 279 281 277 285 259 289 311
225 217 219 226 233 213 226 222 224 233 223 233 220 229 222 227 231 235 228 239 247 245 259 260 275 288 298 294 301 298 312 312 317 322 312 319 323 323 324 327 327 318 321 318 322 322 325 328 327 324 325 325 327 327 331 323 326 322 330 328 328 330 328 330 328 327 329 327 328 320 320 322 323 306 310 293 286 274 270 275 263 271 265 264 255 263 267 261 252 254 258 261 267 253 257 260 259 258 255 261 263 261 253 270 262 259 259 261 267 283 264 261 262 266 262 260 263 272 261 255
207 214 209 218 216 212 219 218 220 218 213 216 212 218 216 217 222 217 226 230 234 239 249 253 251 268 275 281 292 287 288 294 293 293 302 299 295 302 303 310 295 300 303 310 301 298 306 302 306 311 312 305 304 306 303 308 308 311 307 300 308 307 312 306 315 306 307 308 308 304 297 308 302 293 293 278 271 262 258 257 251 250 249 253 252 250 249 246 240 245 239 244 245 244 247 242 243 237 247 246 250 251 252 244 244 246 245 242 247 252 248 249 265 264 246 253 264 255 270 279
173 197 201 195 203 197 208 207 199 204 189 203 203 193 186 208 205 208 209 209 215 221 229 229 244 243 253 258 266 270 269 270 272 270 278 279 281 283 279 283 281 279 284 286 280 278 278 285 283 284 281 284 280 283 277 286 286 287 282 287 285 288 289 288 281 286 280 285 285 282 288 282 273 273 266 259 251 249 237 231 229 227 232 234 228 221 231 229 227 232 227 223 223 226 223 220 223 221 225 223 223 224 233 227 234 215 231 224 221 234 232 223 243 233 235 247 224 233 233 239
178 177 178 177 182 196 202 189 178 182 201 183 181 182 192 178 183 186 191 193 209 215 221 222 225 234 237 239 241 250 257 255 257 258 257 259 262 261 267 265 264 266 270 267 266 269 266 268 262 270 264 267 267 267 270 266 268 266 269 277 269 271 268 273 265 274 269 272 266 264 269 257 254 255 256 244 242 229 228 221 222 222 213 218 218 217 218 219 216 221 216 211 218 213 220 215 212 214 209 220 223 216 217 210 211 215 220 213 217 213 221 232 226 223 222 224 228 219 215 250
173 175 172 175 174 181 180 179 178 179 185 181 178 179 180 188 184 188 183 179 182 193 191 215 215 216 225 223 229 232 233 245 239 237 243 240 238 245 246 251 245 247 248 252 250 250 245 246 248 251 247 253 249 246 244 247 251 247 249 253 251 248 252 250 245 254 254 249 249 251 249 243 239 240 235 223 224 214 218 199 201 191 189 187 196 194 192 214 192 188 189 189 192 187 184 192 188 190 184 188 189 191 192 186 188 189 184 185 200 203 213 201 209 215 206 208 199 202 209 213
166 167 174 170 172 178 173 176 176 179 173 172 173 174 176 176 177 179 183 183 188 186 183 191 208 195 198 216 216 222 226 222 224 223 228 228 230 228 231 231 226 227 234 233 234 236 229 231 236 233 232 233 236 233 234 231 235 239 239 237 238 236 234 235 235 238 236 229 229 232 228 232 229 222 221 217 195 194 187 194 192 198 192 193 192 196 193 191 194 190 192 193 191 190 191 188 183 186 185 183 187 178 177 183 186 179 191 184 179 180 174 181 194 187 198 191 186 181 196 194
167 166 173 174 175 169 169 167 172 169 166 166 173 169 173 171 178 176 181 182 181 183 191 191 189 187 189 208 209 208 213 212 194 213 211 217 218 215 213 196 219 222 222 221 223 223 220 222 220 223 216 222 220 220 220 222 219 224 219 224 223 223 218 220 217 220 219 216 220 217 223 213 218 210 190 191 188 197 193 192 185 182 191 183 190 182 186 182 186 182 184 183 186 185 186 181 177 175 182 187 183 178 182 184 182 179 183 180 178 183 182 180 180 171 178 195 197 194 197 184
149 155 163 159 159 164 158 165 160 161 155 162 161 161 164 161 164 165 166 177 173 172 184 180 186 188 184 184 193 193 181 188 181 186 196 196 191 185 187 193 197 196 195 194 198 196 211 194 209 197 196 195 199 197 194 195 196 197 198 195 203 200 194 188 192 196 192 196 195 195 202 195 200 191 191 197 197 188 189 181 179 180 178 177 176 170 177 183 176 178 176 172 177 169 171 173 170 169 166 173 169 171 175 172 175 170 171 168 171 174 175 172 167 172 174 173 174 171 171 166
141 147 152 153 153 153 154 157 156 157 156 158 155 156 160 155 156 164 156 166 167 169 174 175 180 179 178 182 183 188 188 187 188 189 186 188 193 193 191 192 197 194 193 197 195 197 194 200 194 191 194 198 198 189 196 192 197 200 199 200 197 198 197 199 193 194 197 198 197 197 196 193 191 195 192 185 183 184 174 174 173 172 167 169 166 170 169 166 171 171 169 170 174 166 169 166 165 166 164 169 169 167 165 168 163 161 158 164 166 163 166 161 180 172 169 174 153 168 167 159
145 145 145 148 148 152 149 154 151 155 150 152 149 154 152 151 154 150 156 162 164 164 165 171 171 172 174 175 177 182 178 178 180 181 177 183 183 179 183 186 182 182 187 189 181 185 184 186 189 184 182 191 192 188 189 188 188 191 0 188 190 188 184 187 189 189 190 188 185 188 187 186 181 181 174 175 177 176 171 166 160 159 163 160 162 161 161 162 166 163 162 163 163 159 161 162 158 158 165 165 160 163 164 159 155 160 159 158 161 163 159 159 164 165 166 168 161 166 175 187
136 135 136 145 139 150 148 143 147 145 145 146 141 145 142 146 144 146 146 148 159 160 161 162 168 167 169 168 169 172 172 172 178 176 172 173 174 175 175 175 175 181 176 173 173 177 175 177 174 177 179 180 180 180 182 181 181 0 0 178 180 177 178 182 179 180 178 176 176 173 177 177 172 176 172 172 170 167 163 159 162 157 153 156 159 158 157 153 158 158 151 153 157 154 154 153 153 153 156 152 156 156 154 151 153 146 152 151 152 148 154 144 142 149 153 157 148 151 143 151
139 134 130 138 144 143 152 142 143 138 143 143 144 143 143 142 142 148 146 145 148 151 155 157 158 158 164 161 161 167 165 163 167 167 165 168 167 171 166 171 175 0 173 170 173 171 173 172 172 171 174 171 174 173 173 0 177 172 0 175 170 0 0 174 174 170 173 169 173 173 169 167 166 171 167 164 162 157 158 152 151 156 150 150 154 147 151 147 152 156 147 154 150 153 146 149 153 145 154 147 147 148 146 149 148 144 143 146 147 153 147 145 149 156 151 152 147 162 145 162
133 122 128 126 137 137 143 137 134 122 133 131 128 133 136 136 135 136 138 139 140 145 149 152 149 156 157 156 157 161 161 158 162 161 159 158 162 161 0 0 0 0 0 0 0 0 0 167 165 167 166 165 167 167 0 0 0 167 0 0 0 0 0 0 165 167 168 0 163 164 163 161 159 159 154 154 155 156 150 146 151 148 143 146 144 147 144 147 146 143 146 146 145 144 141 138 141 145 144 142 141 140 144 136 138 137 135 133 135 143 145 145 147 152 138 140 142 138 150 139
115 129 125 124 128 134 135 133 138 131 132 132 126 128 133 127 119 137 138 136 139 141 146 146 148 149 151 153 155 151 154 155 157 157 152 153 154 0 0 0 0 0 0 0 0 0 0 0 0 162 161 161 0 0 0 0 0 0 0 0 0 0 0 0 161 160 0 0 0 0 0 155 160 153 152 150 150 151 148 147 140 130 143 140 140 141 141 140 148 141 137 143 139 140 139 136 143 141 136 138 139 134 141 133 130 128 133 136 136 143 130 145 134 142 134 133 135 117 137 133
114 109 115 122 129 126 131 129 129 130 131 124 119 119 119 129 132 124 132 138 127 135 133 142 141 144 145 145 147 150 149 147 153 154 150 149 0 0 0 0 0 0 0 0 0 0 0 0 151 154 157 0 0 0 0 0 0 0 0 0 0 0 0 0 0 0 0 0 0 0 0 0 149 149 150 146 147 141 142 145 129 140 127 131 129 125 140 140 136 137 139 138 132 136 120 129 141 140 134 135 130 137 134 130 126 129 130 133 129 139 132 148 145 142 141 143 143 128 118 125
105 106 114 110 107 114 121 117 116 121 114 115 115 117 127 122 123 121 118 119 130 121 124 123 137 137 137 141 143 140 142 145 143 145 145 142 0 0 0 0 0 0 0 0 0 0 0 0 144 0 0 0 0 0 0 0 0 0 0 0 0 0 0 0 0 0 0 0 0 0 0 0 0 138 143 140 136 131 127 130 126 120 119 124 125 121 121 125 124 124 124 125 114 129 126 127 128 134 125 118 118 131 133 118 120 121 115 120 130 135 131 138 112 122 113 130 126 109 122 133
110 107 113 117 113 110 115 116 118 114 113 120 115 117 116 122 122 119 122 115 115 114 123 115 137 127 140 137 0 141 0 0 0 138 141 140 0 0 0 0 0 0 0 0 0 0 0 0 0 0 0 0 0 0 0 0 0 0 0 0 0 0 0 0 0 0 0 0 0 0 0 0 0 143 124 126 128 126 121 125 121 117 125 125 117 122 117 119 119 119 123 124 118 120 114 121 119 120 120 121 119 122 122 122 120 114 115 125 108 126 130 113 119 117 133 129 115 120 149 143
103 102 107 112 109 101 109 103 103 105 109 105 103 105 108 112 107 116 119 113 113 114 111 116 121 122 126 121 120 135 130 0 0 0 128 0 0 0 0 0 0 0 0 0 0 0 0 0 0 0 0 0 0 0 0 0 0 0 0 0 0 0 0 0 0 0 0 0 0 0 0 0 131 0 0 123 122 120 122 117 119 117 112 114 112 118 115 115 112 118 116 118 113 112 108 107 111 114 113 108 114 114 112 117 112 118 112 112 108 108 117 119 107 130 123 121 127 118 129 141
99 101 93 99 101 104 100 101 104 104 101 102 106 104 111 106 108 109 116 107 109 110 106 110 116 111 112 117 119 118 0 125 0 0 0 0 0 0 0 0 0 0 0 0 0 0 0 0 0 0 0 0 0 0 0 0 0 0 0 0 0 0 0 0 0 0 0 0 0 0 0 0 0 124 0 113 120 116 114 111 114 111 103 103 112 108 108 115 105 109 114 112 113 115 108 114 106 108 101 120 111 105 117 104 106 117 109 112 114 118 102 106 122 98 109 111 130 97 107 135
97 103 99 104 99 97 99 93 98 101 97 96 101 92 100 93 105 103 111 116 113 108 102 111 113 108 111 112 117 121 121 118 124 0 0 0 0 0 0 0 0 0 0 0 0 0 0 0 0 0 0 0 0 0 0 0 0 0 0 0 0 0 0 0 0 0 0 0 0 0 0 0 123 122 109 120 114 116 118 118 104 113 101 121 111 106 103 106 101 106 104 109 114 94 98 100 107 104 112 107 107 112 109 105 109 107 108 92 100 102 98 104 102 103 127 99 143 135 123 132
87 85 82 86 84 85 84 95 92 83 85 93 96 94 92 90 93 95 92 88 93 89 100 108 98 104 116 108 0 114 107 109 121 0 113 0 0 0 112 0 0 0 0 0 0 0 0 0 0 0 0 0 0 0 0 0 0 0 0 0 0 0 0 0 0 0 0 0 0 0 0 0 112 110 104 113 106 106 105 100 102 105 99 91 102 96 86 99 103 102 95 95 104 84 85 97 95 102 87 97 88 100 90 91 85 88 98 96 94 89 82 91 85 105 97 96 86 84 114 137
93 86 89 87 95 95 95 108 89 95 94 94 89 92 97 93 98 90 101 95 95 105 105 104 101 105 110 106 0 106 111 110 115 114 119 109 113 0 0 0 0 116 0 0 0 0 0 0 0 0 0 0 0 0 0 0 0 0 0 0 114 0 0 113 110 0 0 0 110 0 108 105 115 109 114 107 106 109 103 99 110 105 105 89 95 99 106 103 101 104 107 108 107 102 104 103 96 95 98 109 100 95 97 100 96 108 102 83 95 83 89 94 82 95 97 83 107 105 112 112
86 93 95 91 96 98 91 97 86 96 87 90 90 95 88 85 98 98 98 93 102 89 99 110 91 101 105 102 103 108 95 105 105 104 100 103 0 116 118 0 107 0 0 0 0 0 0 0 0 0 0 0 0 0 0 0 0 109 0 0 108 109 107 110 112 111 106 98 114 106 110 105 104 103 112 109 99 94 103 96 96 95 101 87 95 95 94 108 107 96 97 107 109 87 83 84 91 94 100 86 92 88 93 92 94 91 105 95 101 85 94 86 83 105 102 91 132 114 151 113
84 87 82 89 92 93 104 89 85 79 88 88 88 91 89 90 92 88 89 89 80 93 92 86 87 92 92 89 106 91 95 99 97 96 95 110 99 102 105 103 105 97 100 110 108 91 0 0 94 0 0 105 103 97 101 109 109 102 110 106 100 106 111 102 103 111 104 95 99 109 98 110 104 101 104 96 95 97 98 90 94 89 92 97 95 97 89 89 96 90 99 90 93 95 94 91 88 93 93 83 85 91 86 93 86 83 96 87 82 97 85 93 90 106 83 95 98 82 116 131
85 82 86 84 86 84 99 97 87 90 88 82 82 89 86 90 92 96 92 96 84 99 96 92 90 94 93 93 98 100 95 86 99 95 97 96 99 99 94 107 102 97 99 108 104 98 105 0 102 103 97 107 101 97 102 103 104 106 95 108 106 96 94 106 103 100 95 101 93 105 100 103 102 95 103 87 93 98 99 88 102 96 95 94 99 100 87 86 95 89 88 99 87 93 94 81 93 95 104 94 89 97 82 94 92 99 94 97 89 87 84 100 103 103 109 116 113 95 96 86
82 76 71 71 79 82 88 88 85 79 87 83 89 82 91 88 88 87 87 85 93 85 83 90 86 87 93 92 85 95 92 92 83 93 95 86 99 84 92 94 95 91 85 89 98 94 89 99 96 90 97 99 96 91 91 85 103 92 97 98 98 96 84 95 96 98 99 94 94 98 95 86 93 93 86 98 91 97 91 96 88 95 85 89 85 92 88 91 85 89 94 79 88 81 87 86 84 77 80 91 82 86 82 72 84 88 86 83 82 87 74 92 96 81 104 121 125 123 135 52
73 73 84 86 72 84 89 88 84 82 82 88 80 82 83 90 86 90 85 86 82 93 86 92 87 85 92 86 94 88 85 96 92 96 86 91 86 94 97 94 95 82 97 90 89 98 90 88 100 87 89 97 97 85 99 92 93 85 92 94 97 97 89 92 88 94 86 96 107 95 85 95 85 85 95 98 97 96 95 93 92 91 88 89 81 87 90 81 93 95 81 91 81 81 92 84 94 86 79 81 84 82 81 78 77 86 85 86 81 92 89 92 90 80 87 80 108 87 74 170
