0 0 0 0 0 0 0 0 0 0 0 0 0 0 0 0 0 0 0 0 0 0 0 0 0 0 0 0 0 0 0 0 0 0 0 0 0 0 0 0 0 0 0 0 0 0 0 0 0 0 0 0 0 0 0 0 0 0 0 0 0 0 0 0 0 0 0 0 0 0 0 0 0 0 0 0 0 0 0 0 0 0 0 0 0 0 0 0 0 0 0 0 0 0 0 0 0 0 0 0 0 0 0 0 0 0 0 0 0 0 0 0 0 0 0 0 0 0 0 0
0 0 0 0 0 0 0 0 0 0 0 0 0 0 0 0 0 0 0 0 0 0 0 0 0 0 0 0 0 0 0 0 0 0 0 0 0 0 0 0 0 0 0 0 0 0 0 0 0 0 0 0 0 0 0 0 0 0 0 0 0 0 0 0 0 0 0 0 0 0 0 0 0 0 0 0 0 0 0 0 0 0 0 0 0 0 0 0 0 0 0 0 0 0 0 0 0 0 0 0 0 0 0 0 0 0 0 0 0 0 0 0 0 0 0 0 0 0 0 0
0 0 0 0 0 0 0 0 0 0 0 0 0 0 0 0 0 0 0 0 0 0 0 0 0 0 0 0 0 0 0 0 0 0 0 0 0 0 0 0 0 0 0 0 0 0 0 0 0 0 0 0 0 0 0 0 0 0 0 0 0 0 0 0 0 0 0 0 0 0 0 0 0 0 0 0 0 0 0 0 0 0 0 0 0 0 0 0 0 0 0 0 0 0 0 0 0 0 0 0 0 0 0 0 0 0 0 0 0 0 0 0 0 0 0 0 0 0 0 0
0 0 0 0 0 0 0 0 0 0 0 0 0 0 0 0 0 0 0 0 0 0 0 0 0 0 0 0 0 0 0 0 0 0 0 0 0 0 0 0 0 0 0 0 0 0 0 0 0 0 0 0 0 0 0 0 0 0 0 0 0 0 0 0 0 0 0 0 0 0 0 0 0 0 0 0 0 0 0 0 0 0 0 0 0 0 0 0 0 0 0 0 0 0 0 0 0 0 0 0 0 0 0 0 0 0 0 0 0 0 0 0 0 0 0 0 0 0 0 0
0 0 0 0 0 0 0 0 0 0 0 0 0 0 0 0 0 0 0 0 0 0 0 0 0 0 0 0 0 0 0 0 0 0 0 0 0 0 0 0 0 0 0 0 0 0 0 0 0 0 0 0 0 0 0 0 0 0 0 0 0 0 0 0 0 0 0 0 0 0 0 0 0 0 0 0 0 0 0 0 0 0 0 0 0 0 0 0 0 0 0 0 0 0 0 0 0 0 0 0 0 0 0 0 0 0 0 0 0 0 0 0 0 0 0 0 0 0 0 0
0 0 0 0 0 0 0 0 0 0 0 0 0 0 0 0 0 0 0 0 0 0 0 0 0 0 0 0 0 0 0 0 0 0 0 0 0 0 0 542 520 498 491 510 509 518 495 489 490 486 504 482 495 527 557 0 0 0 0 0 0 0 0 0 0 0 0 0 0 0 0 0 0 0 0 0 0 0 0 0 0 0 0 0 0 0 0 0 0 0 0 0 0 0 0 0 0 0 0 0 0 0 0 0 0 0 0 0 0 0 0 0 0 0 0 0 0 0 0 0
0 0 0 0 0 0 0 0 0 0 0 0 0 0 0 0 0 0 0 0 0 0 0 0 0 0 0 0 0 0 0 0 0 0 0 0 0 474 536 499 488 504 489 486 506 511 511 508 510 508 491 501 506 508 502 514 497 536 501 493 0 0 0 0 0 0 0 0 0 0 0 0 0 0 0 0 0 0 0 0 0 0 0 0 0 0 0 0 0 0 0 0 0 0 0 0 0 0 0 0 0 0 0 0 0 0 0 0 0 0 0 0 0 0 0 0 0 0 0 0
0 0 0 0 0 0 0 0 0 0 0 0 0 0 0 0 0 0 0 0 0 0 0 0 0 0 0 0 0 0 0 0 0 0 0 511 500 515 505 496 502 505 487 509 516 515 508 512 517 505 510 501 507 512 529 506 517 502 513 508 528 523 506 550 522 0 0 0 0 0 0 0 0 0 0 0 0 0 0 0 0 0 0 0 0 0 0 0 0 0 0 0 0 0 0 0 0 0 0 0 0 0 0 0 0 0 0 0 0 0 0 0 0 0 0 0 0 0 0 0
0 0 0 0 0 0 0 0 0 0 0 0 0 0 0 0 0 0 0 0 0 0 0 0 0 0 0 0 0 0 0 0 0 516 508 495 506 505 499 500 499 498 497 510 508 496 501 500 496 519 506 489 504 493 495 512 496 497 511 498 500 499 493 506 510 485 508 553 555 565 587 573 571 0 614 606 560 575 0 620 0 0 0 0 0 0 0 0 0 0 0 0 0 0 0 0 0 0 0 0 0 0 0 0 0 0 0 0 0 0 0 0 0 0 0 0 0 0 0 0
0 0 0 0 0 0 0 0 0 0 0 0 0 0 0 0 0 0 0 0 0 0 0 0 0 0 0 0 0 0 0 538 504 509 497 496 505 508 512 494 517 513 503 499 506 512 492 509 511 505 514 505 512 505 511 498 497 508 519 509 515 509 509 522 498 515 519 525 522 599 580 588 567 573 581 607 598 584 598 590 587 576 582 605 0 587 599 650 618 556 613 616 579 606 643 565 595 599 545 607 591 600 591 630 0 0 0 0 0 0 0 0 0 0 0 0 0 0 0 0
0 0 0 0 0 0 0 0 0 0 0 0 0 0 0 0 0 0 0 0 0 0 0 0 0 0 0 0 0 0 512 508 493 492 476 506 497 508 508 511 504 500 510 505 499 508 511 508 501 511 505 514 510 502 508 515 498 501 495 512 508 512 510 507 517 520 498 522 522 525 570 620 580 607 637 574 574 568 571 637 612 548 600 595 568 612 610 568 604 602 624 595 628 564 591 597 590 615 624 641 613 614 585 614 613 582 612 0 0 0 0 0 0 0 0 0 0 0 0 0
0 0 0 0 0 0 0 0 0 0 0 0 0 0 0 0 0 0 0 0 0 0 0 0 0 0 0 0 452 479 502 497 493 492 503 492 504 489 499 499 508 505 502 498 501 503 497 501 493 502 493 509 496 502 515 497 509 503 507 503 503 497 502 500 523 502 505 501 507 514 501 534 544 555 540 571 509 564 541 573 537 532 553 533 574 564 533 571 525 568 557 557 517 548 562 524 536 583 532 589 517 582 562 535 557 552 501 571 551 0 0 0 0 0 0 0 0 0 0 0
0 0 0 0 0 0 0 0 0 0 0 0 0 0 0 0 0 0 0 0 0 0 0 0 0 0 0 495 502 502 501 497 495 511 504 498 499 506 497 498 510 506 493 516 506 508 500 505 501 517 509 502 503 504 514 508 513 513 512 514 516 509 506 509 507 499 508 515 510 520 519 526 573 577 584 574 602 577 572 586 575 582 566 594 572 588 576 620 587 575 574 560 576 552 589 548 584 595 544 581 585 568 554 559 582 593 607 549 575 0 0 0 0 0 0 0 0 0 0 0
0 0 0 0 0 0 0 0 0 0 0 0 0 0 0 0 0 0 0 0 0 0 0 0 0 0 479 499 499 492 498 505 490 484 492 488 496 496 499 496 506 495 497 500 507 504 501 494 502 504 512 505 509 504 507 503 507 502 511 499 513 518 510 499 507 515 509 495 512 506 502 509 539 526 539 538 548 557 553 548 545 551 558 527 521 539 529 561 516 563 524 527 554 502 544 541 575 512 536 559 564 567 533 558 542 545 559 555 542 0 0 0 0 0 0 0 0 0 0 0
0 0 0 0 0 0 0 0 0 0 0 0 0 0 0 0 0 0 0 0 0 0 0 0 0 490 488 490 502 495 495 499 495 501 483 488 501 494 499 497 501 506 501 501 499 508 505 500 497 498 502 513 493 496 501 505 494 499 508 502 510 514 503 515 513 501 499 507 507 501 504 511 501 550 543 548 524 541 547 540 507 520 563 538 535 536 554 519 526 529 567 551 543 519 546 515 557 523 516 565 539 542 532 520 545 512 561 532 509 556 550 0 0 0 0 0 0 0 0 0
0 0 0 0 0 0 0 0 0 0 0 0 0 0 0 0 0 0 0 0 0 0 0 0 0 482 493 484 495 498 504 501 500 500 492 495 495 498 500 500 503 496 501 490 504 505 508 502 494 502 506 509 508 503 504 498 505 506 503 505 504 498 511 511 502 510 517 509 514 507 513 513 509 511 553 552 526 546 534 556 542 532 558 549 541 520 525 554 526 544 570 575 541 539 550 528 546 561 582 567 571 554 510 543 512 548 545 524 564 581 0 0 555 528 0 0 0 0 0 0
0 0 0 0 0 0 0 0 0 0 0 0 0 0 0 0 0 0 0 0 0 0 0 0 451 482 496 494 487 486 506 491 486 489 499 493 501 493 503 500 501 495 500 505 494 503 502 497 493 494 497 496 503 505 505 498 499 498 507 501 504 500 499 505 497 506 514 498 507 496 507 513 508 517 529 527 491 517 528 566 510 525 510 546 537 523 527 528 501 538 525 566 522 508 523 509 522 533 521 530 510 539 550 544 527 492 531 529 482 540 477 0 0 0 0 0 0 0 0 0
0 0 0 0 0 0 0 0 0 0 0 0 0 0 0 0 0 0 0 0 0 0 0 0 488 496 492 498 491 498 490 489 495 494 495 495 497 499 500 499 489 497 499 500 496 505 498 497 503 500 509 509 501 505 497 505 505 500 506 504 506 504 515 510 499 514 507 505 499 506 498 509 517 505 505 511 551 537 552 541 558 545 524 556 564 517 534 543 522 561 553 539 563 564 524 526 542 563 541 530 543 555 578 553 520 561 538 578 514 578 0 0 0 0 0 0 0 0 0 0
0 0 0 0 0 0 0 0 0 0 0 0 0 0 0 0 0 0 0 0 0 0 0 487 491 507 500 504 487 484 490 490 498 498 486 488 498 490 499 504 497 492 484 506 503 512 495 501 496 505 502 501 507 505 512 501 508 504 506 511 508 497 505 504 502 499 513 503 513 505 509 510 513 502 516 524 550 540 544 522 495 542 528 527 539 537 545 520 563 526 543 559 545 543 556 526 529 539 523 545 536 549 528 570 560 529 543 543 556 554 542 0 0 0 0 0 0 0 0 0
0 0 0 0 0 0 0 0 0 0 0 0 0 0 0 0 0 0 0 0 0 0 0 488 501 489 492 489 495 486 494 486 487 495 493 492 487 491 491 506 493 498 497 509 508 499 490 501 497 510 505 506 497 503 500 505 504 508 505 500 497 502 504 495 508 504 506 502 498 515 511 510 508 506 506 518 534 540 525 530 522 504 525 528 528 535 527 545 502 509 524 541 488 532 533 524 496 493 526 527 563 532 535 563 490 517 550 539 510 541 499 458 0 0 0 0 0 0 0 0
0 0 0 0 0 0 0 0 0 0 0 0 0 0 0 0 0 0 0 0 0 0 513 494 498 491 485 500 493 492 497 502 495 490 485 490 492 490 496 489 501 499 500 502 497 492 503 504 504 506 504 499 499 494 512 503 504 498 503 510 505 513 513 499 504 510 507 510 511 512 507 510 509 507 513 505 516 550 546 538 519 542 549 573 550 534 511 544 553 559 567 537 548 553 538 537 570 541 558 543 559 591 559 537 545 561 535 570 566 573 566 575 587 0 0 0 0 0 0 0
0 0 0 0 0 0 0 0 0 0 0 0 0 0 0 0 0 0 0 0 0 0 483 489 487 491 492 482 489 495 491 488 490 487 499 494 491 492 489 486 501 493 491 495 495 492 502 500 498 499 497 502 495 503 499 512 501 501 501 506 512 502 500 507 506 509 507 509 508 498 509 511 510 501 515 511 516 532 519 519 502 523 509 509 535 509 524 532 518 542 535 506 507 527 533 534 499 526 551 504 516 521 554 537 532 546 549 509 544 502 522 492 0 0 0 0 0 0 0 0
0 0 0 0 0 0 0 0 0 0 0 0 0 0 0 0 0 0 0 0 0 0 481 486 489 486 489 489 494 487 492 493 492 485 488 485 484 493 488 497 493 494 499 496 490 490 493 494 502 494 499 495 498 493 497 500 499 510 501 502 507 506 504 502 508 505 504 502 499 502 505 507 508 504 511 500 512 524 517 520 510 517 537 527 467 513 528 486 515 499 513 537 495 526 528 505 533 521 535 534 514 495 527 528 493 505 530 505 518 512 548 571 490 0 0 0 0 0 0 0
0 0 0 0 0 0 0 0 0 0 0 0 0 0 0 0 0 0 0 0 0 0 490 496 491 490 484 498 493 494 493 493 488 490 486 489 486 495 493 490 490 496 495 504 505 496 505 498 497 500 493 503 496 496 502 501 499 498 500 503 508 510 499 509 499 493 506 505 497 503 510 508 505 506 512 507 506 542 530 541 513 526 531 506 548 525 533 549 502 538 508 561 516 553 521 547 574 535 572 518 539 536 544 540 509 518 515 519 546 537 548 559 513 0 0 0 0 0 0 0
0 0 0 0 0 0 0 0 0 0 0 0 0 0 0 0 0 0 0 0 0 0 469 480 479 490 489 492 496 492 497 483 486 479 488 483 485 485 494 488 489 488 506 500 499 494 492 499 493 500 497 502 495 493 493 498 500 503 496 496 498 507 499 505 502 495 497 496 497 505 498 506 508 507 498 502 502 508 510 508 510 501 499 496 493 516 505 481 554 493 506 498 520 482 458 508 487 510 515 476 501 471 522 514 497 497 519 495 497 519 494 522 500 0 0 0 0 0 0 0
0 0 0 0 0 0 0 0 0 0 0 0 0 0 0 0 0 0 0 0 0 0 482 480 495 494 490 486 485 481 500 483 490 485 492 491 494 494 497 494 493 500 493 495 497 495 496 493 497 500 501 494 501 503 491 502 500 500 501 496 504 504 507 512 507 505 504 498 500 499 500 500 505 507 508 503 508 530 526 535 524 517 522 521 529 530 532 542 535 510 522 522 535 533 517 526 518 509 533 512 542 521 551 510 558 516 555 534 587 0 566 533 561 0 0 0 0 0 0 0
0 0 0 0 0 0 0 0 0 0 0 0 0 0 0 0 0 0 0 0 0 483 486 481 484 490 498 494 495 487 479 492 485 496 498 487 503 499 489 498 496 493 494 490 493 493 493 493 496 495 497 499 496 499 503 502 497 514 499 502 499 504 504 502 505 501 507 503 511 505 500 507 502 517 496 508 515 517 530 529 510 500 514 514 524 494 520 528 515 541 533 543 535 526 534 497 541 557 532 555 551 538 521 523 519 527 520 516 505 559 501 0 0 0 0 0 0 0 0 0
0 0 0 0 0 0 0 0 0 0 0 0 0 0 0 0 0 0 0 0 0 445 487 472 482 476 485 481 480 479 481 480 486 482 484 487 488 489 484 488 492 492 490 490 499 494 493 491 496 493 495 498 494 497 500 497 505 499 503 506 499 497 498 494 500 503 505 503 505 497 501 496 503 496 499 506 498 498 518 516 510 515 495 491 516 525 510 504 512 520 511 488 485 511 504 498 512 504 493 513 515 505 477 522 507 523 501 530 475 520 473 524 0 0 0 0 0 0 0 0
0 0 0 0 0 0 0 0 0 0 0 0 0 0 0 0 0 0 0 0 0 481 483 483 492 478 488 486 479 487 485 485 484 495 483 489 488 490 492 490 489 492 490 493 493 496 493 493 492 495 492 492 494 500 499 507 493 500 506 501 504 506 503 497 504 500 512 507 506 503 501 502 504 507 509 498 506 508 519 522 521 512 511 533 518 512 524 524 546 541 520 503 524 542 519 524 487 537 532 555 543 535 540 532 550 541 570 515 536 535 561 563 537 0 0 0 0 0 0 0
0 0 0 0 0 0 0 0 0 0 0 0 0 0 0 0 0 0 0 0 0 478 475 478 484 481 480 481 486 489 483 486 490 481 492 489 490 491 489 489 490 490 490 495 495 498 493 498 493 491 492 499 495 497 496 497 501 499 499 499 493 500 496 499 507 502 504 505 493 505 496 496 508 503 502 502 501 505 506 499 505 510 492 512 511 524 506 514 518 496 548 509 518 523 513 512 485 526 533 529 521 508 526 523 522 537 498 494 491 451 502 489 532 0 0 0 0 0 0 0
0 0 0 0 0 0 0 0 0 0 0 0 0 0 0 0 0 0 0 0 0 446 483 482 476 481 479 479 476 485 479 478 482 485 483 489 485 486 489 489 487 491 490 490 486 488 490 491 488 494 496 497 495 501 497 496 493 501 498 500 501 500 501 497 499 502 499 501 500 501 504 508 502 505 499 499 504 505 507 510 484 518 510 531 511 511 532 503 487 518 507 479 499 508 523 498 512 485 491 471 525 502 518 495 518 513 515 505 484 516 498 496 479 0 0 0 0 0 0 0
0 0 0 0 0 0 0 0 0 0 0 0 0 0 0 0 0 0 0 0 0 464 482 480 476 485 481 478 481 483 484 488 485 483 483 486 487 494 486 490 489 490 492 492 488 491 493 496 496 498 491 491 498 495 497 508 494 502 498 497 502 496 497 500 497 505 500 506 497 501 504 502 495 505 497 504 503 499 510 496 522 527 509 528 508 521 503 490 535 510 508 509 493 520 526 529 505 540 510 501 528 529 473 518 526 518 523 564 495 503 560 546 508 0 0 0 0 0 0 0
0 0 0 0 0 0 0 0 0 0 0 0 0 0 0 0 0 0 0 0 0 417 478 483 474 483 478 480 482 476 479 481 484 478 486 487 481 484 481 485 492 487 485 492 489 484 492 485 495 491 499 495 497 497 493 499 494 494 497 498 494 493 498 495 496 498 496 500 504 502 501 498 504 496 492 501 495 498 493 490 508 486 492 486 502 520 494 484 484 494 486 482 501 514 480 497 465 486 504 515 470 498 474 495 498 470 530 502 467 462 472 455 478 0 0 0 0 0 0 0
0 0 0 0 0 0 0 0 0 0 0 0 0 0 0 0 0 0 0 0 0 459 475 475 472 482 477 476 480 477 478 488 483 485 483 484 482 483 486 490 489 487 489 495 489 493 491 490 493 490 492 493 493 498 495 498 495 496 492 499 502 500 500 501 493 493 498 502 497 497 499 495 492 503 496 501 499 499 498 502 502 497 502 494 517 496 502 508 511 508 495 502 497 510 493 481 508 501 494 503 522 529 477 528 522 514 524 486 516 530 481 498 506 0 0 0 0 0 0 0
0 0 0 0 0 0 0 0 0 0 0 0 0 0 0 0 0 0 0 0 0 441 474 477 470 476 470 480 480 488 483 486 479 486 484 484 487 485 486 491 488 482 488 492 491 494 486 489 498 490 498 495 495 493 502 494 496 498 497 496 495 500 500 500 500 499 493 493 494 499 497 498 496 505 495 496 504 502 504 490 497 502 507 525 498 512 513 525 503 519 503 518 519 514 515 503 496 511 501 504 524 504 541 499 545 508 481 512 499 529 514 471 489 482 0 0 0 0 0 0
0 0 0 0 0 0 0 0 0 0 0 0 0 0 0 0 0 0 0 0 0 430 461 471 469 472 473 475 480 481 478 476 478 477 478 485 485 480 482 482 483 485 488 488 489 485 489 487 489 498 493 491 492 491 494 493 490 500 497 494 500 495 495 497 497 510 497 499 496 496 498 493 500 502 498 493 496 497 497 495 490 506 492 474 497 499 511 494 522 479 499 474 480 500 491 484 503 477 507 487 494 490 520 482 466 445 487 502 474 506 504 507 488 511 0 0 0 0 0 0
0 0 0 0 0 0 0 0 0 0 0 0 0 0 0 0 0 0 0 0 0 463 473 477 478 470 477 476 476 481 476 482 480 482 489 488 484 481 481 486 481 487 488 489 491 489 484 492 494 495 492 489 492 495 496 495 492 496 494 497 493 496 496 499 502 497 502 496 500 493 497 502 498 493 503 497 492 487 494 494 506 501 503 481 492 520 513 497 517 480 494 508 498 491 517 474 495 534 514 509 506 531 506 502 515 514 493 485 516 494 483 526 548 506 0 0 0 0 0 0
0 0 0 0 0 0 0 0 0 0 0 0 0 0 0 0 0 0 0 0 0 0 464 475 477 481 471 476 481 478 482 481 484 480 482 480 481 481 485 483 480 484 486 488 489 486 491 487 496 490 489 494 491 493 498 495 490 495 495 494 495 493 498 495 497 499 497 497 495 495 494 500 500 500 494 499 493 496 492 494 499 494 510 508 499 490 495 506 513 481 500 485 486 508 524 494 489 506 503 504 477 526 499 494 491 509 485 478 493 453 463 529 480 544 0 0 0 0 0 0
0 0 0 0 0 0 0 0 0 0 0 0 0 0 0 0 0 0 0 0 0 0 503 476 472 472 479 473 476 482 484 477 480 480 479 481 483 485 485 482 486 487 483 485 482 486 490 490 492 490 491 488 494 495 493 491 496 490 494 494 493 491 491 493 492 494 496 495 491 493 498 492 498 494 497 495 498 503 499 483 501 503 493 492 509 519 511 504 498 478 517 509 509 496 521 499 476 509 514 486 479 500 459 500 484 484 497 499 464 504 479 483 462 503 0 0 0 0 0 0
0 0 0 0 0 0 0 0 0 0 0 0 0 0 0 0 0 0 0 0 0 0 524 478 465 481 475 473 478 476 475 477 481 486 487 484 484 485 479 491 482 483 489 483 488 490 489 486 490 491 491 492 493 492 494 500 493 491 497 496 495 491 496 496 493 497 499 495 494 496 497 494 494 493 491 494 503 497 509 512 509 491 498 499 521 512 493 512 499 516 548 519 528 522 507 530 513 510 508 516 490 489 517 499 486 505 477 501 504 484 491 557 505 484 510 496 0 0 0 0
0 0 0 0 0 0 0 0 0 0 0 0 0 0 0 0 0 0 0 0 0 0 587 468 478 471 477 474 473 477 479 478 483 478 481 485 485 481 482 482 482 488 483 486 487 486 489 486 493 484 487 493 493 487 494 496 493 496 494 492 493 491 495 497 497 496 495 501 496 491 496 491 492 497 492 498 490 482 479 506 494 494 509 491 499 495 494 487 483 515 508 500 501 481 487 502 507 492 488 477 525 467 483 483 519 475 483 495 453 455 485 463 441 507 0 0 0 0 0 0
0 0 0 0 0 0 0 0 0 0 0 0 0 0 0 0 0 0 0 0 0 0 0 474 476 476 473 476 476 471 479 476 477 483 480 472 480 483 481 482 486 489 488 483 487 483 490 489 488 488 492 488 493 492 490 496 494 493 492 495 495 492 490 493 496 495 488 498 494 497 497 493 499 496 495 492 491 503 494 504 504 497 497 507 503 506 510 528 482 500 507 504 513 516 499 513 515 528 497 512 480 523 507 516 500 489 479 486 486 478 510 545 470 0 0 0 0 0 0 0
0 0 0 0 0 0 0 0 0 0 0 0 0 0 0 0 0 0 0 0 0 0 0 490 471 473 474 470 478 475 476 475 477 478 483 476 480 478 480 479 482 483 487 485 489 488 487 488 491 492 487 490 489 492 496 489 493 490 493 491 493 491 496 495 492 498 493 499 495 486 494 499 496 487 492 490 495 493 511 507 503 501 508 510 499 495 496 509 494 522 492 506 508 526 506 533 525 536 524 504 498 542 537 506 463 501 515 510 530 487 505 520 495 0 0 0 0 0 0 0
0 0 0 0 0 0 0 0 0 0 0 0 0 0 0 0 0 0 0 0 0 0 0 497 468 470 472 471 469 467 482 472 481 473 480 480 480 477 476 484 485 483 486 485 483 487 487 486 488 484 487 492 486 484 495 488 491 492 489 491 496 491 488 495 493 493 492 497 490 493 495 494 488 499 493 487 495 482 503 508 495 483 485 490 499 508 493 482 486 482 500 509 482 503 512 473 488 484 473 494 488 507 504 476 470 507 488 470 482 473 488 454 464 493 474 0 0 0 0 0
0 0 0 0 0 0 0 0 0 0 0 0 0 0 0 0 0 0 0 0 0 0 0 0 472 466 467 472 472 474 479 475 476 475 474 479 474 477 481 479 480 482 481 483 486 487 487 488 493 489 491 487 489 490 491 488 488 490 487 490 493 495 491 495 494 494 497 495 496 492 496 493 496 490 494 487 492 505 487 517 494 489 518 499 507 521 508 509 508 509 510 510 499 518 491 495 487 531 509 516 494 531 518 516 506 514 485 494 497 476 522 484 483 516 550 0 0 0 0 0
0 0 0 0 0 0 0 0 0 0 0 0 0 0 0 0 0 0 0 0 0 0 0 0 518 466 467 470 469 467 475 472 471 475 477 475 475 481 478 479 479 480 482 482 482 480 486 487 486 491 492 486 490 486 491 491 492 491 493 489 490 486 494 490 498 492 496 492 492 487 497 494 491 488 494 488 479 483 475 496 492 500 493 506 484 502 494 512 491 485 484 507 517 511 504 499 494 486 507 484 489 495 484 467 495 474 476 459 454 458 473 489 438 442 492 0 0 0 0 0
0 0 0 0 0 0 0 0 0 0 0 0 0 0 0 0 0 0 0 0 0 0 0 0 0 466 466 465 467 472 468 470 477 473 476 472 480 475 482 483 480 479 480 490 484 484 482 485 483 486 490 484 490 490 487 485 495 485 484 487 491 491 492 490 493 488 495 491 492 492 491 488 489 486 488 485 482 477 489 477 489 484 484 493 484 492 477 474 482 488 493 472 513 483 516 482 484 520 498 510 484 490 490 476 492 480 473 490 467 454 448 467 483 459 455 0 0 0 0 0
0 0 0 0 0 0 0 0 0 0 0 0 0 0 0 0 0 0 0 0 0 0 0 0 0 583 469 466 463 476 464 469 470 473 474 473 475 476 477 479 481 479 479 477 483 484 482 481 485 484 493 492 489 496 489 495 485 488 491 493 487 489 494 489 490 493 499 496 488 490 498 490 495 491 490 480 487 488 491 497 489 507 482 493 496 493 497 495 490 481 488 486 490 516 489 504 498 498 520 511 521 522 499 526 538 496 487 476 495 505 456 496 483 518 0 0 0 0 0 0
0 0 0 0 0 0 0 0 0 0 0 0 0 0 0 0 0 0 0 0 0 0 0 0 0 0 478 465 462 470 469 470 472 472 471 474 475 476 473 475 476 476 485 477 485 482 484 480 483 483 485 484 490 489 488 489 493 491 487 486 486 488 490 485 492 485 490 492 490 492 494 490 489 488 486 485 472 481 479 498 479 495 493 481 488 478 494 465 468 473 482 505 496 507 478 486 487 475 500 494 480 485 478 489 482 482 473 466 456 449 440 473 479 433 0 0 0 0 0 0
0 0 0 0 0 0 0 0 0 0 0 0 0 0 0 0 0 0 0 0 0 0 0 0 0 0 0 478 471 469 469 470 478 471 472 470 472 477 475 478 481 480 477 480 479 482 482 480 486 485 486 490 488 487 491 484 486 487 485 484 482 489 486 484 486 493 489 488 494 491 491 487 485 484 491 495 487 481 504 490 494 485 485 488 494 489 504 489 482 487 482 520 505 504 490 492 506 476 511 495 481 492 498 492 530 496 489 447 493 456 477 518 471 497 501 0 0 0 0 0
0 0 0 0 0 0 0 0 0 0 0 0 0 0 0 0 0 0 0 0 0 0 0 0 0 0 0 473 464 466 471 474 472 474 470 468 473 473 474 477 476 478 479 478 479 477 478 484 480 488 485 486 486 488 488 489 489 483 486 490 490 485 491 489 490 489 493 486 493 488 487 484 482 478 495 499 496 490 485 501 497 495 483 496 497 484 502 488 495 506 497 512 500 530 493 506 499 483 509 495 502 472 515 514 480 491 514 497 479 471 487 524 508 515 0 0 0 0 0 0
0 0 0 0 0 0 0 0 0 0 0 0 0 0 0 0 0 0 0 0 0 0 0 0 0 0 0 0 508 457 459 465 468 469 476 466 474 471 478 476 476 475 481 473 480 478 477 481 479 479 480 486 481 485 485 482 484 486 489 491 485 483 488 490 479 485 487 489 485 487 487 480 475 480 483 490 486 480 488 491 481 493 475 481 489 479 501 485 484 506 491 475 478 470 488 464 464 480 474 493 478 501 458 465 468 479 469 456 463 441 427 459 437 459 464 0 0 0 0 0
0 0 0 0 0 252 237 273 361 0 0 0 0 0 0 0 0 0 0 0 0 2320 0 0 0 0 0 0 0 520 461 469 468 465 466 470 472 471 471 472 476 479 481 476 475 476 474 477 479 479 481 483 479 482 484 485 483 487 484 482 485 485 489 487 486 486 484 484 484 489 475 489 485 481 489 492 500 480 489 485 497 500 489 487 492 492 484 491 490 512 506 498 538 494 509 537 529 514 489 508 497 523 504 489 485 491 502 486 477 470 478 487 518 490 502 0 0 0 0 0
0 0 0 0 250 227 236 234 241 286 308 0 0 0 0 0 0 0 0 0 0 2356 0 0 0 0 0 0 0 0 450 463 460 468 467 469 471 467 474 473 473 478 474 473 480 477 480 475 480 475 478 480 480 482 483 483 482 480 482 480 482 483 485 490 486 484 483 489 480 483 483 480 478 472 477 482 481 475 475 465 482 476 486 478 478 483 480 488 483 478 475 477 469 481 450 492 480 482 488 488 503 474 473 475 454 485 461 462 479 482 478 437 477 0 0 0 0 0 0 0
0 0 0 225 216 230 223 225 235 236 343 0 0 0 0 0 0 0 0 0 0 0 0 0 0 0 0 0 0 0 0 456 453 470 459 466 462 465 464 467 469 468 471 470 470 475 471 473 471 472 478 480 478 481 477 477 482 475 480 479 477 482 482 479 478 475 482 476 467 478 479 466 480 473 481 468 478 477 472 470 481 485 476 467 476 476 470 479 478 472 478 487 506 460 476 469 476 445 471 454 454 469 470 469 451 466 451 473 460 447 478 438 448 426 475 0 0 0 0 0
219 278 242 296 278 272 284 230 238 234 324 0 410 414 422 412 425 409 419 440 487 493 457 460 454 452 446 471 455 460 456 461 471 466 466 465 459 463 466 467 471 472 466 471 476 474 474 477 478 474 470 477 479 475 479 482 473 479 473 481 477 481 477 478 480 484 482 480 484 474 477 477 478 468 478 470 467 479 476 479 475 464 464 484 458 480 465 485 478 481 484 484 493 482 467 473 488 471 471 484 490 485 503 505 461 480 492 460 493 466 480 475 466 462 453 0 0 0 0 0
175 174 174 211 224 216 238 230 228 239 329 389 371 368 393 385 401 388 396 391 390 411 405 414 423 425 415 425 439 443 449 458 453 458 450 446 455 458 460 453 456 460 457 469 462 457 466 462 468 468 464 465 467 470 463 472 468 470 468 473 471 467 472 470 469 465 469 474 472 465 466 466 465 467 451 453 448 450 452 449 448 437 448 441 462 444 451 454 441 450 461 452 446 428 423 423 446 432 430 450 432 430 428 418 438 440 422 437 429 429 425 435 445 428 430 415 421 0 0 0
184 195 208 207 230 249 230 231 236 312 412 365 365 379 365 376 381 383 377 386 375 398 387 399 406 416 420 426 432 438 441 443 437 438 433 443 441 445 441 447 444 450 447 456 446 453 446 453 456 454 456 451 464 455 463 462 462 461 458 464 465 467 458 461 461 453 458 466 455 455 458 448 447 442 436 438 432 435 425 430 432 427 429 420 428 424 427 423 419 424 426 422 426 423 432 422 428 422 410 427 413 430 419 434 416 421 399 419 434 393 399 421 433 418 408 457 384 393 427 0
284 295 242 223 236 225 227 232 244 331 320 330 350 343 347 343 347 346 346 340 351 355 360 372 380 388 388 402 408 419 426 424 419 423 424 433 432 429 428 437 429 431 429 432 435 436 441 439 444 440 445 436 443 439 450 435 444 444 439 439 444 441 441 443 443 434 446 442 439 441 433 425 431 424 420 420 414 413 411 394 392 405 395 406 390 415 409 393 394 392 396 380 401 396 403 388 383 401 395 389 396 403 402 402 399 399 382 376 381 399 383 388 374 385 403 393 387 383 430 0
283 285 293 240 230 233 231 243 295 303 294 298 300 299 305 313 329 312 308 307 324 313 342 338 344 358 378 385 389 394 395 403 403 412 403 406 408 414 410 409 414 415 418 409 417 417 412 419 415 416 413 416 421 416 423 419 422 423 419 424 419 416 413 419 413 421 420 421 419 418 418 404 404 398 400 390 370 372 364 369 366 358 349 354 361 341 359 349 357 356 352 356 351 351 369 355 358 368 365 356 362 357 360 360 347 348 358 362 349 355 352 356 354 350 380 354 378 366 357 326
274 266 276 279 268 254 265 285 294 289 281 293 273 294 293 305 297 287 283 282 305 307 313 316 334 353 357 368 358 379 387 388 395 391 383 392 394 390 397 400 397 396 400 392 395 399 399 389 394 398 392 403 398 399 402 399 397 399 404 400 397 391 397 397 396 387 398 399 397 399 393 390 389 382 378 367 357 347 348 337 330 327 338 342 330 332 333 334 326 335 323 337 321 329 345 343 332 326 338 328 346 341 326 333 350 346 345 337 322 329 329 351 321 326 361 349 352 337 362 313
246 238 243 253 251 246 248 239 263 261 260 246 254 259 253 259 252 261 267 260 258 289 293 298 305 316 337 338 350 357 363 362 360 361 357 362 367 372 366 367 370 365 370 374 369 368 366 366 367 374 372 374 377 375 380 375 366 378 376 372 378 378 377 375 373 367 370 376 372 372 365 369 365 354 347 341 327 322 311 318 303 306 308 296 303 297 295 300 302 296 301 299 307 310 304 297 301 291 300 292 299 291 305 297 298 320 301 296 297 293 310 296 309 305 284 303 297 312 285 278
222 228 232 233 231 238 237 236 245 233 235 240 255 249 238 248 242 240 247 251 255 260 273 275 289 303 316 325 324 326 331 336 338 335 338 341 342 343 343 340 353 345 348 348 351 344 341 353 346 339 339 345 347 353 349 349 353 351 360 344 349 345 344 340 346 347 342 345 344 341 342 339 338 334 322 325 308 294 291 282 280 281 281 272 278 275 284 279 273 270 268 275 276 272 278 272 274 271 273 278 287 286 282 275 267 273 282 273 268 289 271 283 286 279 284 247 275 241 273 251
203 220 228 234 224 222 224 218 223 226 236 230 220 237 231 230 221 227 235 242 245 243 259 263 272 280 292 300 295 305 307 318 319 317 313 322 319 321 331 328 315 322 320 324 319 323 322 327 322 320 326 327 334 324 330 329 328 322 329 328 324 328 322 330 328 325 327 323 325 316 322 323 319 312 306 298 288 278 274 268 270 269 263 264 263 256 265 253 252 252 252 258 258 257 265 256 262 250 261 263 259 268 258 261 250 253 261 262 261 271 261 273 273 275 255 254 268 271 264 294
195 204 207 217 209 207 211 214 211 214 209 205 209 218 207 210 213 215 219 217 226 225 240 247 252 264 267 276 278 281 285 290 294 290 291 296 296 298 304 301 303 301 298 303 302 301 302 294 306 305 309 294 301 303 298 298 300 302 298 305 306 300 304 307 301 305 309 298 302 301 298 297 300 290 286 282 273 259 259 246 248 240 243 245 242 246 245 237 234 248 239 241 241 240 233 238 236 231 243 232 237 244 244 239 236 236 231 243 240 246 239 259 241 247 256 244 228 211 255 277
178 200 206 200 198 209 204 205 197 202 206 199 183 189 185 189 209 209 210 213 212 225 230 235 239 247 251 260 267 272 275 267 273 270 276 283 280 280 285 282 284 278 284 288 284 281 283 290 285 280 282 276 279 286 279 284 287 286 287 284 284 286 280 287 284 287 280 286 283 280 287 283 281 269 269 261 250 245 239 240 230 225 224 232 232 223 224 225 224 231 230 234 226 228 227 224 230 220 221 219 229 233 220 224 227 221 226 229 238 234 231 222 243 244 241 231 221 225 257 237
177 173 177 190 199 182 185 201 183 184 182 182 178 180 181 175 190 188 189 185 207 214 222 229 229 232 239 239 245 249 252 254 257 257 258 258 264 260 264 265 262 266 271 266 262 263 268 267 261 265 271 266 264 267 263 264 267 264 268 274 265 263 261 268 266 271 268 270 267 269 261 256 258 256 254 248 236 232 223 217 217 217 222 215 215 221 222 212 214 220 217 220 215 211 216 217 212 199 215 213 221 213 213 211 211 207 212 215 222 226 217 226 233 232 208 231 227 220 229 223
176 171 166 177 176 171 179 177 182 180 176 181 184 180 177 184 182 183 176 184 186 192 183 212 213 215 221 225 227 232 235 239 241 240 241 236 239 239 250 249 241 243 246 245 249 249 247 248 244 250 245 245 245 250 242 249 250 251 245 252 245 244 248 248 237 246 246 246 244 247 248 246 239 239 232 224 224 216 197 198 195 192 188 189 191 194 188 186 192 190 188 189 191 179 187 188 185 184 188 191 190 207 187 191 204 185 203 202 199 186 184 203 220 208 203 170 216 197 195 210
169 170 175 172 177 179 172 173 175 182 179 171 179 171 181 177 177 181 188 184 189 188 188 188 207 193 215 216 218 225 228 226 223 228 223 228 225 230 231 228 229 229 238 230 233 235 230 232 235 231 234 234 232 234 233 235 231 239 240 237 235 239 235 232 237 232 234 228 233 234 237 231 233 221 225 218 214 193 189 190 194 189 192 189 188 194 195 191 190 182 190 180 184 192 183 187 180 190 187 179 175 176 181 187 192 176 187 183 176 179 174 199 199 199 201 192 215 207 214 202
163 167 168 170 167 167 168 168 169 162 168 164 168 166 172 169 173 170 175 181 173 181 188 189 185 183 185 191 207 209 213 211 207 215 213 215 216 213 210 214 215 221 219 217 220 218 220 217 215 220 216 221 218 217 218 223 218 222 219 218 218 219 225 216 214 216 218 214 221 219 221 212 214 196 194 191 188 194 191 189 189 182 186 185 185 184 180 183 184 177 185 183 185 183 177 181 179 179 182 184 183 182 181 178 177 178 179 174 177 176 177 180 172 180 181 188 177 167 166 196
150 153 157 155 160 159 158 160 163 163 162 157 161 160 159 161 161 172 165 173 171 173 181 181 182 184 184 181 192 186 181 188 181 187 183 189 185 189 186 192 195 191 189 193 196 197 193 192 190 193 194 195 198 195 194 194 195 194 190 192 200 196 198 189 191 195 190 196 195 194 198 195 191 197 189 197 192 191 187 180 177 176 174 174 169 170 172 176 176 175 177 178 171 169 174 174 171 167 171 173 171 171 171 175 170 169 165 167 170 175 170 168 181 180 177 178 172 175 159 174
148 158 152 153 158 154 156 157 157 158 158 158 158 153 157 157 158 161 159 165 169 166 179 175 180 177 181 179 186 186 189 186 191 192 186 191 189 191 191 192 193 192 189 196 191 196 194 194 197 193 196 196 195 196 189 196 199 194 200 199 195 196 199 199 192 195 197 199 198 196 195 195 192 194 190 185 184 184 177 174 172 174 164 166 165 167 169 168 168 170 167 168 171 165 170 166 162 164 163 168 168 167 170 165 163 162 158 164 164 169 168 166 175 173 174 167 161 173 170 158
143 140 147 139 145 146 142 148 151 149 145 151 150 152 147 148 153 149 154 158 162 161 164 173 167 167 174 176 173 179 175 179 181 180 177 179 181 178 182 183 182 182 186 182 181 186 186 182 185 185 184 187 189 184 187 184 189 187 0 190 188 189 184 186 187 186 188 185 184 185 186 186 183 180 175 175 172 170 168 162 161 158 165 158 157 163 165 158 165 161 157 159 158 155 160 157 159 154 164 162 158 162 158 157 155 158 156 154 160 159 161 155 158 155 153 167 154 150 156 160
135 142 139 143 139 149 147 149 146 146 141 147 141 146 148 145 146 149 148 151 157 160 162 164 169 165 169 171 171 172 172 174 174 174 170 171 174 174 172 175 177 182 176 175 175 178 176 178 176 177 179 178 178 178 181 181 179 0 0 180 181 178 178 182 177 177 177 182 179 177 172 177 173 174 172 170 169 166 163 160 164 160 154 157 159 157 157 157 155 152 150 156 158 153 154 152 154 152 153 153 155 152 151 154 152 149 151 146 167 154 153 150 146 147 151 155 156 147 166 168
140 133 130 140 144 140 148 140 139 138 139 139 143 144 141 143 145 148 144 145 149 151 156 155 159 160 164 161 165 165 164 164 163 167 166 169 166 168 167 171 173 0 171 0 170 175 173 172 171 172 173 171 175 173 173 0 175 170 0 175 173 0 175 173 174 171 174 166 175 171 168 167 169 171 166 163 166 157 158 153 152 153 153 152 151 150 148 148 147 154 146 151 153 151 148 147 152 150 155 149 147 145 146 148 145 144 145 141 147 145 146 147 144 154 155 151 148 155 160 149
128 123 125 126 134 132 142 135 133 128 130 130 131 132 139 132 138 134 135 142 135 145 145 151 151 157 157 156 156 161 161 151 157 161 156 157 161 163 0 0 0 0 0 0 0 0 0 164 164 166 167 166 170 168 0 0 170 164 166 0 0 0 0 0 169 164 165 0 162 163 163 162 162 160 155 156 153 155 149 151 150 148 146 145 145 147 144 143 146 144 145 142 145 144 138 138 143 145 139 144 140 141 142 134 135 134 138 135 139 140 139 147 149 149 141 135 138 141 137 140
124 120 127 125 128 135 134 132 134 131 134 135 126 125 133 126 120 141 135 137 142 139 147 147 148 145 152 154 155 152 155 155 157 160 155 152 157 0 0 0 0 0 0 0 0 0 0 0 0 162 164 161 0 0 0 0 0 0 0 0 0 0 0 0 0 160 0 0 0 0 0 157 163 158 154 150 148 152 147 142 142 141 144 141 141 142 145 138 146 141 138 138 137 139 137 139 140 141 141 142 138 137 140 134 119 128 133 139 139 149 143 149 139 148 132 142 143 132 134 160
115 106 117 122 127 127 127 129 129 126 128 120 118 118 116 129 130 121 130 137 134 134 132 139 141 139 142 143 146 150 149 149 150 151 149 149 0 0 0 0 0 0 0 0 0 0 0 0 152 155 155 0 0 0 0 0 0 0 0 0 0 0 0 0 0 0 0 0 0 0 0 0 147 148 149 147 145 143 142 145 129 140 136 137 128 126 136 130 129 137 140 129 131 134 120 126 139 137 131 134 127 134 132 120 133 130 130 131 132 136 136 134 137 138 132 131 130 138 117 132
106 103 112 111 108 109 119 117 115 118 115 113 119 117 128 123 120 122 117 116 130 122 125 121 136 141 141 139 142 142 142 143 141 146 145 142 0 0 0 0 0 0 0 0 0 0 0 0 0 0 0 0 0 0 0 0 0 0 0 0 0 0 0 0 0 0 0 0 0 0 0 0 144 139 141 140 137 131 128 128 125 122 121 121 127 118 127 124 121 127 123 121 115 125 121 125 124 133 116 118 116 121 132 119 119 120 114 121 131 134 126 129 113 120 125 115 115 108 116 112
110 104 115 118 115 114 115 117 117 117 115 120 118 117 118 126 124 127 122 116 117 116 120 120 135 126 137 141 0 140 0 0 0 138 139 0 0 0 0 0 0 0 0 0 0 0 0 0 0 0 0 0 0 0 0 0 0 0 0 0 0 0 0 0 0 0 0 0 0 0 0 0 0 143 136 136 125 125 119 125 120 118 121 127 116 121 116 122 120 120 115 126 113 121 113 119 119 119 122 118 120 126 132 119 130 117 117 117 110 132 126 113 126 114 132 123 115 132 145 145
99 99 107 110 106 98 106 103 98 103 107 105 102 106 106 110 108 112 115 110 114 114 110 120 122 118 124 119 119 126 0 0 0 0 125 0 0 0 0 0 0 0 0 0 0 0 0 0 0 0 0 0 0 0 0 0 0 0 0 0 0 0 0 0 0 0 0 0 0 0 0 0 128 0 0 123 121 119 123 117 117 113 109 117 110 113 111 116 113 115 115 114 111 110 110 100 111 112 112 110 112 112 109 115 114 111 105 110 122 101 105 112 98 111 115 98 107 109 98 153
97 99 93 97 101 102 102 99 102 104 103 102 104 103 109 104 103 107 117 103 110 110 111 110 116 110 116 118 121 119 0 126 0 0 0 0 0 0 0 0 0 0 0 0 0 0 0 0 0 0 0 0 0 0 0 0 0 0 0 0 0 0 0 0 0 0 0 0 0 0 0 0 0 0 0 111 124 117 115 111 111 112 106 102 111 109 111 114 103 108 112 110 111 115 107 115 109 107 98 114 111 111 106 104 106 112 113 110 114 112 103 108 117 105 105 131 123 100 106 144
99 102 100 102 98 98 97 93 95 98 96 98 102 94 100 95 104 101 109 115 111 105 98 108 112 107 114 112 111 122 117 117 121 0 0 0 0 0 0 0 0 0 0 0 0 0 0 0 0 0 0 0 0 0 0 0 0 0 0 0 0 0 0 0 0 0 0 0 0 0 0 0 120 121 108 122 111 115 117 117 103 109 105 119 108 108 101 101 100 105 105 109 112 94 102 101 107 99 110 102 106 108 110 105 107 111 104 88 104 103 103 102 98 100 101 87 131 145 112 133
89 83 83 85 80 83 84 96 87 83 90 91 97 92 94 88 93 92 89 87 90 87 99 103 101 101 110 108 0 114 107 105 117 0 0 0 0 0 0 0 0 0 0 0 0 0 0 0 0 0 0 0 0 0 0 0 0 0 0 0 0 0 0 0 0 0 0 0 0 0 0 0 109 110 108 111 107 107 103 101 97 104 96 90 97 93 83 99 105 96 93 98 100 84 86 96 91 105 88 90 90 92 93 88 78 96 94 92 89 83 84 85 78 100 88 92 92 88 114 113
92 85 91 89 97 98 97 108 92 93 95 94 89 91 94 95 96 91 102 97 97 106 106 103 104 105 114 107 0 101 112 111 117 113 122 109 113 0 111 0 0 120 0 0 0 0 0 0 0 0 0 0 0 0 0 0 0 0 0 0 117 0 0 0 113 0 0 0 112 114 107 112 117 112 112 110 107 112 101 96 109 101 104 89 96 101 103 105 102 103 106 107 108 99 100 104 99 96 103 109 103 97 96 103 92 102 100 89 89 82 90 91 88 100 106 97 128 125 142 135
85 93 90 88 94 94 92 92 85 97 83 90 86 89 85 83 92 96 98 93 95 94 96 110 93 102 107 100 105 103 92 100 106 102 97 100 0 114 116 0 105 0 0 0 0 0 0 0 0 0 0 0 0 0 0 0 0 105 0 0 109 104 105 108 112 112 107 102 113 108 107 100 99 98 111 109 96 91 100 96 97 93 101 83 95 92 92 103 105 93 97 105 109 85 83 84 88 90 93 87 91 92 89 98 90 84 96 96 95 91 93 88 83 89 103 97 125 102 128 91
81 83 82 86 92 90 102 87 88 82 87 89 84 93 88 90 91 89 92 89 76 91 95 83 88 91 92 91 102 88 94 101 98 97 92 109 99 100 100 101 105 96 95 106 104 90 0 0 93 0 0 107 105 93 98 110 105 99 107 103 99 107 112 99 104 109 103 97 98 107 98 106 106 101 104 93 92 95 101 89 94 92 90 94 94 91 90 89 96 95 97 89 94 93 88 89 85 94 89 83 88 89 89 92 88 85 100 83 80 92 88 92 90 95 82 89 90 79 108 131
84 81 86 86 81 87 97 101 87 83 89 81 82 91 83 88 90 93 91 97 83 97 96 93 91 95 94 88 96 101 96 86 96 93 94 95 98 101 94 108 106 97 98 107 100 94 102 0 105 100 97 105 99 99 97 103 104 105 98 104 107 94 97 106 102 102 94 99 97 104 96 106 99 94 105 91 93 94 96 84 100 92 96 91 99 98 90 86 93 91 83 99 88 91 82 80 91 92 95 89 92 97 92 94 92 98 97 92 95 87 85 98 110 97 106 144 135 102 147 129
82 73 69 68 78 86 86 86 87 81 84 81 83 78 89 83 87 88 85 87 92 83 93 89 81 84 92 94 87 90 91 95 80 91 94 93 97 96 90 95 91 89 82 88 97 93 90 98 93 86 92 98 97 88 88 84 104 86 95 95 96 82 98 97 95 98 96 90 98 96 91 86 90 93 96 92 90 95 95 95 88 92 83 87 84 90 91 86 86 88 90 76 90 82 88 86 84 93 79 91 78 82 80 67 84 78 84 80 77 85 69 89 85 87 83 93 108 66 80 73
74 75 84 84 76 84 82 88 82 81 86 90 79 79 83 88 86 89 84 86 84 92 85 93 88 83 90 85 94 90 83 96 91 93 86 93 96 91 96 96 96 81 95 92 87 99 90 86 100 88 92 85 87 85 102 95 91 98 87 95 99 82 93 95 90 97 90 96 106 91 95 97 88 88 94 95 94 96 96 94 90 87 86 89 77 86 90 80 91 91 76 91 79 84 91 86 88 85 79 83 84 85 84 79 74 86 81 88 81 86 86 91 80 115 114 106 114 116 122 227
