0 0 0 0 0 0 0 0 0 0 0 0 0 0 0 0 0 0 0 0 0 0 0 0 0 0 0 0 0 0 0 0 0 0 0 0 0 0 0 0 0 0 0 0 0 0 0 0 0 0 0 0 0 0 0 0 0 0 0 0 0 0 0 0 0 0 0 0 0 0 0 0 0 0 0 0 0 0 0 0 0 0 0 0 0 0 0 0 0 0 0 0 0 0 0 0 0 0 0 0 0 0 0 0 0 0 0 0 0 0 0 0 0 0 0 0 0 0 0 0
0 0 0 0 0 0 0 0 0 0 0 0 0 0 0 0 0 0 0 0 0 0 0 0 0 0 0 0 0 0 0 0 0 0 0 0 0 0 0 0 0 0 0 0 0 0 0 0 0 0 0 0 0 0 0 0 0 0 0 0 0 0 0 0 0 0 0 0 0 0 0 0 0 0 0 0 0 0 0 0 0 0 0 0 0 0 0 0 0 0 0 0 0 0 0 0 0 0 0 0 0 0 0 0 0 0 0 0 0 0 0 0 0 0 0 0 0 0 0 0
0 0 0 0 0 0 0 0 0 0 0 0 0 0 0 0 0 0 0 0 0 0 0 0 0 0 0 0 0 0 0 0 0 0 0 0 0 0 0 0 0 0 0 0 0 0 0 0 0 0 0 0 0 0 0 0 0 0 0 0 0 0 0 0 0 0 0 0 0 0 0 0 0 0 0 0 0 0 0 0 0 0 0 0 0 0 0 0 0 0 0 0 0 0 0 0 0 0 0 0 0 0 0 0 0 0 0 0 0 0 0 0 0 0 0 0 0 0 0 0
0 0 0 0 0 0 0 0 0 0 0 0 0 0 0 0 0 0 0 0 0 0 0 0 0 0 0 0 0 0 0 0 0 0 0 0 0 0 0 0 0 0 0 0 0 0 0 0 0 0 0 0 0 0 0 0 0 0 0 0 0 0 0 0 0 0 0 0 0 0 0 0 0 0 0 0 0 0 0 0 0 0 0 0 0 0 0 0 0 0 0 0 0 0 0 0 0 0 0 0 0 0 0 0 0 0 0 0 0 0 0 0 0 0 0 0 0 0 0 0
0 0 0 0 0 0 0 0 0 0 0 0 0 0 0 0 0 0 0 0 0 0 0 0 0 0 0 0 0 0 0 0 0 0 0 0 0 0 0 0 0 0 0 0 0 0 0 0 0 0 0 0 0 0 0 0 0 0 0 0 0 0 0 0 0 0 0 0 0 0 0 0 0 0 0 0 0 0 0 0 0 0 0 0 0 0 0 0 0 0 0 0 0 0 0 0 0 0 0 0 0 0 0 0 0 0 0 0 0 0 0 0 0 0 0 0 0 0 0 0
0 0 0 0 0 0 0 0 0 0 0 0 0 0 0 0 0 0 0 0 0 0 0 0 0 0 0 0 0 0 0 0 0 0 0 0 0 0 0 434 486 503 504 474 505 475 510 487 498 462 501 481 472 459 439 0 0 0 0 0 0 0 0 0 0 0 0 0 0 0 0 0 0 0 0 0 0 0 0 0 0 0 0 0 0 0 0 0 0 0 0 0 0 0 0 0 0 0 0 0 0 0 0 0 0 0 0 0 0 0 0 0 0 0 0 0 0 0 0 0
0 0 0 0 0 0 0 0 0 0 0 0 0 0 0 0 0 0 0 0 0 0 0 0 0 0 0 0 0 0 0 0 0 0 0 0 0 498 526 512 498 503 496 518 511 512 504 516 520 516 495 501 514 505 518 536 515 519 505 489 0 0 0 0 0 0 0 0 0 0 0 0 0 0 0 0 0 0 0 0 0 0 0 0 0 0 0 0 0 0 0 0 0 0 0 0 0 0 0 0 0 0 0 0 0 0 0 0 0 0 0 0 0 0 0 0 0 0 0 0
0 0 0 0 0 0 0 0 0 0 0 0 0 0 0 0 0 0 0 0 0 0 0 0 0 0 0 0 0 0 0 0 0 0 0 500 510 508 501 496 514 493 493 513 508 516 519 513 516 505 509 508 525 510 528 535 510 517 508 519 513 534 529 529 592 0 0 0 0 0 0 0 0 0 0 0 0 0 0 0 0 0 0 0 0 0 0 0 0 0 0 0 0 0 0 0 0 0 0 0 0 0 0 0 0 0 0 0 0 0 0 0 0 0 0 0 0 0 0 0
0 0 0 0 0 0 0 0 0 0 0 0 0 0 0 0 0 0 0 0 0 0 0 0 0 0 0 0 0 0 0 0 0 510 503 506 511 490 500 498 506 500 507 515 507 496 497 500 497 510 500 502 511 497 502 513 511 511 509 514 520 512 507 506 512 506 506 525 599 566 533 565 593 0 546 596 540 514 575 549 0 0 0 0 0 0 0 0 0 0 0 0 0 0 0 0 0 0 0 0 0 0 0 0 0 0 0 0 0 0 0 0 0 0 0 0 0 0 0 0
0 0 0 0 0 0 0 0 0 0 0 0 0 0 0 0 0 0 0 0 0 0 0 0 0 0 0 0 0 0 0 573 527 517 494 489 507 508 509 499 522 499 507 504 494 520 508 505 502 505 507 504 515 515 507 502 510 520 514 516 515 516 527 522 504 514 511 534 535 602 595 599 612 633 648 630 620 594 627 601 629 628 657 637 0 603 645 687 602 624 639 658 614 622 613 632 622 644 578 667 661 603 628 657 655 0 0 0 0 0 0 0 0 0 0 0 0 0 0 0
0 0 0 0 0 0 0 0 0 0 0 0 0 0 0 0 0 0 0 0 0 0 0 0 0 0 0 0 0 0 522 499 508 489 496 501 502 496 497 507 508 499 503 505 512 507 503 509 507 503 500 499 507 505 499 511 502 507 496 504 507 508 508 507 502 500 510 501 510 505 551 580 568 536 555 575 571 544 585 555 592 582 618 617 599 597 596 577 590 562 561 579 589 580 611 586 560 582 523 603 585 0 567 603 592 497 605 0 0 0 0 0 0 0 0 0 0 0 0 0
0 0 0 0 0 0 0 0 0 0 0 0 0 0 0 0 0 0 0 0 0 0 0 0 0 0 0 0 465 491 492 497 491 493 496 489 498 485 504 498 498 510 502 487 512 507 500 502 489 509 496 510 497 499 501 497 493 494 498 513 510 492 510 502 499 509 502 500 502 502 505 550 531 502 570 529 525 550 539 541 539 541 565 518 539 551 515 552 556 529 551 536 577 542 575 540 500 509 560 533 541 585 542 508 536 532 541 544 499 0 0 0 0 0 0 0 0 0 0 0
0 0 0 0 0 0 0 0 0 0 0 0 0 0 0 0 0 0 0 0 0 0 0 0 0 0 0 494 493 505 503 503 500 503 497 512 503 504 515 496 512 507 503 504 504 507 504 510 501 509 506 508 507 503 504 509 506 510 504 505 506 513 503 517 512 504 510 513 512 510 511 528 541 572 560 537 572 556 562 554 604 563 565 563 540 531 551 567 553 559 566 565 571 547 594 561 543 582 573 586 557 572 579 562 577 524 562 542 602 0 0 0 0 0 0 0 0 0 0 0
0 0 0 0 0 0 0 0 0 0 0 0 0 0 0 0 0 0 0 0 0 0 0 0 0 0 482 495 505 492 488 480 487 490 499 490 482 487 496 491 490 503 496 501 498 504 499 494 500 507 499 498 510 507 499 502 498 510 508 509 502 508 505 515 504 503 505 499 516 504 507 512 525 487 524 522 520 532 548 497 554 513 557 526 504 549 524 483 528 499 526 540 537 553 507 563 510 526 533 504 534 548 570 496 530 493 503 542 532 0 0 0 0 0 0 0 0 0 0 0
0 0 0 0 0 0 0 0 0 0 0 0 0 0 0 0 0 0 0 0 0 0 0 0 0 469 506 494 492 499 500 501 498 500 489 497 499 497 509 499 496 507 505 507 507 494 502 507 507 507 503 504 498 501 506 503 503 506 499 509 510 512 512 513 510 505 497 507 514 510 513 508 486 550 551 540 514 536 554 561 527 540 563 558 565 568 541 554 553 545 567 557 543 552 512 525 568 553 554 560 534 548 579 561 597 568 540 515 508 480 0 0 0 0 0 0 0 0 0 0
0 0 0 0 0 0 0 0 0 0 0 0 0 0 0 0 0 0 0 0 0 0 0 0 0 499 499 496 502 496 505 495 494 502 493 504 488 510 505 507 507 512 505 499 501 507 507 504 504 492 508 511 511 500 507 509 512 501 517 514 499 503 515 511 507 516 514 512 505 507 514 520 509 524 549 558 557 575 576 553 581 606 564 559 564 564 558 558 562 552 567 569 542 571 547 588 551 564 576 548 564 572 572 583 553 571 607 562 612 0 0 0 611 601 0 0 0 0 0 0
0 0 0 0 0 0 0 0 0 0 0 0 0 0 0 0 0 0 0 0 0 0 0 0 475 491 494 492 487 486 498 497 490 500 500 498 502 503 497 495 501 496 497 498 507 500 500 496 496 504 498 501 506 509 500 511 509 506 509 507 505 497 504 516 509 510 505 504 508 506 507 503 514 509 527 513 549 558 519 528 534 536 516 502 541 534 535 530 541 553 530 546 549 505 561 554 563 560 555 564 539 554 557 559 532 552 544 552 522 568 547 0 0 0 0 0 0 0 0 0
0 0 0 0 0 0 0 0 0 0 0 0 0 0 0 0 0 0 0 0 0 0 0 0 510 491 501 489 501 499 499 498 501 484 491 497 501 502 493 506 505 491 498 505 497 503 500 505 507 508 510 510 505 505 501 504 510 507 503 506 511 500 507 511 509 509 509 498 505 506 504 512 517 511 503 525 559 567 554 564 554 576 591 544 565 528 558 596 555 543 572 564 594 573 552 581 575 589 573 553 531 581 569 560 566 586 579 571 560 536 585 0 0 0 0 0 0 0 0 0
0 0 0 0 0 0 0 0 0 0 0 0 0 0 0 0 0 0 0 0 0 0 0 499 487 488 503 501 479 492 498 498 498 493 492 490 496 494 495 500 502 496 502 496 497 510 508 501 495 502 506 493 505 504 505 507 498 507 505 499 503 503 503 503 503 508 511 505 508 501 501 510 506 507 505 516 509 522 545 531 533 526 555 566 530 551 518 553 521 538 531 534 538 543 568 546 530 523 528 520 544 548 534 527 541 528 529 550 594 445 493 0 0 0 0 0 0 0 0 0
0 0 0 0 0 0 0 0 0 0 0 0 0 0 0 0 0 0 0 0 0 0 0 496 493 489 491 482 486 491 492 491 494 493 485 491 483 485 490 496 490 499 497 496 504 505 492 491 491 496 494 496 499 499 499 505 508 509 509 492 508 506 504 501 495 492 504 496 502 512 502 505 506 508 511 517 516 520 520 537 506 522 510 492 502 521 521 499 513 515 511 524 491 500 477 536 529 490 504 507 535 515 534 556 537 529 539 515 555 497 502 0 0 0 0 0 0 0 0 0
0 0 0 0 0 0 0 0 0 0 0 0 0 0 0 0 0 0 0 0 0 0 495 488 492 492 486 494 490 489 492 500 490 489 487 489 496 484 496 489 500 498 499 491 496 506 503 500 504 501 499 502 501 503 498 506 503 507 506 502 503 506 502 505 499 507 498 511 505 507 514 508 509 499 511 515 510 521 543 534 538 553 535 542 521 569 507 561 551 569 517 551 559 533 513 527 561 549 550 549 552 535 563 535 536 517 523 502 561 523 543 527 595 0 0 0 0 0 0 0
0 0 0 0 0 0 0 0 0 0 0 0 0 0 0 0 0 0 0 0 0 0 488 497 489 486 487 486 493 500 496 483 491 483 498 489 481 497 489 492 500 488 487 502 499 495 500 505 500 495 496 508 495 498 497 501 500 502 502 503 509 502 501 510 503 500 508 515 503 500 499 504 509 506 504 503 511 512 492 515 481 537 499 484 501 522 505 490 523 501 513 496 498 483 500 474 478 513 485 518 519 492 521 533 501 495 511 462 488 515 467 484 0 0 0 0 0 0 0 0
0 0 0 0 0 0 0 0 0 0 0 0 0 0 0 0 0 0 0 0 0 0 494 487 486 494 493 494 487 485 480 491 494 489 486 485 494 500 493 492 489 490 498 496 500 499 494 502 496 500 495 503 498 498 499 505 499 504 506 501 510 503 507 503 499 510 511 494 508 513 507 501 508 506 517 507 505 536 519 538 531 535 538 532 545 517 563 536 565 533 538 526 539 539 532 540 530 552 540 536 536 537 534 539 544 541 542 547 567 513 584 602 551 585 0 0 0 0 0 0
0 0 0 0 0 0 0 0 0 0 0 0 0 0 0 0 0 0 0 0 0 0 500 491 497 495 489 497 494 492 489 490 488 494 492 483 490 496 498 494 490 493 495 496 496 503 501 504 499 507 505 501 505 509 504 504 506 507 502 499 506 500 501 508 503 512 512 506 500 499 514 510 503 505 509 511 501 530 523 546 519 548 524 538 526 547 548 536 558 548 551 565 561 568 553 564 538 563 559 550 592 559 560 541 549 567 540 556 551 563 572 519 577 0 0 0 0 0 0 0
0 0 0 0 0 0 0 0 0 0 0 0 0 0 0 0 0 0 0 0 0 0 483 484 486 482 491 486 486 499 490 495 488 489 492 493 485 488 499 496 487 497 505 501 494 493 493 500 492 507 497 497 497 501 506 512 500 505 504 494 507 509 501 509 500 506 501 503 508 503 506 499 504 502 509 509 516 513 514 542 522 546 528 546 540 533 537 550 537 528 522 520 539 519 529 529 488 523 529 518 510 527 543 526 530 523 506 570 536 508 501 531 580 0 0 0 0 0 0 0
0 0 0 0 0 0 0 0 0 0 0 0 0 0 0 0 0 0 0 0 0 0 494 479 497 496 485 480 490 495 501 487 488 494 500 484 492 495 494 494 498 497 498 501 496 493 492 498 494 500 497 501 496 505 501 509 498 505 505 500 507 503 506 508 506 497 500 507 504 504 496 505 507 508 508 512 507 518 543 553 528 543 544 525 540 543 542 526 550 554 523 553 549 530 543 554 560 544 536 516 564 547 538 545 573 562 584 589 569 586 567 573 571 0 0 0 0 0 0 0
0 0 0 0 0 0 0 0 0 0 0 0 0 0 0 0 0 0 0 0 0 402 477 477 485 482 493 485 489 481 491 488 485 491 489 482 495 490 491 492 489 503 497 494 493 495 494 501 499 496 506 499 495 502 499 509 500 508 502 496 498 504 505 504 503 499 498 500 501 503 499 495 504 506 503 506 503 502 518 518 494 504 517 516 514 516 526 528 509 505 537 523 506 517 525 502 524 516 544 493 502 527 517 553 508 514 524 525 532 486 555 0 0 0 0 0 0 0 0 0
0 0 0 0 0 0 0 0 0 0 0 0 0 0 0 0 0 0 0 0 0 464 486 475 485 477 484 479 483 482 488 478 481 488 496 489 488 482 490 490 491 495 497 489 489 496 494 498 495 496 501 498 499 503 507 499 500 502 500 500 505 505 496 499 504 501 505 499 493 502 499 503 501 503 500 507 500 503 496 500 503 512 486 494 497 501 502 510 502 510 502 476 512 491 482 482 510 506 484 521 492 471 491 499 517 472 499 490 505 489 482 479 461 0 0 0 0 0 0 0
0 0 0 0 0 0 0 0 0 0 0 0 0 0 0 0 0 0 0 0 0 453 479 485 486 479 493 490 477 490 492 486 484 487 485 485 484 487 487 499 494 493 491 494 495 493 497 492 497 495 494 495 493 498 495 504 492 500 507 498 504 506 504 507 496 507 508 507 500 502 497 507 497 506 509 500 500 510 504 499 500 533 531 512 529 521 528 514 547 529 504 499 511 506 510 526 525 522 528 537 510 507 512 517 533 527 550 491 527 570 571 552 573 558 0 0 0 0 0 0
0 0 0 0 0 0 0 0 0 0 0 0 0 0 0 0 0 0 0 0 0 447 475 473 484 478 477 479 481 482 481 483 482 487 481 488 486 486 488 493 489 492 493 495 497 491 488 496 491 495 496 499 496 496 503 493 495 495 497 495 493 497 499 498 497 497 497 505 497 498 503 497 504 502 503 505 500 498 508 486 507 488 486 490 484 493 515 512 506 482 489 507 489 506 469 476 487 486 484 489 490 519 490 488 503 509 492 475 445 485 436 488 510 0 0 0 0 0 0 0
0 0 0 0 0 0 0 0 0 0 0 0 0 0 0 0 0 0 0 0 0 487 484 486 491 482 486 482 482 480 487 491 485 492 489 480 483 487 489 490 490 488 492 490 493 491 492 491 492 495 495 499 496 501 491 497 494 497 498 496 501 503 498 501 508 503 500 510 501 502 503 502 500 502 503 496 497 501 522 511 497 517 531 525 510 509 523 512 499 498 525 520 497 514 539 514 492 541 498 534 533 515 495 523 503 555 512 516 507 498 531 552 509 0 0 0 0 0 0 0
0 0 0 0 0 0 0 0 0 0 0 0 0 0 0 0 0 0 0 0 0 473 484 489 487 485 486 483 480 482 484 490 490 485 486 484 481 489 493 488 494 490 494 491 492 494 494 498 496 496 495 494 493 498 493 503 494 496 505 501 496 501 500 502 507 500 501 507 503 501 509 505 504 504 505 496 500 510 511 533 530 532 525 522 519 526 535 513 508 516 497 538 509 547 539 563 530 534 527 534 527 513 532 558 523 520 546 602 560 571 569 537 562 0 0 0 0 0 0 0
0 0 0 0 0 0 0 0 0 0 0 0 0 0 0 0 0 0 0 0 0 435 474 478 472 474 473 474 483 485 484 479 484 481 484 490 486 485 484 493 487 487 489 493 492 490 493 489 485 495 498 492 491 497 493 493 493 499 503 496 500 498 499 497 500 504 503 500 503 510 500 500 498 501 491 501 502 502 503 493 511 484 516 506 492 515 516 527 505 533 516 505 500 503 499 463 506 492 509 512 503 527 484 474 520 502 531 528 529 534 511 516 504 476 0 0 0 0 0 0
0 0 0 0 0 0 0 0 0 0 0 0 0 0 0 0 0 0 0 0 0 528 477 475 479 478 482 481 478 484 483 485 486 486 484 487 487 483 492 492 488 486 490 492 483 493 491 493 492 494 488 494 495 494 495 495 495 498 495 497 505 499 499 501 497 502 498 499 495 502 498 498 502 498 498 500 501 513 508 525 530 493 512 524 509 523 517 525 534 499 505 525 514 498 521 531 514 520 532 500 534 520 553 534 529 555 533 547 543 524 542 582 551 588 0 0 0 0 0 0
0 0 0 0 0 0 0 0 0 0 0 0 0 0 0 0 0 0 0 0 0 429 484 473 474 477 478 477 481 479 482 483 484 481 480 480 485 490 483 485 486 491 491 491 486 491 489 491 492 487 494 490 491 495 494 491 498 497 495 494 498 503 499 494 498 500 499 496 499 497 499 502 494 501 497 496 502 499 499 523 479 490 491 512 533 495 505 511 492 504 513 507 509 512 480 514 477 492 493 515 515 481 491 524 503 447 519 494 456 508 476 504 515 482 0 0 0 0 0 0
0 0 0 0 0 0 0 0 0 0 0 0 0 0 0 0 0 0 0 0 0 459 465 472 475 476 480 474 479 478 475 479 481 482 477 481 481 484 484 486 485 490 486 491 488 488 487 489 484 494 489 492 494 493 498 498 490 503 494 497 497 498 495 494 497 496 499 499 496 491 498 496 494 503 493 495 495 491 490 489 502 491 500 478 511 490 473 486 477 496 495 493 503 512 488 475 473 502 497 504 497 482 491 482 489 463 525 472 482 476 469 471 470 495 0 0 0 0 0 0
0 0 0 0 0 0 0 0 0 0 0 0 0 0 0 0 0 0 0 0 0 460 478 477 472 472 480 478 481 475 478 482 480 488 479 489 483 481 486 485 486 489 490 487 489 490 485 489 490 491 489 493 492 494 490 493 496 492 496 493 499 501 496 499 495 497 501 498 502 499 502 493 502 494 505 500 498 498 497 504 500 488 494 498 500 489 492 494 503 488 501 500 491 487 511 509 490 483 515 511 484 514 491 495 505 501 490 514 479 536 562 502 525 507 0 0 0 0 0 0
0 0 0 0 0 0 0 0 0 0 0 0 0 0 0 0 0 0 0 0 0 0 472 470 470 479 479 480 478 478 474 476 482 477 481 479 485 485 486 481 486 476 483 489 485 488 493 485 495 493 488 492 495 496 496 491 496 493 492 497 494 498 503 494 497 497 498 497 499 496 494 501 496 492 494 495 495 491 495 481 487 491 489 489 495 506 502 491 497 503 489 492 482 488 478 464 491 484 459 487 444 460 480 456 487 482 486 460 511 495 456 450 394 452 0 0 0 0 0 0
0 0 0 0 0 0 0 0 0 0 0 0 0 0 0 0 0 0 0 0 0 0 498 475 470 480 481 479 477 481 481 481 474 486 478 483 481 486 486 482 486 489 488 486 487 488 485 497 499 488 491 491 496 496 497 492 497 490 495 496 496 496 496 498 497 494 495 499 497 497 502 497 494 493 493 498 493 500 507 502 504 509 497 505 518 491 513 506 508 488 520 524 529 510 522 497 492 487 498 495 487 498 474 493 519 525 505 532 525 483 504 507 510 565 0 0 0 0 0 0
0 0 0 0 0 0 0 0 0 0 0 0 0 0 0 0 0 0 0 0 0 0 536 478 469 478 478 474 481 472 476 482 481 484 481 482 484 484 480 484 487 485 489 486 492 490 487 486 491 495 490 494 496 494 500 496 492 492 495 504 501 498 499 500 501 496 501 494 497 498 499 497 497 499 496 495 499 507 494 511 518 522 513 528 517 520 522 519 526 507 529 542 521 505 558 509 526 505 534 531 536 519 548 535 522 562 490 511 536 519 526 525 515 590 532 551 0 0 0 0
0 0 0 0 0 0 0 0 0 0 0 0 0 0 0 0 0 0 0 0 0 0 612 467 475 473 473 477 476 478 475 480 478 476 482 481 487 484 487 486 485 488 488 490 489 485 486 486 495 489 492 496 495 496 493 497 497 496 495 491 493 493 503 497 499 497 499 500 493 494 498 492 497 495 492 493 491 489 489 490 494 518 500 514 512 529 514 500 505 516 520 490 508 509 553 547 496 511 521 507 529 512 469 494 487 495 473 479 480 514 461 510 495 518 0 519 0 0 0 0
0 0 0 0 0 0 0 0 0 0 0 0 0 0 0 0 0 0 0 0 0 0 786 480 466 475 472 472 473 471 476 483 482 482 477 483 486 479 483 485 487 489 485 489 491 487 488 490 491 490 491 490 496 496 497 492 494 493 494 494 495 496 493 498 491 492 492 499 496 492 503 495 501 492 494 494 492 507 500 517 502 496 481 489 518 510 510 513 510 517 508 506 508 533 527 509 530 529 525 529 512 530 522 514 476 516 486 488 524 520 500 501 522 566 542 492 0 0 0 0
0 0 0 0 0 0 0 0 0 0 0 0 0 0 0 0 0 0 0 0 0 0 0 486 474 469 479 476 475 478 479 474 476 476 481 482 481 480 483 480 483 480 489 489 484 482 490 489 488 488 492 484 493 488 493 493 500 492 494 489 496 494 496 494 495 492 494 503 498 493 493 493 493 500 494 491 490 487 488 505 483 493 498 512 492 484 508 508 482 507 492 503 509 509 508 483 498 503 515 496 532 515 493 490 494 481 474 481 496 493 454 460 460 537 0 0 0 0 0 0
0 0 0 0 0 0 0 0 0 0 0 0 0 0 0 0 0 0 0 0 0 0 0 504 468 467 468 466 470 470 472 472 478 475 474 481 476 479 480 484 486 480 491 480 485 490 486 485 484 485 490 489 489 487 494 489 495 494 486 493 495 498 496 496 495 497 494 498 491 492 495 490 491 496 495 490 490 507 504 500 495 496 495 491 506 513 505 486 483 495 501 488 483 491 504 504 480 502 506 497 504 466 499 483 456 480 468 447 445 500 464 489 461 433 438 0 0 0 0 0
0 0 0 0 0 0 0 0 0 0 0 0 0 0 0 0 0 0 0 0 0 0 0 0 488 466 467 472 470 475 477 476 477 476 480 479 478 477 481 482 480 478 482 482 490 481 491 484 490 490 487 494 490 487 486 494 491 492 489 495 491 496 494 496 497 495 492 495 497 495 496 491 494 495 494 491 493 495 512 508 486 502 501 494 495 506 516 495 489 501 508 515 503 506 514 510 495 507 491 492 481 524 489 495 493 516 478 480 504 491 500 532 459 503 457 490 0 0 0 0
0 0 0 0 0 0 0 0 0 0 0 0 0 0 0 0 0 0 0 0 0 0 0 0 478 467 468 468 468 473 474 468 473 477 477 477 478 478 483 476 480 481 476 479 487 484 485 484 486 487 493 487 491 489 488 488 495 493 494 493 488 486 495 496 491 496 494 491 493 489 494 495 494 488 489 496 487 489 477 489 490 489 487 479 497 512 474 491 503 484 490 487 518 505 505 489 488 491 509 454 460 468 479 458 449 454 442 456 484 451 491 482 445 420 489 0 0 0 0 0
0 0 0 0 0 0 0 0 0 0 0 0 0 0 0 0 0 0 0 0 0 0 0 0 0 473 465 471 472 469 467 470 478 476 475 475 481 479 479 480 475 476 482 488 480 479 487 484 488 489 489 485 485 487 482 489 487 485 487 490 494 489 494 486 492 496 491 495 494 493 488 491 495 492 492 491 485 488 490 486 483 485 486 501 483 480 493 485 498 478 496 514 498 488 501 483 477 499 506 517 481 498 491 487 475 514 468 488 485 506 494 515 508 526 515 0 0 0 0 0
0 0 0 0 0 0 0 0 0 0 0 0 0 0 0 0 0 0 0 0 0 0 0 0 0 547 469 468 474 473 472 465 476 479 477 479 479 478 482 480 482 480 478 487 487 483 483 484 491 485 487 483 484 490 488 487 489 488 487 490 490 491 495 488 489 491 493 494 492 490 496 496 498 491 491 488 491 497 492 488 495 496 485 493 486 503 516 502 486 491 508 510 504 523 510 484 500 522 518 539 538 510 514 523 509 480 498 488 505 505 509 538 502 476 0 0 0 0 0 0
0 0 0 0 0 0 0 0 0 0 0 0 0 0 0 0 0 0 0 0 0 0 0 0 0 0 482 469 463 473 462 466 470 472 476 472 477 476 476 475 473 475 480 481 481 481 483 484 478 482 489 488 488 485 484 486 484 489 489 489 493 488 494 487 490 488 489 488 492 492 496 492 485 488 486 483 480 487 484 489 496 483 484 478 491 483 505 475 473 499 497 502 488 509 496 519 476 505 500 480 496 494 510 498 498 491 482 474 502 440 468 494 533 512 0 0 0 0 0 0
0 0 0 0 0 0 0 0 0 0 0 0 0 0 0 0 0 0 0 0 0 0 0 0 0 0 0 473 470 470 475 470 473 470 471 475 476 480 475 478 483 481 480 478 482 482 484 484 487 482 482 482 483 485 485 480 488 487 482 492 488 486 490 490 488 494 492 492 491 486 492 487 489 487 492 493 507 487 489 498 486 505 491 494 502 491 500 491 478 482 491 533 517 497 509 516 495 525 507 501 523 515 489 495 503 550 505 525 508 492 509 496 517 511 527 0 0 0 0 0
0 0 0 0 0 0 0 0 0 0 0 0 0 0 0 0 0 0 0 0 0 0 0 0 0 0 0 464 467 461 465 472 472 470 470 467 474 473 476 477 476 470 478 478 478 472 481 483 481 486 483 483 482 485 478 483 483 484 481 489 489 484 487 488 483 489 485 493 492 488 489 483 480 476 470 486 477 476 506 490 487 482 482 484 493 497 509 490 498 494 484 497 481 483 478 481 490 474 496 503 497 486 522 479 456 469 482 475 451 486 496 443 490 446 464 0 0 0 0 0
0 0 0 0 0 0 0 0 0 0 0 0 0 0 0 0 0 0 0 0 0 0 0 0 0 0 0 0 498 462 464 462 466 466 474 467 469 472 475 475 473 478 478 476 477 478 474 484 480 484 484 480 483 480 479 481 483 483 483 486 483 485 489 485 483 480 488 484 483 484 491 488 474 481 483 482 480 482 480 464 487 488 482 481 489 473 485 474 487 479 493 477 481 481 456 473 454 475 471 476 488 490 486 471 456 480 461 470 434 448 447 441 444 453 456 0 0 0 0 0
0 0 0 0 0 271 242 259 370 0 0 0 0 0 0 0 0 0 0 0 0 2376 0 0 0 0 0 0 0 514 464 467 471 470 468 471 474 473 473 475 473 476 478 477 477 482 478 481 477 477 484 479 483 484 485 481 484 485 484 481 485 483 485 482 488 489 484 481 486 482 479 485 484 487 494 476 490 480 491 481 486 500 486 483 498 487 489 486 485 514 490 486 489 496 483 511 506 482 486 509 490 483 456 469 467 469 493 487 494 505 461 451 501 510 449 0 0 0 0 0
0 0 0 0 228 228 226 232 233 264 329 0 0 0 0 0 0 0 0 0 0 0 0 0 0 0 0 0 0 0 445 461 464 464 466 468 473 468 473 466 472 475 467 467 480 473 474 471 472 476 476 479 481 483 483 480 482 478 481 478 477 481 480 486 481 485 479 483 480 479 473 462 478 475 474 472 477 473 465 462 483 474 478 481 474 472 482 477 468 475 475 483 481 472 469 466 464 470 462 476 452 462 459 439 453 458 454 436 453 413 422 422 392 0 0 0 0 0 0 0
0 0 0 231 224 222 225 229 233 244 321 0 0 0 0 0 0 0 0 0 0 0 0 0 0 0 0 0 0 0 0 474 459 474 468 475 467 471 464 474 474 474 471 467 471 476 474 475 478 479 476 471 478 475 480 475 481 479 481 478 479 486 480 479 476 481 484 471 470 484 473 489 477 483 480 478 479 487 488 479 476 469 471 478 480 483 487 476 485 483 482 461 513 470 491 468 485 477 480 484 473 482 495 463 445 456 450 470 501 461 458 458 490 467 428 0 0 0 0 0
199 284 260 264 241 292 268 226 234 240 329 0 441 434 420 391 408 424 431 445 468 456 438 452 452 448 459 451 457 469 449 465 463 471 463 465 461 472 462 461 467 472 474 471 474 473 471 475 480 478 475 475 475 483 485 485 479 477 475 483 477 474 473 478 481 478 473 478 485 488 473 473 469 479 472 479 467 467 472 469 474 459 484 482 478 484 480 484 475 489 470 474 487 481 493 484 471 469 479 497 495 469 497 473 462 492 475 490 471 475 484 491 520 488 507 0 0 0 0 0
191 182 232 222 248 245 262 230 231 251 377 399 375 395 400 405 396 407 401 393 399 402 410 427 426 441 430 435 447 436 452 461 459 454 450 455 461 455 459 457 461 463 461 466 464 465 464 468 467 476 470 470 469 474 467 467 474 472 472 474 467 475 475 478 469 470 472 472 473 471 469 467 474 468 463 444 463 460 454 453 459 454 467 447 462 456 451 443 453 450 450 470 443 448 460 452 443 461 448 455 424 458 455 461 442 449 435 432 437 423 425 448 437 441 433 403 449 0 0 0
218 230 219 226 254 239 235 228 228 312 387 375 377 370 371 379 385 381 377 389 386 389 395 390 408 410 422 427 432 440 434 445 440 451 443 445 442 446 445 446 451 452 453 448 447 458 447 459 455 461 463 454 464 457 455 460 463 458 464 464 458 472 459 461 459 462 457 461 459 458 456 454 453 447 441 447 433 431 436 438 438 437 433 437 430 429 428 433 445 433 427 436 438 429 428 419 419 424 435 428 428 428 425 420 442 434 420 430 437 418 432 424 448 420 441 456 425 448 432 403
293 309 251 220 226 225 233 235 246 326 329 337 326 334 332 340 340 320 332 342 326 352 346 371 380 375 398 402 414 412 413 423 423 424 420 430 431 432 427 427 428 430 435 434 430 435 438 441 438 438 442 445 448 439 443 440 444 437 440 444 442 437 443 442 440 432 440 440 436 435 433 430 425 420 417 424 412 398 406 404 397 398 400 392 402 402 384 394 393 397 406 384 396 391 407 391 393 390 383 411 387 395 393 384 388 401 375 389 398 395 388 361 362 401 376 368 391 403 409 0
288 309 287 238 230 232 230 242 287 315 297 292 302 312 300 316 311 300 324 324 318 327 325 349 355 367 382 388 396 396 396 400 405 410 405 409 407 411 410 413 413 414 408 412 411 414 416 425 424 417 420 416 416 419 423 419 419 428 414 420 417 425 419 416 413 420 412 416 419 418 410 414 411 397 398 391 382 366 365 366 366 364 351 362 365 355 357 359 352 362 353 366 360 364 358 362 351 361 358 360 360 357 367 353 365 358 345 357 356 367 358 350 354 348 357 353 344 366 300 364
285 287 277 270 256 245 262 291 277 291 280 276 276 285 291 287 284 290 281 285 294 306 312 327 332 358 356 379 367 376 386 383 386 393 391 393 392 396 392 401 398 393 389 390 390 397 396 390 395 393 391 391 399 404 397 389 401 399 406 402 396 401 398 394 393 389 390 398 398 399 390 391 392 387 381 361 359 351 338 332 343 332 329 334 329 325 336 326 333 336 321 340 329 343 337 324 334 328 324 334 334 325 339 327 330 336 331 343 330 320 337 352 333 343 332 350 309 358 341 340
249 234 235 246 237 245 251 246 243 247 254 250 254 253 254 253 257 255 265 266 268 274 287 297 303 309 325 340 343 351 359 364 363 360 359 360 362 371 368 367 370 368 372 364 367 371 367 367 365 374 375 366 371 375 381 373 373 376 374 379 371 368 371 369 375 376 371 376 366 369 369 362 360 352 341 337 325 321 308 304 304 295 298 289 295 310 294 302 293 301 290 302 299 307 292 289 298 307 298 307 297 302 298 299 312 288 299 290 298 300 315 289 322 286 280 257 283 304 289 260
219 223 240 231 229 238 235 235 242 252 244 250 245 245 243 244 242 244 247 249 263 271 275 277 291 300 316 330 323 332 331 340 337 335 342 343 348 342 342 343 347 349 353 351 351 349 340 353 349 345 342 351 352 351 351 353 352 354 349 347 352 350 351 346 349 349 350 353 349 348 348 342 344 339 328 320 311 298 285 286 276 280 281 276 283 278 280 287 275 277 281 280 283 283 276 280 272 277 284 288 280 285 288 279 270 276 283 273 277 284 297 292 277 279 297 263 312 281 286 297
214 221 234 229 232 223 224 221 217 230 240 220 224 235 231 221 237 234 240 239 237 241 255 260 276 280 298 293 303 309 307 323 322 324 313 323 319 323 322 327 321 326 319 321 323 322 325 328 322 325 322 322 328 329 325 325 326 325 331 329 330 329 321 330 322 325 330 327 321 321 315 324 316 312 305 304 284 277 271 271 268 266 269 261 263 257 262 260 256 253 258 253 263 261 259 258 259 255 258 267 265 258 262 272 260 256 254 254 270 269 263 272 273 279 258 280 261 287 283 281
204 201 210 212 214 212 212 213 211 216 205 212 207 209 212 217 215 214 220 222 225 236 249 245 252 260 272 276 278 287 291 292 298 294 298 294 296 299 305 307 295 299 299 301 301 297 305 301 304 304 308 296 304 303 299 301 306 305 303 300 303 306 310 310 305 305 307 302 301 300 297 299 305 287 288 274 268 257 254 249 246 243 241 245 240 246 241 239 240 247 248 246 239 239 242 240 242 240 243 233 245 240 235 242 237 236 247 245 239 249 242 254 248 270 232 260 264 242 242 273
195 201 202 202 203 203 209 207 200 206 210 198 209 205 208 206 206 209 212 210 217 230 242 238 243 252 256 261 266 267 273 271 274 275 275 281 282 283 285 289 279 287 284 288 286 281 283 290 287 284 286 280 281 285 283 286 290 284 285 291 287 292 285 291 286 290 286 285 283 285 281 283 278 272 268 260 255 247 245 238 233 233 231 230 232 218 229 224 228 229 230 235 229 228 224 227 229 229 227 228 226 234 229 235 227 220 234 234 246 240 241 230 232 244 250 254 242 238 231 244
169 177 192 191 183 194 201 199 190 176 179 180 180 185 184 187 183 189 189 192 212 211 217 229 232 230 237 240 242 247 256 255 255 254 263 255 254 261 266 265 263 260 267 266 262 258 267 269 267 266 265 269 264 263 267 265 266 269 264 274 271 266 266 271 262 269 271 270 267 261 266 262 258 254 250 244 238 233 221 221 219 221 220 216 216 220 216 213 219 221 218 216 219 212 214 210 217 208 213 218 227 219 213 214 211 210 213 215 219 220 219 227 229 215 219 216 224 213 213 230
177 173 175 176 176 177 179 182 179 182 184 175 181 175 177 185 183 182 181 183 188 190 189 199 213 222 225 220 227 233 232 246 240 245 239 242 239 244 243 245 242 244 245 248 249 253 246 246 245 251 246 248 247 248 242 243 248 244 249 250 250 244 250 249 240 248 248 250 243 248 243 244 239 238 236 234 220 217 214 199 197 191 186 197 192 192 193 213 199 187 193 192 190 184 185 191 186 188 192 194 204 206 206 191 184 186 202 202 202 203 208 203 197 205 199 196 202 204 196 200
166 170 168 174 174 177 174 173 176 178 176 175 176 174 173 183 179 180 183 187 185 188 185 195 208 193 212 215 219 225 225 225 223 226 233 230 230 233 232 229 227 227 233 236 233 236 229 229 233 231 237 234 236 231 232 233 235 237 236 236 231 236 237 233 231 234 235 229 234 238 231 235 226 225 216 220 197 197 188 193 196 196 195 195 192 195 183 194 191 192 190 181 191 188 190 184 189 190 184 179 186 179 178 178 182 180 185 177 179 180 174 202 192 205 207 206 206 176 197 206
161 161 170 166 169 168 168 168 170 163 168 164 164 161 169 171 172 174 174 182 178 182 190 191 184 182 189 187 207 207 214 213 210 216 213 215 213 201 211 212 216 223 218 217 214 225 220 217 217 221 216 219 217 218 217 220 220 218 219 221 217 222 220 218 217 217 217 217 220 216 219 213 215 210 192 191 198 194 192 189 185 181 188 183 183 181 182 184 177 184 186 179 181 183 179 181 179 178 178 180 184 183 180 180 172 177 181 177 174 179 179 181 177 194 169 174 169 181 174 199
149 155 163 157 158 160 155 162 164 164 158 162 160 162 162 162 162 167 163 178 171 174 180 181 179 190 183 186 182 186 181 191 184 184 187 190 186 190 194 191 192 195 191 194 198 194 196 192 195 193 196 191 195 195 197 190 194 193 193 192 200 196 195 188 195 196 197 195 195 194 200 199 192 195 195 195 194 188 184 179 176 182 172 175 170 172 177 175 177 176 174 173 174 174 175 175 172 169 171 174 168 171 167 170 175 170 168 164 171 172 173 172 178 176 176 171 178 188 175 170
147 151 151 156 157 156 157 158 156 162 154 156 156 153 157 155 158 165 159 165 167 164 176 175 179 182 178 184 182 187 189 186 189 188 188 187 194 195 191 196 194 192 192 196 194 198 195 199 196 194 193 198 194 195 199 194 198 194 197 197 198 199 201 199 194 194 196 197 197 196 197 196 190 194 187 184 186 185 179 175 171 169 168 164 167 170 172 167 171 169 168 174 171 167 170 164 164 167 165 170 166 168 171 168 165 158 164 165 172 165 166 164 178 177 175 166 162 174 170 165
145 143 146 143 148 147 145 150 153 152 151 152 150 154 148 149 153 152 156 158 158 163 164 173 171 177 171 175 176 180 173 177 182 179 178 183 181 179 184 181 187 181 187 188 181 184 184 186 187 184 183 188 187 189 190 186 188 189 0 189 188 186 185 186 190 189 187 187 186 186 185 185 181 178 177 177 175 175 172 162 161 157 161 160 160 160 162 160 166 162 157 161 163 163 159 159 152 155 163 160 159 166 160 158 155 160 155 154 160 160 156 164 162 157 153 175 159 160 159 172
138 140 141 144 144 150 148 145 144 146 147 146 141 146 143 147 143 149 149 152 159 162 161 168 170 170 169 168 171 171 170 169 176 175 172 173 174 172 172 175 177 179 179 178 176 179 177 180 176 180 179 180 184 182 184 181 180 0 0 178 178 179 179 182 180 177 181 181 180 175 176 180 176 175 174 173 166 167 163 161 162 158 156 156 158 155 156 159 155 155 151 157 158 157 151 156 157 154 155 159 155 153 153 156 151 145 150 152 166 159 154 151 153 148 156 158 163 157 164 167
138 130 131 139 144 143 151 143 140 138 140 143 141 144 143 138 143 147 145 147 146 150 155 158 160 159 162 162 166 166 163 164 167 167 165 166 164 169 167 172 171 0 173 0 173 174 172 171 172 169 173 171 171 173 173 0 173 172 0 176 172 0 176 172 172 167 175 170 172 171 169 165 168 169 164 162 162 157 157 151 148 154 152 150 154 151 151 146 150 154 145 150 152 149 147 147 151 152 154 148 144 144 148 143 145 141 142 144 145 148 142 146 148 156 151 151 142 158 152 166
131 122 128 125 130 136 141 137 132 121 134 134 134 125 137 134 136 136 135 143 137 145 148 152 148 158 159 156 156 161 159 156 155 160 157 153 161 161 0 0 0 0 0 0 0 0 165 164 166 164 167 166 166 166 0 0 171 167 171 0 0 0 0 0 166 167 167 0 160 164 164 163 162 159 153 153 154 156 148 149 147 146 145 148 144 148 142 143 145 145 142 144 142 145 144 139 142 145 140 144 141 139 141 135 137 133 137 132 135 135 141 145 147 150 148 147 139 136 137 140
115 127 123 117 128 133 135 134 141 132 127 135 124 128 134 128 131 136 137 135 143 139 145 147 149 151 155 154 156 156 155 153 159 158 156 151 155 0 0 0 0 0 0 0 0 0 0 0 0 162 165 160 0 0 0 0 0 0 0 0 0 0 0 0 163 158 0 0 0 0 0 157 162 153 153 150 150 151 149 145 141 131 144 143 141 140 141 139 145 141 136 138 138 143 137 135 143 143 137 138 140 135 137 134 128 132 135 133 140 145 136 150 139 142 138 140 139 128 134 146
114 105 114 122 126 125 127 120 130 128 124 119 122 112 117 130 123 123 132 134 125 124 133 139 140 141 145 147 144 149 149 147 151 151 149 148 0 0 0 0 0 0 0 0 0 0 0 0 151 152 154 0 0 0 0 0 0 0 0 0 0 0 0 0 0 0 0 0 0 0 0 0 148 147 150 146 145 141 140 142 129 138 126 127 126 128 136 128 129 131 139 129 129 136 118 129 131 135 135 125 130 136 134 130 135 132 131 131 131 139 135 140 136 141 143 132 136 127 112 114
103 109 110 110 109 114 120 120 116 126 119 113 117 118 130 123 122 121 115 119 132 122 127 123 136 140 138 143 143 145 144 142 142 145 146 141 0 0 0 0 0 0 0 0 0 0 0 0 0 0 0 0 0 0 0 0 0 0 0 0 0 0 0 0 0 0 0 0 0 0 0 0 143 143 140 140 140 129 128 130 127 120 121 120 125 119 126 128 126 130 125 124 115 128 123 134 126 134 121 118 117 129 130 117 128 122 114 123 132 132 132 136 125 131 126 131 110 103 120 108
110 109 113 117 115 111 117 117 119 117 117 118 114 116 118 123 118 127 121 116 117 117 122 116 136 136 137 137 0 134 0 0 0 0 140 0 0 0 0 0 0 0 0 0 0 0 0 0 0 0 0 0 0 0 0 0 0 0 0 0 0 0 0 0 0 0 0 0 0 0 0 0 0 141 136 126 125 126 117 127 122 116 122 125 119 118 116 118 120 120 116 125 115 118 112 120 118 119 120 122 115 124 130 120 116 111 117 131 111 136 127 111 126 121 131 127 112 133 139 152
100 100 105 110 104 101 105 106 104 100 110 103 107 105 104 110 110 111 117 110 114 117 108 115 119 120 123 119 118 135 0 0 0 0 0 0 0 0 0 0 0 0 0 0 0 0 0 0 0 0 0 0 0 0 0 0 0 0 0 0 0 0 0 0 0 0 0 0 0 0 0 0 132 0 0 123 118 118 122 112 116 115 110 117 109 117 111 115 111 113 114 115 110 109 110 106 112 115 112 112 111 111 109 114 110 114 107 112 106 107 102 104 100 114 112 98 121 119 117 128
101 99 93 97 102 104 103 104 104 102 102 104 105 109 108 102 103 110 115 109 110 109 110 106 118 110 114 119 123 120 0 127 0 0 0 0 0 0 0 0 0 0 0 0 0 0 0 0 0 0 0 0 0 0 0 0 0 0 0 0 0 0 0 0 0 0 0 0 0 0 0 0 0 124 0 116 120 114 114 113 109 114 109 102 112 109 112 116 106 110 117 113 111 111 106 119 105 107 100 119 114 105 113 105 108 116 106 113 114 120 111 100 113 101 108 136 128 107 121 142
99 102 98 103 97 98 103 92 96 102 98 98 102 95 99 92 102 103 113 115 112 107 96 109 114 106 115 116 115 122 120 122 124 0 0 0 0 0 0 0 0 0 0 0 0 0 0 0 0 0 0 0 0 0 0 0 0 0 0 0 0 0 0 0 0 0 0 0 0 0 0 0 126 121 110 123 113 113 117 120 105 115 101 117 108 107 103 102 106 107 104 104 113 92 102 102 105 104 110 105 109 112 111 105 103 108 105 93 106 103 102 105 102 102 121 101 137 129 129 124
87 83 81 84 83 84 84 96 89 83 90 91 96 89 94 88 78 95 93 85 92 86 102 107 101 101 116 107 0 0 106 105 117 0 0 0 0 0 0 0 0 0 0 0 0 0 0 0 0 0 0 0 0 0 0 0 0 0 0 0 0 0 0 0 0 0 0 0 0 0 0 115 112 109 108 112 108 103 100 100 101 104 97 89 100 93 86 99 106 97 90 97 104 84 84 95 95 98 86 90 92 95 94 91 84 86 91 91 91 83 88 85 79 90 94 86 85 82 103 115
94 84 87 86 97 98 95 105 92 94 94 94 91 92 95 95 99 91 103 95 98 102 111 102 103 105 111 108 0 105 110 109 117 112 120 106 0 0 111 0 0 119 0 0 0 0 0 0 0 0 0 0 0 0 0 0 0 0 0 0 0 0 0 0 114 0 0 0 107 0 105 110 117 113 116 109 108 113 100 97 109 104 103 91 98 100 107 105 101 104 106 105 111 100 98 104 101 97 100 113 98 101 95 100 97 99 101 91 88 87 93 93 87 97 98 93 126 124 133 151
86 89 89 89 98 94 90 92 82 95 88 90 86 94 88 81 95 96 97 94 100 89 97 112 90 102 104 102 101 107 93 103 106 101 98 107 0 113 116 0 109 0 0 0 0 0 0 0 0 0 0 0 0 0 108 0 0 109 0 0 109 105 105 107 113 112 103 102 113 111 109 99 105 98 112 109 100 91 103 95 95 93 100 83 97 89 94 102 106 95 97 104 109 88 85 85 89 92 96 90 94 85 96 97 90 88 103 90 95 91 88 94 80 87 88 86 107 87 134 103
84 85 82 90 91 94 101 87 89 83 87 88 85 93 88 88 87 87 93 91 79 94 97 84 85 96 93 91 105 90 95 101 99 97 92 108 100 102 103 104 107 98 98 108 107 92 0 0 95 0 0 105 106 93 99 108 107 103 107 104 100 104 112 103 104 109 103 97 96 107 95 104 105 97 106 95 91 92 100 90 92 90 93 96 96 90 89 91 95 93 100 89 92 92 94 91 86 85 89 82 88 88 87 92 90 80 93 87 85 93 83 93 91 106 94 88 103 107 128 88
84 78 87 82 83 88 99 99 89 83 87 87 82 84 86 93 89 92 89 96 85 96 92 93 91 94 95 87 93 101 95 86 96 93 99 97 100 98 94 107 100 96 97 107 101 98 103 0 102 102 95 105 97 99 105 105 101 106 98 107 106 97 95 103 106 101 98 101 96 104 101 103 100 93 106 88 93 100 90 87 99 98 86 93 95 96 89 86 97 90 95 102 85 90 83 80 96 99 99 88 90 101 82 90 92 98 90 97 90 89 89 99 106 99 101 119 112 101 125 125
82 74 70 68 79 83 85 88 85 80 89 82 87 79 91 82 85 88 85 87 92 87 92 87 87 85 92 92 85 91 91 95 81 95 95 86 96 85 92 95 89 89 96 89 97 94 89 99 96 90 91 98 98 89 89 82 103 84 98 97 97 97 80 97 98 83 98 93 95 97 92 84 94 94 87 96 95 93 96 93 84 93 82 87 80 91 86 86 87 90 89 80 90 80 86 86 84 75 80 87 84 88 82 71 81 82 82 84 80 77 78 83 89 85 73 100 113 112 94 63
76 69 82 87 72 84 81 89 85 81 84 90 81 83 86 90 86 88 82 87 84 92 84 93 88 94 94 87 93 91 88 96 93 98 87 92 86 94 88 94 94 83 95 86 89 97 91 98 104 93 91 86 90 89 103 98 93 84 92 98 99 86 92 94 90 96 92 95 106 95 84 94 87 82 94 97 97 84 96 96 94 90 89 91 77 89 91 81 98 94 79 91 79 81 93 84 91 91 81 84 82 81 81 80 76 82 85 86 69 102 91 94 87 116 127 102 104 124 148 213
