0 0 0 0 0 0 0 0 0 0 0 0 0 0 0 0 0 0 0 0 0 0 0 0 0 0 0 0 0 0 0 0 0 0 0 0 0 0 0 0 0 0 0 0 0 0 0 0 0 0 0 0 0 0 0 0 0 0 0 0 0 0 0 0 0 0 0 0 0 0 0 0 0 0 0 0 0 0 0 0 0 0 0 0 0 0 0 0 0 0 0 0 0 0 0 0 0 0 0 0 0 0 0 0 0 0 0 0 0 0 0 0 0 0 0 0 0 0 0 0
0 0 0 0 0 0 0 0 0 0 0 0 0 0 0 0 0 0 0 0 0 0 0 0 0 0 0 0 0 0 0 0 0 0 0 0 0 0 0 0 0 0 0 0 0 0 0 0 0 0 0 0 0 0 0 0 0 0 0 0 0 0 0 0 0 0 0 0 0 0 0 0 0 0 0 0 0 0 0 0 0 0 0 0 0 0 0 0 0 0 0 0 0 0 0 0 0 0 0 0 0 0 0 0 0 0 0 0 0 0 0 0 0 0 0 0 0 0 0 0
0 0 0 0 0 0 0 0 0 0 0 0 0 0 0 0 0 0 0 0 0 0 0 0 0 0 0 0 0 0 0 0 0 0 0 0 0 0 0 0 0 0 0 0 0 0 0 0 0 0 0 0 0 0 0 0 0 0 0 0 0 0 0 0 0 0 0 0 0 0 0 0 0 0 0 0 0 0 0 0 0 0 0 0 0 0 0 0 0 0 0 0 0 0 0 0 0 0 0 0 0 0 0 0 0 0 0 0 0 0 0 0 0 0 0 0 0 0 0 0
0 0 0 0 0 0 0 0 0 0 0 0 0 0 0 0 0 0 0 0 0 0 0 0 0 0 0 0 0 0 0 0 0 0 0 0 0 0 0 0 0 0 0 0 0 0 0 0 0 0 0 0 0 0 0 0 0 0 0 0 0 0 0 0 0 0 0 0 0 0 0 0 0 0 0 0 0 0 0 0 0 0 0 0 0 0 0 0 0 0 0 0 0 0 0 0 0 0 0 0 0 0 0 0 0 0 0 0 0 0 0 0 0 0 0 0 0 0 0 0
0 0 0 0 0 0 0 0 0 0 0 0 0 0 0 0 0 0 0 0 0 0 0 0 0 0 0 0 0 0 0 0 0 0 0 0 0 0 0 0 0 0 0 0 0 0 0 0 0 0 0 0 0 0 0 0 0 0 0 0 0 0 0 0 0 0 0 0 0 0 0 0 0 0 0 0 0 0 0 0 0 0 0 0 0 0 0 0 0 0 0 0 0 0 0 0 0 0 0 0 0 0 0 0 0 0 0 0 0 0 0 0 0 0 0 0 0 0 0 0
0 0 0 0 0 0 0 0 0 0 0 0 0 0 0 0 0 0 0 0 0 0 0 0 0 0 0 0 0 0 0 0 0 0 0 0 0 0 0 519 487 496 499 516 515 505 505 518 485 517 490 510 512 505 512 0 0 0 0 0 0 0 0 0 0 0 0 0 0 0 0 0 0 0 0 0 0 0 0 0 0 0 0 0 0 0 0 0 0 0 0 0 0 0 0 0 0 0 0 0 0 0 0 0 0 0 0 0 0 0 0 0 0 0 0 0 0 0 0 0
0 0 0 0 0 0 0 0 0 0 0 0 0 0 0 0 0 0 0 0 0 0 0 0 0 0 0 0 0 0 0 0 0 0 0 0 0 462 498 518 489 484 490 500 496 503 504 505 508 514 503 503 510 491 496 502 481 476 493 477 0 0 0 0 0 0 0 0 0 0 0 0 0 0 0 0 0 0 0 0 0 0 0 0 0 0 0 0 0 0 0 0 0 0 0 0 0 0 0 0 0 0 0 0 0 0 0 0 0 0 0 0 0 0 0 0 0 0 0 0
0 0 0 0 0 0 0 0 0 0 0 0 0 0 0 0 0 0 0 0 0 0 0 0 0 0 0 0 0 0 0 0 0 0 0 518 498 519 500 485 499 498 499 517 502 509 512 517 511 493 512 505 502 509 518 518 516 520 512 509 517 531 529 495 515 0 0 0 0 0 0 0 0 0 0 0 0 0 0 0 0 0 0 0 0 0 0 0 0 0 0 0 0 0 0 0 0 0 0 0 0 0 0 0 0 0 0 0 0 0 0 0 0 0 0 0 0 0 0 0
0 0 0 0 0 0 0 0 0 0 0 0 0 0 0 0 0 0 0 0 0 0 0 0 0 0 0 0 0 0 0 0 0 508 491 492 506 518 500 509 512 498 509 512 512 511 516 503 503 519 508 506 518 509 513 519 512 518 510 503 512 514 510 521 514 530 537 593 560 606 628 659 616 0 602 597 613 641 0 595 0 0 0 0 0 0 0 0 0 0 0 0 0 0 0 0 0 0 0 0 0 0 0 0 0 0 0 0 0 0 0 0 0 0 0 0 0 0 0 0
0 0 0 0 0 0 0 0 0 0 0 0 0 0 0 0 0 0 0 0 0 0 0 0 0 0 0 0 0 0 0 511 516 501 481 488 499 498 498 495 494 501 496 491 499 496 500 504 506 498 507 510 509 510 498 507 513 498 502 507 500 501 502 516 493 511 508 527 504 514 558 576 542 584 545 563 577 546 561 552 559 564 589 574 0 0 542 576 539 568 566 582 567 556 645 567 600 622 552 535 0 549 532 594 0 597 0 0 0 0 0 0 0 0 0 0 0 0 0 0
0 0 0 0 0 0 0 0 0 0 0 0 0 0 0 0 0 0 0 0 0 0 0 0 0 0 0 0 0 0 531 512 524 500 499 496 506 500 509 510 502 503 497 499 503 512 518 506 504 514 513 517 508 504 505 521 511 513 507 511 508 507 514 516 515 520 518 513 529 527 566 590 554 589 592 598 617 579 626 584 601 594 601 606 569 563 598 639 553 613 593 615 605 567 573 610 635 600 605 585 632 599 585 568 591 604 590 587 587 0 0 0 0 0 0 0 0 0 0 0
0 0 0 0 0 0 0 0 0 0 0 0 0 0 0 0 0 0 0 0 0 0 0 0 0 0 0 0 483 490 489 484 488 505 506 489 495 495 489 502 501 500 498 495 490 514 507 505 508 502 509 504 491 505 507 503 508 498 507 503 506 500 507 503 507 504 508 507 513 503 511 538 521 568 567 543 542 552 582 565 539 584 598 530 503 551 572 531 577 572 587 537 553 575 553 520 599 577 566 568 528 602 509 579 586 551 564 534 0 0 0 0 0 0 0 0 0 0 0 0
0 0 0 0 0 0 0 0 0 0 0 0 0 0 0 0 0 0 0 0 0 0 0 0 0 0 0 468 498 493 492 486 492 498 500 488 486 494 510 498 497 501 497 498 494 499 504 503 497 504 505 505 501 500 509 501 496 512 501 508 509 501 510 509 507 495 507 505 510 511 506 514 542 512 525 521 528 510 502 524 503 507 529 518 479 534 533 502 468 528 546 507 492 564 518 518 508 515 578 525 502 542 499 510 570 506 555 492 484 0 0 0 0 0 0 0 0 0 0 0
0 0 0 0 0 0 0 0 0 0 0 0 0 0 0 0 0 0 0 0 0 0 0 0 0 0 506 504 497 497 498 500 493 500 497 492 504 496 510 509 495 504 506 514 501 503 503 508 509 503 508 512 509 507 508 506 504 511 515 508 508 506 514 507 505 508 510 507 507 513 509 513 537 555 553 561 593 552 534 615 596 588 550 556 551 512 571 567 575 534 566 538 565 570 562 558 556 582 559 582 591 557 586 579 563 536 562 543 563 608 0 0 0 0 0 0 0 0 0 0
0 0 0 0 0 0 0 0 0 0 0 0 0 0 0 0 0 0 0 0 0 0 0 0 0 452 491 486 500 500 491 493 498 490 484 487 496 488 497 492 498 493 502 508 505 495 502 505 503 500 496 502 500 500 495 505 500 498 500 504 503 490 501 508 501 500 500 502 508 509 502 513 517 534 505 500 500 527 534 521 514 544 510 500 502 502 526 535 500 500 538 556 497 500 529 544 543 508 533 514 509 533 498 496 527 517 515 541 478 484 494 0 0 0 0 0 0 0 0 0
0 0 0 0 0 0 0 0 0 0 0 0 0 0 0 0 0 0 0 0 0 0 0 0 0 495 504 484 496 496 494 499 496 504 491 503 494 501 489 502 501 502 508 503 502 500 502 510 495 503 497 505 506 508 499 504 513 503 503 512 505 506 510 507 506 518 511 518 501 508 513 521 510 519 538 565 526 558 552 517 524 538 532 545 534 541 541 558 559 556 559 559 521 537 540 557 535 573 530 551 572 537 512 534 544 553 525 519 568 555 0 0 537 603 0 0 0 0 0 0
0 0 0 0 0 0 0 0 0 0 0 0 0 0 0 0 0 0 0 0 0 0 0 0 524 497 500 495 497 497 506 511 499 501 501 498 496 490 506 500 506 506 498 505 503 508 493 503 501 510 502 512 508 511 504 513 504 509 504 505 512 505 501 514 513 507 513 503 510 510 507 503 518 515 536 544 567 550 552 577 568 555 556 556 547 568 556 547 531 545 539 559 588 580 551 571 562 555 569 583 578 585 611 574 579 558 589 570 583 575 0 0 0 0 0 0 0 0 0 0
0 0 0 0 0 0 0 0 0 0 0 0 0 0 0 0 0 0 0 0 0 0 0 0 496 485 491 487 492 489 495 487 491 496 489 493 499 492 491 493 494 491 500 493 499 501 487 498 507 500 505 504 509 501 502 509 504 506 502 502 501 504 507 508 507 509 503 503 503 509 506 505 511 499 524 522 531 518 516 532 531 545 545 511 552 534 527 538 547 557 551 523 544 526 582 542 535 546 556 546 515 565 530 496 557 524 554 547 536 541 0 0 0 0 0 0 0 0 0 0
0 0 0 0 0 0 0 0 0 0 0 0 0 0 0 0 0 0 0 0 0 0 0 510 506 501 496 501 495 499 507 501 502 498 508 497 502 499 504 495 503 494 509 501 496 514 506 504 502 508 508 504 506 507 511 503 508 506 499 503 508 494 510 503 503 503 512 503 506 509 510 508 520 515 512 524 559 567 567 565 552 555 563 583 553 572 574 579 565 548 550 567 566 548 564 518 560 583 562 548 550 558 542 541 575 564 576 600 580 598 513 0 0 0 0 0 0 0 0 0
0 0 0 0 0 0 0 0 0 0 0 0 0 0 0 0 0 0 0 0 0 0 0 496 488 491 496 486 493 490 498 495 500 497 492 493 491 495 507 494 488 494 502 494 497 499 494 495 493 508 493 504 500 499 507 505 508 513 505 504 499 503 503 500 508 500 498 511 502 507 510 514 508 510 508 514 532 529 527 526 525 524 520 508 523 526 530 529 545 535 540 524 509 552 523 490 504 522 514 550 519 555 543 543 539 546 517 526 537 500 493 0 0 0 0 0 0 0 0 0
0 0 0 0 0 0 0 0 0 0 0 0 0 0 0 0 0 0 0 0 0 0 434 483 492 488 491 500 483 489 493 496 492 495 485 496 493 486 488 495 495 502 498 498 491 490 501 497 496 503 492 498 503 497 506 506 505 501 506 494 499 505 494 502 499 506 496 500 504 503 505 512 507 503 504 493 519 517 515 531 513 489 519 510 489 496 515 500 480 500 502 504 488 491 525 515 508 524 517 507 484 519 492 497 487 503 496 504 509 489 516 516 483 0 0 0 0 0 0 0
0 0 0 0 0 0 0 0 0 0 0 0 0 0 0 0 0 0 0 0 0 0 490 497 490 482 483 499 497 495 484 491 497 489 496 498 491 491 501 492 496 498 493 502 503 502 509 497 500 500 495 509 506 503 499 504 502 504 503 509 511 508 497 519 499 512 515 514 518 511 511 514 519 508 510 503 516 528 550 512 553 484 540 515 526 514 516 528 536 566 538 524 511 509 538 551 518 532 534 532 551 551 532 568 540 542 547 536 526 579 531 547 0 0 0 0 0 0 0 0
0 0 0 0 0 0 0 0 0 0 0 0 0 0 0 0 0 0 0 0 0 0 479 475 489 484 488 491 487 493 487 487 483 492 491 484 484 495 495 492 497 493 495 490 491 501 491 496 494 497 501 497 495 492 497 498 499 509 501 496 512 509 507 503 495 498 501 500 497 505 504 505 508 508 518 507 501 498 523 489 504 510 486 499 492 535 467 486 492 494 485 508 513 492 485 504 529 489 506 495 482 479 531 531 467 513 505 527 477 533 481 456 473 0 0 0 0 0 0 0
0 0 0 0 0 0 0 0 0 0 0 0 0 0 0 0 0 0 0 0 0 0 490 492 489 493 491 504 488 498 489 491 489 493 490 485 488 493 497 491 490 491 495 495 495 496 501 497 498 500 501 508 502 502 504 501 508 501 502 510 501 506 508 507 504 503 504 505 509 507 506 503 499 508 502 521 506 514 535 534 512 524 545 506 514 542 525 534 527 531 520 539 537 533 546 556 557 548 545 528 528 550 534 543 542 530 513 550 563 488 521 526 497 538 0 0 0 0 0 0
0 0 0 0 0 0 0 0 0 0 0 0 0 0 0 0 0 0 0 0 0 0 474 491 482 490 485 492 490 492 496 494 494 492 491 487 490 495 497 493 500 492 504 500 498 494 492 496 499 499 506 502 501 498 501 513 503 503 502 497 502 505 502 508 505 507 505 505 507 506 514 504 511 500 510 502 511 532 524 518 500 527 515 508 537 528 516 518 514 518 554 532 526 552 540 516 537 533 533 531 501 524 570 552 523 532 545 525 545 534 528 536 535 0 0 0 0 0 0 0
0 0 0 0 0 0 0 0 0 0 0 0 0 0 0 0 0 0 0 0 0 0 485 474 490 489 489 489 488 485 497 483 487 490 497 488 497 488 492 498 495 500 493 497 492 491 494 498 493 497 503 494 500 500 497 498 499 498 502 496 501 496 507 504 508 491 503 504 500 496 500 505 498 505 498 502 511 509 496 514 521 501 511 505 531 516 532 490 505 516 527 501 508 496 504 534 517 517 503 540 531 519 541 535 511 483 532 508 0 0 570 499 540 516 0 0 0 0 0 0
0 0 0 0 0 0 0 0 0 0 0 0 0 0 0 0 0 0 0 0 0 470 490 489 492 492 490 495 496 485 487 495 486 496 503 486 503 496 495 498 491 501 498 497 495 500 501 495 496 494 497 504 496 501 501 503 501 501 514 501 503 505 502 505 506 503 505 507 502 510 504 505 512 513 508 511 515 517 523 521 531 518 533 522 535 519 532 531 532 541 534 532 536 557 555 549 538 517 546 572 553 577 567 540 565 552 522 538 548 520 556 0 0 0 0 0 0 0 0 0
0 0 0 0 0 0 0 0 0 0 0 0 0 0 0 0 0 0 0 0 0 464 480 479 483 479 480 479 481 483 481 484 490 492 486 491 488 486 488 496 496 493 486 498 495 494 493 494 498 497 499 500 498 499 500 502 501 502 502 506 500 499 497 499 498 510 504 501 497 499 510 504 504 506 507 500 496 497 509 511 505 510 526 507 511 532 514 521 532 491 518 487 525 519 524 541 498 488 510 506 511 541 514 540 480 534 539 499 493 490 501 462 0 0 0 0 0 0 0 0
0 0 0 0 0 0 0 0 0 0 0 0 0 0 0 0 0 0 0 0 0 439 473 480 487 472 480 490 482 480 492 479 487 485 489 493 487 483 489 489 491 489 492 491 496 493 495 498 491 497 496 493 493 495 496 502 498 500 500 498 505 498 504 506 502 500 505 513 503 497 500 497 505 510 503 494 498 507 507 491 506 504 487 492 494 486 497 505 484 485 487 513 487 466 469 514 472 519 505 497 486 532 501 490 500 476 496 459 478 474 480 463 496 0 0 0 0 0 0 0
0 0 0 0 0 0 0 0 0 0 0 0 0 0 0 0 0 0 0 0 0 474 480 477 483 485 478 479 488 485 482 489 484 493 484 488 486 489 493 492 494 490 494 495 496 498 494 499 496 496 495 503 498 502 500 498 496 499 500 501 497 500 503 501 505 498 504 505 498 499 501 503 503 504 506 505 506 493 532 502 533 514 520 510 500 513 499 528 504 524 511 494 499 534 510 523 522 517 505 528 513 513 492 543 487 521 521 500 517 521 514 505 500 0 0 0 0 0 0 0
0 0 0 0 0 0 0 0 0 0 0 0 0 0 0 0 0 0 0 0 0 438 482 479 478 481 474 484 481 475 485 480 480 488 488 480 484 486 486 489 485 491 489 494 490 492 490 492 492 494 494 498 493 500 495 497 491 493 495 494 501 501 498 495 501 501 497 504 502 500 500 503 499 504 504 499 495 493 492 500 483 487 482 493 495 492 483 485 487 486 483 491 506 477 482 508 505 483 506 496 520 474 514 505 508 500 506 473 470 472 470 449 409 0 0 0 0 0 0 0
0 0 0 0 0 0 0 0 0 0 0 0 0 0 0 0 0 0 0 0 0 462 483 488 486 477 480 483 482 487 490 486 485 486 487 484 483 491 489 490 491 490 494 493 496 492 494 495 494 497 494 494 498 502 492 499 495 494 495 498 499 499 499 504 501 501 502 506 494 503 505 504 503 508 499 504 505 503 512 493 505 511 509 518 524 502 521 502 507 527 502 521 505 486 505 496 508 511 505 548 506 522 499 495 506 505 517 512 541 496 487 503 524 541 0 0 0 0 0 0
0 0 0 0 0 0 0 0 0 0 0 0 0 0 0 0 0 0 0 0 0 473 484 486 478 478 479 482 489 479 491 482 489 483 486 490 484 489 492 491 499 490 493 491 496 494 495 496 491 499 499 497 496 500 497 500 500 493 505 492 497 499 502 504 502 496 498 503 502 498 505 500 500 499 497 500 501 501 505 513 515 498 506 525 515 521 519 508 503 519 514 499 510 501 524 524 553 509 536 552 519 528 543 526 520 535 543 543 530 530 566 560 583 543 0 0 0 0 0 0
0 0 0 0 0 0 0 0 0 0 0 0 0 0 0 0 0 0 0 0 0 445 476 468 471 470 474 477 477 478 479 485 483 486 486 485 486 477 486 496 490 487 488 489 491 491 492 495 490 493 491 494 496 494 495 498 494 496 492 495 498 499 498 501 498 497 500 496 493 502 502 496 496 498 500 494 496 490 497 510 497 502 503 500 506 512 489 508 493 492 498 499 492 490 492 483 466 515 481 507 493 482 482 487 521 488 471 493 507 525 482 510 457 0 0 0 0 0 0 0
0 0 0 0 0 0 0 0 0 0 0 0 0 0 0 0 0 0 0 0 0 455 477 475 478 475 476 487 481 482 488 485 486 484 482 487 482 487 487 490 492 484 490 495 492 493 490 495 496 497 496 500 497 498 498 496 496 495 495 497 500 503 503 500 503 499 496 499 497 503 496 502 500 506 510 499 499 504 499 516 498 507 525 513 515 505 515 538 532 518 512 521 514 529 514 504 503 497 494 526 512 539 541 513 540 516 528 548 501 550 501 499 570 518 0 0 0 0 0 0
0 0 0 0 0 0 0 0 0 0 0 0 0 0 0 0 0 0 0 0 0 467 477 472 472 474 477 477 479 477 476 480 484 481 481 479 487 487 486 482 488 487 487 490 487 490 490 490 489 493 494 492 493 494 501 496 489 494 494 496 496 496 499 505 497 498 500 502 499 497 499 496 494 497 497 498 496 503 500 510 522 503 493 483 496 507 506 505 519 507 505 503 516 516 502 470 511 494 517 497 505 511 506 505 503 474 524 515 519 506 499 534 473 463 0 0 0 0 0 0
0 0 0 0 0 0 0 0 0 0 0 0 0 0 0 0 0 0 0 0 0 486 478 467 476 473 478 477 483 477 475 479 480 484 485 482 480 481 479 487 486 490 491 487 485 491 489 489 488 491 491 501 497 496 492 496 489 490 494 492 497 497 491 503 497 500 498 500 493 496 496 490 496 497 498 495 497 495 494 490 487 481 492 484 477 500 480 479 492 478 489 496 459 476 480 494 467 500 484 510 471 463 470 446 477 473 473 460 467 448 431 451 449 430 0 0 0 0 0 0
0 0 0 0 0 0 0 0 0 0 0 0 0 0 0 0 0 0 0 0 0 0 478 479 477 480 480 475 481 478 483 480 487 481 485 481 485 485 491 486 485 486 489 488 492 493 492 490 493 491 494 495 493 493 499 495 494 500 495 493 502 501 503 497 499 504 495 495 492 498 497 496 501 498 498 501 493 496 491 489 509 505 504 518 485 500 522 499 510 513 510 506 501 507 536 515 526 530 540 526 493 525 515 535 523 526 524 508 500 521 510 509 519 543 483 0 0 0 0 0
0 0 0 0 0 0 0 0 0 0 0 0 0 0 0 0 0 0 0 0 0 0 473 475 465 475 476 478 475 477 474 479 480 482 480 480 479 486 484 483 484 485 484 480 489 487 491 491 489 487 487 489 490 492 490 493 497 495 490 492 495 490 494 498 497 493 498 497 495 493 495 496 498 494 494 495 495 486 497 498 486 495 484 467 492 481 485 489 491 491 482 484 476 529 498 485 501 467 472 466 465 475 484 482 495 490 475 473 450 482 444 453 428 0 0 0 0 0 0 0
0 0 0 0 0 0 0 0 0 0 0 0 0 0 0 0 0 0 0 0 0 0 509 481 466 477 480 475 475 477 477 479 478 484 483 486 483 486 482 489 488 484 487 490 487 488 490 486 486 494 492 494 492 494 498 495 494 490 496 496 494 493 493 498 502 495 499 499 493 496 493 494 493 498 493 498 498 512 493 498 501 506 502 514 498 520 520 494 515 519 536 511 530 518 512 512 517 508 520 509 510 493 512 494 504 495 504 515 490 541 505 529 541 474 539 542 0 0 0 0
0 0 0 0 0 0 0 0 0 0 0 0 0 0 0 0 0 0 0 0 0 0 630 470 479 474 477 471 479 478 475 487 478 480 481 487 481 483 483 486 484 488 487 490 489 488 490 487 495 489 490 495 499 492 494 493 496 498 492 494 494 496 501 497 500 498 501 500 498 497 492 496 498 498 501 496 498 498 507 519 503 523 507 538 521 519 520 533 520 549 523 532 558 550 523 561 537 514 512 509 518 505 521 497 528 486 535 512 521 532 508 525 536 465 537 492 0 0 0 0
0 0 0 0 0 0 0 0 0 0 0 0 0 0 0 0 0 0 0 0 0 0 0 478 463 473 478 475 467 477 472 482 480 482 479 479 481 478 478 483 486 487 484 489 486 481 488 490 489 486 490 488 490 493 492 493 491 496 495 496 493 496 489 490 496 497 491 504 500 494 495 493 496 496 489 491 490 484 478 471 497 505 482 487 493 488 492 500 491 484 504 502 509 513 492 501 484 506 512 510 497 517 505 482 462 483 447 473 472 519 485 491 501 0 0 0 0 0 0 0
0 0 0 0 0 0 0 0 0 0 0 0 0 0 0 0 0 0 0 0 0 0 0 487 479 477 480 474 467 480 472 479 475 477 485 479 483 481 483 483 482 483 493 485 490 487 491 490 488 490 491 491 490 492 497 494 497 491 492 494 492 494 497 495 494 496 498 501 501 492 496 492 496 494 494 493 487 498 503 510 508 515 507 505 497 510 512 507 505 510 500 525 503 535 535 526 497 558 527 505 536 551 520 536 504 538 508 516 514 488 501 518 526 547 0 0 0 0 0 0
0 0 0 0 0 0 0 0 0 0 0 0 0 0 0 0 0 0 0 0 0 0 0 493 472 472 471 468 475 473 471 475 480 478 477 479 480 482 481 483 486 483 487 487 486 486 494 486 489 484 490 487 491 489 498 490 493 492 489 492 501 492 495 497 498 497 491 494 494 499 499 494 492 495 495 495 483 492 504 512 495 511 508 522 497 505 505 496 508 489 497 523 503 499 517 506 496 476 506 524 516 510 493 467 508 467 494 478 506 464 478 468 439 479 508 0 0 0 0 0
0 0 0 0 0 0 0 0 0 0 0 0 0 0 0 0 0 0 0 0 0 0 0 0 470 471 464 469 473 476 476 470 472 476 478 471 476 480 479 482 478 484 483 488 488 484 488 487 490 484 489 486 490 490 491 492 490 493 489 495 496 496 490 494 497 491 493 493 492 490 498 495 492 497 490 487 493 502 494 499 476 485 484 501 491 497 485 485 505 493 500 482 503 491 508 481 498 495 489 498 480 492 486 470 478 459 480 479 474 472 450 442 457 455 442 456 0 0 0 0
0 0 0 0 0 0 0 0 0 0 0 0 0 0 0 0 0 0 0 0 0 0 0 0 513 475 471 472 472 473 479 474 479 475 479 478 485 477 482 482 490 485 482 487 486 482 488 489 487 488 493 493 491 492 493 490 496 494 497 491 490 493 498 493 495 493 498 495 493 496 498 498 493 496 500 491 496 491 493 501 508 526 489 497 510 524 515 510 500 502 517 486 518 501 535 483 533 513 522 483 531 488 511 508 476 473 476 490 495 478 496 512 460 472 546 495 0 0 0 0
0 0 0 0 0 0 0 0 0 0 0 0 0 0 0 0 0 0 0 0 0 0 0 0 0 473 468 467 467 469 471 472 473 471 473 472 472 477 481 483 479 476 481 484 482 485 489 479 483 483 487 482 488 490 487 490 488 492 488 491 493 491 492 488 491 494 490 497 491 491 491 483 493 490 491 492 484 477 484 484 478 486 485 487 473 489 484 483 491 493 476 482 479 473 495 483 490 478 466 474 492 492 462 464 467 481 442 449 460 459 434 461 446 420 0 0 0 0 0 0
0 0 0 0 0 0 0 0 0 0 0 0 0 0 0 0 0 0 0 0 0 0 0 0 0 548 469 468 472 471 474 472 477 474 477 481 476 477 480 475 482 482 479 487 482 482 481 488 483 483 492 486 487 490 496 489 492 486 491 489 494 490 494 492 488 495 487 490 493 491 496 493 492 489 491 472 485 485 503 478 507 490 495 489 477 490 491 483 496 496 501 494 490 506 504 500 500 520 497 517 504 506 533 489 490 504 484 461 468 494 488 478 452 483 525 0 0 0 0 0
0 0 0 0 0 0 0 0 0 0 0 0 0 0 0 0 0 0 0 0 0 0 0 0 0 0 497 472 467 473 470 469 480 473 478 477 476 475 481 479 475 483 482 485 490 483 480 484 487 483 489 491 492 493 491 490 487 487 491 491 488 489 493 490 495 493 494 487 498 494 495 494 492 492 491 484 483 493 499 498 497 510 522 493 507 500 489 496 501 504 498 529 510 515 512 519 502 512 505 514 529 494 517 551 498 492 522 533 519 497 487 564 487 537 0 0 0 0 0 0
0 0 0 0 0 0 0 0 0 0 0 0 0 0 0 0 0 0 0 0 0 0 0 0 0 0 0 462 469 464 471 471 472 472 473 471 472 473 477 476 480 484 480 483 478 481 486 479 489 486 483 483 484 488 486 486 487 491 482 490 486 488 488 490 486 488 488 490 490 488 488 488 491 490 497 471 470 480 490 482 491 487 476 479 487 488 491 479 486 489 486 487 499 473 484 485 501 500 511 487 516 472 462 479 502 492 513 464 495 467 453 439 480 474 0 0 0 0 0 0
0 0 0 0 0 0 0 0 0 0 0 0 0 0 0 0 0 0 0 0 0 0 0 0 0 0 0 515 470 472 472 468 476 472 475 475 478 475 475 482 475 481 478 480 483 480 481 482 485 488 488 484 490 490 484 486 487 484 483 488 488 494 490 493 487 488 493 491 488 488 488 488 483 489 495 494 498 498 512 496 495 504 489 495 493 496 512 502 503 498 495 514 507 502 507 501 517 506 524 507 498 503 546 499 499 510 485 515 489 480 469 485 515 498 561 0 0 0 0 0
0 0 0 0 0 0 0 0 0 0 0 0 0 0 0 0 0 0 0 0 0 0 0 0 0 0 0 0 500 467 463 465 471 464 472 472 471 473 475 471 475 478 481 481 477 487 476 481 483 484 483 484 486 485 486 484 486 483 485 486 487 487 487 488 482 489 491 486 488 489 490 484 484 473 489 487 495 487 481 488 488 481 484 488 481 485 502 503 491 492 477 488 496 488 479 497 475 480 494 490 482 488 488 496 470 440 477 490 470 460 493 498 504 452 522 0 0 0 0 0
0 0 0 0 0 251 238 253 307 0 0 0 0 0 0 0 0 0 0 0 0 0 0 0 0 0 0 0 0 474 458 465 466 470 469 470 472 470 471 474 475 478 477 474 479 477 477 477 480 477 482 481 476 484 483 483 488 482 487 485 484 483 487 485 481 489 485 480 479 484 472 479 475 491 492 491 461 480 491 480 478 475 475 474 482 478 475 480 468 472 492 480 479 467 474 472 475 466 484 485 469 458 472 447 464 463 448 452 440 436 439 448 416 475 419 0 0 0 0 0
0 0 0 0 245 234 234 236 232 298 347 0 0 0 0 0 0 0 0 0 0 2314 0 0 0 0 0 0 0 0 466 462 465 468 471 469 472 468 479 474 471 474 475 472 480 476 480 474 476 479 479 480 486 483 482 482 485 480 483 483 486 487 487 490 486 483 488 489 484 479 473 488 482 476 493 491 493 472 482 478 492 482 480 491 493 492 487 486 485 480 494 495 481 479 480 499 488 490 487 497 484 498 500 462 488 480 481 460 465 472 453 473 514 0 0 0 0 0 0 0
0 0 0 211 217 228 223 220 230 237 328 0 0 0 0 0 0 0 0 0 0 0 0 0 0 0 0 0 0 0 0 458 457 464 454 467 468 471 461 469 471 460 474 469 472 474 471 475 477 475 476 475 480 471 481 477 481 475 479 477 478 484 483 477 477 479 481 474 471 469 467 471 465 471 476 471 471 456 464 470 472 473 487 453 484 467 473 457 453 478 473 471 489 457 460 452 453 457 456 500 443 469 451 435 424 404 433 440 449 458 433 439 428 404 400 0 0 0 0 0
231 260 292 264 246 298 258 240 237 237 316 0 444 430 426 417 425 420 439 431 449 453 453 452 467 451 453 465 459 451 446 466 470 465 464 465 460 469 468 471 467 476 473 466 479 471 479 472 478 474 474 476 476 477 482 474 478 477 482 481 477 477 474 481 487 477 484 477 479 475 487 475 476 474 479 464 480 480 483 477 474 462 471 465 470 479 478 478 484 466 476 470 480 488 478 471 483 474 467 479 474 480 481 465 500 486 471 478 450 444 473 510 465 512 471 0 0 0 0 0
231 219 211 210 241 246 256 236 233 258 371 417 415 399 406 401 400 410 405 410 421 429 433 414 433 438 432 439 435 443 456 457 463 454 460 454 461 463 462 459 460 460 462 465 465 467 470 465 475 477 472 471 473 477 477 474 474 474 476 479 477 477 478 473 470 470 478 470 472 469 465 476 468 469 464 456 455 462 464 469 461 464 454 450 456 451 448 467 467 459 450 458 468 447 461 461 459 459 452 478 448 459 464 465 466 463 442 470 470 441 454 445 443 490 478 452 0 0 0 0
210 211 213 215 219 228 238 229 228 323 355 369 372 365 372 359 372 368 360 380 378 377 383 396 405 408 418 420 429 438 436 440 437 442 436 442 446 446 443 446 440 448 453 448 448 450 453 453 453 454 457 455 455 463 453 457 461 459 456 460 455 462 454 465 452 464 461 453 458 455 455 457 444 439 436 441 432 418 426 437 434 429 422 426 409 430 429 413 432 422 428 442 427 434 426 415 430 417 433 427 415 420 416 423 423 406 401 416 415 417 416 411 419 409 405 407 415 429 435 0
307 286 264 226 236 231 234 235 268 368 345 331 341 350 361 349 354 345 358 349 357 366 361 367 374 391 405 410 415 424 422 427 422 431 429 429 433 436 428 432 434 435 431 436 435 438 444 440 441 444 445 441 445 447 447 449 447 447 450 447 449 448 443 445 439 442 442 440 444 439 432 441 427 429 418 419 406 410 392 416 409 407 402 407 409 403 408 403 415 402 409 405 395 398 427 409 398 395 402 404 412 412 408 400 395 381 401 388 392 413 409 381 394 402 409 411 402 362 433 436
300 294 276 243 234 233 229 242 268 312 311 307 316 315 307 304 324 314 305 306 325 326 322 347 359 355 385 388 402 391 412 406 410 412 406 413 404 418 408 412 414 417 414 413 418 414 416 419 414 417 419 420 420 419 420 427 422 427 422 428 429 423 418 423 419 420 423 417 419 413 416 413 406 405 400 392 387 371 371 369 362 362 352 366 368 370 372 361 366 367 357 368 360 364 365 370 360 362 352 366 362 368 367 354 372 358 355 351 373 372 358 361 364 380 371 374 380 370 361 337
283 269 284 270 256 245 257 265 275 278 285 275 279 280 286 289 291 296 285 285 295 307 302 323 329 346 358 373 362 374 382 390 391 388 387 391 390 395 397 397 395 388 393 393 392 396 394 394 394 392 394 400 401 397 395 393 398 395 403 397 395 397 398 394 391 385 399 392 392 391 396 390 390 377 371 371 354 341 340 329 345 325 322 331 327 323 322 317 329 335 327 330 335 323 340 325 330 328 326 333 338 315 335 340 353 342 326 329 328 323 312 350 335 306 327 320 287 342 293 323
247 239 236 248 248 244 260 254 262 264 253 257 261 260 259 259 266 269 267 261 276 283 287 307 315 313 332 342 353 360 358 365 366 358 363 371 367 370 368 368 375 374 375 382 372 369 366 365 369 372 378 367 374 376 377 384 371 379 382 374 378 375 372 373 374 372 373 374 370 372 373 370 364 358 354 337 327 319 311 312 306 299 306 301 313 304 300 299 300 293 310 301 311 301 310 298 294 299 297 303 306 309 309 299 301 312 311 294 315 302 319 307 326 299 313 300 329 284 289 309
222 219 222 225 235 237 242 232 240 235 240 240 238 244 229 235 243 241 237 249 255 267 266 281 297 291 313 319 322 325 333 333 336 336 339 342 342 338 339 344 342 346 350 344 346 343 343 349 348 339 339 351 355 349 356 357 347 352 357 347 344 348 348 342 353 348 346 348 340 348 341 342 343 333 325 315 298 297 283 280 282 280 282 276 284 278 276 278 271 278 268 276 282 271 280 269 265 277 279 278 275 271 264 276 268 265 276 258 283 287 271 282 272 276 274 257 261 257 255 250
218 220 229 228 232 224 219 216 222 234 229 224 229 230 229 231 231 224 237 236 245 247 257 263 277 283 296 294 299 313 308 320 319 321 318 317 324 328 328 326 325 325 319 320 323 326 328 327 324 321 322 325 334 331 328 332 330 324 328 330 331 329 326 330 327 329 326 325 322 320 320 319 327 306 309 303 285 278 273 272 267 265 264 265 267 266 250 262 263 258 258 259 262 258 262 264 270 253 257 268 265 262 267 260 264 263 251 265 266 261 258 269 272 268 270 264 259 272 259 262
209 211 205 218 220 217 219 217 215 215 212 214 216 214 207 216 222 220 225 219 231 234 241 250 254 265 271 281 280 286 286 291 299 293 291 301 295 301 306 304 298 298 303 304 303 296 307 302 308 302 312 301 302 314 303 302 309 310 304 302 303 306 309 310 307 306 308 301 301 310 296 297 300 292 289 278 265 266 253 255 244 248 249 256 246 248 249 244 238 245 249 242 253 248 243 239 243 239 245 241 246 255 257 251 249 239 241 244 247 260 239 265 259 273 261 245 262 256 255 279
185 194 201 200 202 200 203 203 199 201 204 184 189 193 187 193 213 205 212 192 214 224 231 230 236 241 246 257 269 268 271 273 269 276 274 282 285 276 282 278 281 282 282 289 283 279 281 281 280 283 282 282 280 279 278 285 288 285 285 289 283 287 284 286 286 286 284 281 286 285 282 281 278 273 266 257 253 252 239 233 229 228 227 225 231 234 229 227 222 226 231 228 223 227 223 227 227 219 225 221 224 236 225 227 227 227 231 232 240 230 245 237 239 230 243 239 231 206 227 240
195 182 178 196 187 186 187 202 189 186 185 181 183 180 191 178 190 188 208 209 208 215 225 231 231 239 238 242 242 247 252 254 257 261 258 259 263 266 266 266 263 262 268 265 269 266 266 275 267 266 266 267 269 265 269 267 268 270 269 277 267 265 266 275 268 269 273 269 267 267 267 258 259 254 249 244 241 233 227 222 223 219 219 221 216 224 215 218 221 221 217 224 215 215 217 218 213 213 215 221 216 220 217 218 214 220 215 214 229 224 225 237 245 227 216 223 233 231 230 237
174 174 172 174 175 171 181 176 180 179 179 178 185 177 177 182 180 179 180 190 183 190 207 217 213 221 223 222 232 231 229 244 241 242 240 240 238 245 247 249 247 241 244 247 249 252 249 246 246 250 245 253 247 249 243 248 250 252 253 251 250 245 249 251 244 257 254 249 245 248 245 244 240 241 231 226 221 217 214 197 195 194 187 192 189 193 194 198 196 193 194 192 184 189 184 192 183 180 192 183 185 210 191 185 185 191 186 203 205 198 203 192 212 203 215 209 203 193 196 206
168 170 173 176 175 175 172 175 175 179 180 173 175 176 178 179 177 179 185 181 189 188 183 190 211 192 217 218 223 219 228 230 224 225 228 228 232 229 229 230 225 232 236 235 235 234 229 232 234 235 234 232 233 235 233 232 234 230 236 240 236 238 237 232 233 236 233 229 234 233 234 235 229 222 220 218 198 192 188 187 197 186 193 195 188 194 193 192 193 195 190 182 187 190 190 188 190 188 190 185 174 189 181 186 186 177 182 176 177 176 179 182 179 184 197 198 205 186 178 171
166 168 172 170 170 170 169 175 168 164 170 164 167 166 176 174 174 175 179 176 177 182 182 190 186 185 190 188 207 208 197 213 208 211 218 215 216 215 215 215 221 222 220 219 219 224 218 221 223 224 218 222 221 220 218 217 222 227 224 221 221 224 222 220 224 216 220 219 225 217 223 219 218 213 196 192 188 199 192 191 185 184 189 183 188 186 184 185 181 186 186 180 188 183 182 183 182 184 184 182 181 185 185 181 182 183 181 179 178 176 172 181 176 177 199 174 198 200 206 206
150 153 157 158 159 163 161 161 165 162 161 160 156 163 161 162 162 172 170 173 174 177 180 182 182 182 184 192 190 190 182 189 184 185 195 187 187 197 187 188 192 192 187 189 195 197 192 192 194 195 194 193 192 198 192 191 197 195 191 196 202 196 198 190 191 191 191 195 192 195 195 193 195 194 188 192 196 190 185 178 178 177 177 172 171 174 170 175 175 174 172 174 170 172 172 169 169 167 164 168 170 174 167 166 174 170 171 169 167 167 163 176 172 179 168 167 172 187 165 173
146 151 152 151 160 156 156 157 160 158 160 154 155 155 155 157 155 163 157 167 166 169 175 177 178 179 179 181 187 189 189 189 190 190 188 190 191 195 191 193 195 191 193 195 195 197 195 196 196 191 195 199 196 196 200 193 195 198 196 199 199 198 201 199 192 194 196 197 199 197 197 194 192 192 190 186 188 183 178 174 171 170 168 169 163 166 169 166 170 174 172 168 170 166 168 166 166 166 165 174 168 169 170 165 165 161 159 166 166 166 167 166 172 173 173 159 160 168 176 165
147 144 147 144 145 149 149 153 151 156 151 152 152 156 153 146 153 148 157 160 160 165 166 174 172 174 174 176 177 179 176 180 185 184 177 183 185 182 183 184 184 185 186 186 181 185 185 183 188 187 185 190 189 187 188 184 188 189 0 190 191 189 187 187 190 185 193 186 186 188 185 182 185 182 178 176 175 173 171 165 163 161 161 161 160 161 165 163 166 160 158 165 160 165 160 160 156 159 166 162 161 164 166 156 157 162 165 163 158 163 156 166 162 171 159 179 157 170 174 166
132 141 135 136 141 148 149 144 144 146 142 142 140 146 142 142 143 149 149 149 159 160 160 164 168 166 169 166 171 173 170 171 176 174 169 174 176 169 175 174 176 181 176 176 178 177 177 177 176 176 179 178 179 183 180 182 183 0 0 182 179 179 178 181 178 175 180 181 183 173 174 176 171 176 171 172 170 165 163 164 161 158 158 153 158 161 158 153 156 155 150 154 155 152 154 152 152 154 156 156 152 156 150 152 153 152 146 151 161 154 154 151 144 153 145 154 146 152 127 151
139 133 132 140 143 144 149 145 145 143 142 141 143 144 145 143 143 152 147 148 149 156 158 157 160 159 164 163 168 167 166 166 171 167 165 167 167 172 168 173 173 0 174 172 172 174 172 175 174 176 175 174 175 177 175 0 175 174 0 175 176 0 0 176 176 172 175 171 172 172 170 169 168 170 165 170 165 157 156 152 150 157 150 154 154 152 151 147 152 157 148 154 153 153 151 147 155 149 154 151 152 149 149 150 148 144 150 142 156 158 148 147 154 159 161 158 156 170 169 183
131 124 129 124 135 132 141 138 134 122 135 131 126 126 139 132 134 139 137 144 140 147 150 153 149 156 156 155 157 159 161 156 158 162 159 154 162 162 0 0 0 0 0 0 0 0 0 165 165 167 166 165 168 166 0 0 172 169 167 164 0 0 0 0 166 166 166 0 162 166 163 164 161 160 155 154 153 158 149 148 152 149 149 147 143 150 143 143 147 146 144 146 140 145 137 140 141 145 144 146 140 138 141 134 134 137 137 134 140 139 142 144 145 155 146 137 138 139 145 137
125 127 123 124 128 133 134 131 138 131 127 130 125 129 126 125 131 140 138 136 141 140 147 146 151 149 154 152 153 155 153 151 157 160 155 156 157 0 0 0 0 0 0 0 0 0 0 0 0 162 162 159 0 0 0 0 0 0 0 0 0 0 0 0 162 161 0 0 0 0 0 158 160 155 154 151 151 150 148 144 141 141 144 143 139 143 144 138 145 140 137 138 139 141 130 140 143 141 135 138 135 137 139 135 130 134 134 137 139 137 136 145 146 142 137 138 132 133 137 161
117 105 119 124 119 126 130 129 129 118 132 120 121 119 119 122 133 123 130 130 135 135 134 144 140 142 144 144 147 150 152 147 152 150 151 149 0 0 0 0 0 0 0 0 0 0 0 0 153 155 155 0 0 0 0 0 0 0 0 0 0 0 0 0 0 0 0 0 0 0 0 0 147 149 147 147 145 144 140 145 131 142 137 137 130 129 130 139 130 130 137 140 131 138 120 129 139 139 134 134 135 138 132 122 135 136 133 126 134 147 137 138 137 136 145 136 134 134 119 132
103 109 112 111 106 112 118 117 112 119 114 113 115 115 125 123 123 121 117 117 123 120 126 121 127 140 137 140 142 146 141 144 142 144 145 142 0 0 0 0 0 0 0 0 0 0 0 0 144 0 0 0 0 0 0 0 0 0 0 0 0 0 0 0 0 0 0 0 0 0 0 0 142 139 139 142 138 131 130 141 124 120 120 120 122 119 126 124 123 128 120 121 118 127 126 129 126 123 120 120 116 129 130 120 120 122 114 117 128 132 121 127 111 120 113 123 111 107 112 125
109 107 113 114 113 113 115 125 119 119 114 120 119 118 120 121 118 130 125 117 117 116 121 119 132 138 140 137 0 134 0 0 0 139 141 0 0 0 0 0 0 0 0 0 0 0 0 0 0 0 0 0 0 0 0 0 0 0 0 0 0 0 0 0 0 0 0 0 0 0 0 0 0 142 124 137 127 124 122 125 119 118 122 126 115 120 120 119 116 119 115 126 118 117 112 123 119 120 120 120 119 126 131 124 123 117 115 121 111 130 132 115 126 126 136 118 109 137 136 147
102 100 108 114 105 99 104 105 102 104 107 106 106 108 107 111 110 112 116 109 114 116 112 119 120 120 125 120 0 126 129 0 0 0 0 0 0 0 0 0 0 0 0 0 0 0 0 0 0 0 0 0 0 0 0 0 0 0 0 0 0 0 0 0 0 0 0 0 0 0 0 0 131 0 0 126 123 120 121 117 118 116 113 116 114 117 112 109 109 116 117 114 112 113 113 106 112 114 113 112 115 111 110 113 112 119 108 125 110 110 113 110 105 122 116 120 110 119 135 152
99 100 96 94 100 103 103 102 101 105 102 101 105 106 105 104 104 109 116 105 108 108 107 109 116 110 114 120 121 121 0 124 0 0 0 0 0 0 0 0 0 0 0 0 0 0 0 0 0 0 0 0 0 0 0 0 0 0 0 0 0 0 0 0 0 0 0 0 0 0 0 0 0 123 0 116 119 118 114 108 111 110 105 105 112 111 109 118 101 110 114 112 113 114 107 119 105 110 102 117 111 107 110 107 112 110 108 109 113 112 109 102 109 100 99 114 111 103 128 119
96 104 97 104 99 100 102 94 95 100 99 98 102 101 99 94 105 107 113 115 112 107 100 111 113 109 115 113 114 122 121 121 123 0 0 0 0 0 0 0 0 0 0 0 0 0 0 0 0 0 0 0 0 0 0 0 0 0 0 0 0 0 0 0 0 0 0 0 0 0 0 0 123 122 110 121 114 117 116 118 107 111 101 123 108 109 105 106 103 106 109 105 114 95 98 103 109 101 114 106 105 112 111 106 110 111 111 93 103 103 107 99 106 112 125 107 140 141 125 137
88 83 80 87 80 84 80 92 91 85 86 92 99 96 94 90 76 93 94 89 91 86 104 108 101 100 114 106 0 116 107 109 119 0 114 0 0 0 113 0 0 0 0 0 0 0 0 0 0 0 0 0 0 0 0 0 0 0 0 0 0 0 0 0 0 0 0 0 0 0 0 117 112 111 108 114 106 101 104 101 101 106 95 92 102 98 89 102 106 99 94 95 102 84 86 96 95 102 85 91 91 95 93 89 79 91 88 93 92 89 90 87 77 102 94 94 84 84 103 129
93 87 91 91 96 95 98 108 90 93 93 92 94 90 95 96 99 91 102 96 94 107 107 101 103 105 111 106 0 104 113 110 116 111 123 107 0 0 114 0 0 118 0 0 0 0 0 0 0 0 0 0 0 0 0 0 0 0 0 0 117 0 0 115 115 0 0 0 111 0 107 110 115 115 116 108 107 111 104 96 111 103 102 86 98 101 107 104 102 105 105 108 110 100 103 104 101 94 99 110 100 99 95 102 93 102 96 88 91 87 90 93 90 99 100 97 112 119 143 112
86 93 90 90 97 94 92 94 87 100 88 90 86 94 88 87 95 100 99 93 98 93 100 111 91 104 104 99 105 108 91 102 106 105 100 103 0 115 115 0 110 0 0 0 0 0 0 0 0 0 0 0 0 0 0 0 0 110 0 0 0 109 108 109 111 113 105 103 113 109 110 104 100 103 113 110 101 94 105 97 92 98 101 85 97 93 92 103 107 94 100 106 109 86 95 82 90 94 96 88 91 84 93 93 93 91 98 90 96 89 96 100 91 92 94 90 108 128 117 120
84 84 82 90 92 89 102 87 89 79 89 88 92 90 88 90 87 88 94 90 78 92 95 84 87 91 91 91 104 87 93 98 97 96 96 110 99 101 106 100 104 101 98 109 107 88 0 0 95 0 0 108 107 97 97 109 107 100 106 104 101 107 112 99 99 112 104 97 100 107 97 104 103 98 105 95 92 95 102 90 93 93 92 96 93 92 90 90 96 94 99 86 95 94 92 92 95 94 91 83 85 87 85 89 90 82 91 83 80 90 88 94 83 89 81 86 92 81 107 126
84 80 83 84 85 90 100 103 85 89 87 84 83 86 84 89 90 94 92 96 84 97 98 88 93 98 95 89 99 100 95 86 94 93 97 97 96 100 94 108 103 97 100 106 101 96 107 0 108 100 99 107 96 97 100 103 100 107 102 107 106 96 94 105 105 98 99 101 97 106 98 101 99 96 105 89 95 94 96 85 97 96 87 91 97 96 87 87 94 88 85 97 89 92 84 91 94 96 97 86 89 97 82 90 92 99 90 98 91 89 86 93 105 95 101 121 125 116 136 125
81 77 71 71 81 85 88 90 87 80 88 84 87 80 89 82 88 86 85 86 85 85 91 88 87 87 95 94 85 91 89 93 82 93 99 95 98 86 90 97 94 90 98 90 86 94 92 103 95 91 98 87 97 91 89 83 103 91 98 96 97 83 87 95 96 81 94 91 96 86 94 89 91 94 88 95 94 96 94 94 88 93 87 90 88 95 91 88 87 90 79 79 90 85 88 86 85 78 81 90 82 88 80 72 88 82 90 83 89 89 80 86 84 101 86 118 155 130 135 84
72 72 83 88 72 85 81 86 84 82 82 77 81 85 86 90 87 88 83 85 84 92 86 92 88 89 93 87 94 88 85 96 92 98 86 93 86 95 90 97 96 83 95 88 89 101 92 88 102 89 91 96 92 85 106 98 90 98 89 98 96 85 90 93 92 96 90 97 106 94 97 96 89 95 94 85 97 84 84 96 89 89 89 90 82 84 90 78 92 95 78 91 77 83 93 84 90 89 80 80 87 82 80 77 76 85 81 90 89 93 83 85 87 101 95 106 84 111 80 201
