0 0 0 0 0 0 0 0 0 0 0 0 0 0 0 0 0 0 0 0 0 0 0 0 0 0 0 0 0 0 0 0 0 0 0 0 0 0 0 0 0 0 0 0 0 0 0 0 0 0 0 0 0 0 0 0 0 0 0 0 0 0 0 0 0 0 0 0 0 0 0 0 0 0 0 0 0 0 0 0 0 0 0 0 0 0 0 0 0 0 0 0 0 0 0 0 0 0 0 0 0 0 0 0 0 0 0 0 0 0 0 0 0 0 0 0 0 0 0 0
0 0 0 0 0 0 0 0 0 0 0 0 0 0 0 0 0 0 0 0 0 0 0 0 0 0 0 0 0 0 0 0 0 0 0 0 0 0 0 0 0 0 0 0 0 0 0 0 0 0 0 0 0 0 0 0 0 0 0 0 0 0 0 0 0 0 0 0 0 0 0 0 0 0 0 0 0 0 0 0 0 0 0 0 0 0 0 0 0 0 0 0 0 0 0 0 0 0 0 0 0 0 0 0 0 0 0 0 0 0 0 0 0 0 0 0 0 0 0 0
0 0 0 0 0 0 0 0 0 0 0 0 0 0 0 0 0 0 0 0 0 0 0 0 0 0 0 0 0 0 0 0 0 0 0 0 0 0 0 0 0 0 0 0 0 0 0 0 0 0 0 0 0 0 0 0 0 0 0 0 0 0 0 0 0 0 0 0 0 0 0 0 0 0 0 0 0 0 0 0 0 0 0 0 0 0 0 0 0 0 0 0 0 0 0 0 0 0 0 0 0 0 0 0 0 0 0 0 0 0 0 0 0 0 0 0 0 0 0 0
0 0 0 0 0 0 0 0 0 0 0 0 0 0 0 0 0 0 0 0 0 0 0 0 0 0 0 0 0 0 0 0 0 0 0 0 0 0 0 0 0 0 0 0 0 0 0 0 0 0 0 0 0 0 0 0 0 0 0 0 0 0 0 0 0 0 0 0 0 0 0 0 0 0 0 0 0 0 0 0 0 0 0 0 0 0 0 0 0 0 0 0 0 0 0 0 0 0 0 0 0 0 0 0 0 0 0 0 0 0 0 0 0 0 0 0 0 0 0 0
0 0 0 0 0 0 0 0 0 0 0 0 0 0 0 0 0 0 0 0 0 0 0 0 0 0 0 0 0 0 0 0 0 0 0 0 0 0 0 0 0 0 0 0 0 0 0 0 0 0 0 0 0 0 0 0 0 0 0 0 0 0 0 0 0 0 0 0 0 0 0 0 0 0 0 0 0 0 0 0 0 0 0 0 0 0 0 0 0 0 0 0 0 0 0 0 0 0 0 0 0 0 0 0 0 0 0 0 0 0 0 0 0 0 0 0 0 0 0 0
0 0 0 0 0 0 0 0 0 0 0 0 0 0 0 0 0 0 0 0 0 0 0 0 0 0 0 0 0 0 0 0 0 0 0 0 0 0 0 476 501 495 485 501 500 499 489 493 485 501 520 480 489 488 462 0 0 0 0 0 0 0 0 0 0 0 0 0 0 0 0 0 0 0 0 0 0 0 0 0 0 0 0 0 0 0 0 0 0 0 0 0 0 0 0 0 0 0 0 0 0 0 0 0 0 0 0 0 0 0 0 0 0 0 0 0 0 0 0 0
0 0 0 0 0 0 0 0 0 0 0 0 0 0 0 0 0 0 0 0 0 0 0 0 0 0 0 0 0 0 0 0 0 0 0 0 0 504 524 511 499 507 505 497 510 507 504 506 535 520 493 514 491 506 518 539 536 518 510 493 0 0 0 0 0 0 0 0 0 0 0 0 0 0 0 0 0 0 0 0 0 0 0 0 0 0 0 0 0 0 0 0 0 0 0 0 0 0 0 0 0 0 0 0 0 0 0 0 0 0 0 0 0 0 0 0 0 0 0 0
0 0 0 0 0 0 0 0 0 0 0 0 0 0 0 0 0 0 0 0 0 0 0 0 0 0 0 0 0 0 0 0 0 0 0 517 522 514 503 497 513 502 512 517 511 492 513 515 532 499 515 508 510 505 529 518 499 514 499 538 500 551 517 506 543 0 0 0 0 0 0 0 0 0 0 0 0 0 0 0 0 0 0 0 0 0 0 0 0 0 0 0 0 0 0 0 0 0 0 0 0 0 0 0 0 0 0 0 0 0 0 0 0 0 0 0 0 0 0 0
0 0 0 0 0 0 0 0 0 0 0 0 0 0 0 0 0 0 0 0 0 0 0 0 0 0 0 0 0 0 0 0 0 494 480 516 495 503 499 497 508 506 495 506 509 489 505 516 507 511 505 507 510 508 502 515 509 509 513 518 512 507 503 504 521 493 488 538 516 533 574 559 559 0 599 580 606 560 0 580 0 0 0 0 0 0 0 0 0 0 0 0 0 0 0 0 0 0 0 0 0 0 0 0 0 0 0 0 0 0 0 0 0 0 0 0 0 0 0 0
0 0 0 0 0 0 0 0 0 0 0 0 0 0 0 0 0 0 0 0 0 0 0 0 0 0 0 0 0 0 0 580 503 523 499 506 508 495 514 507 506 499 509 508 505 512 506 518 508 519 509 513 511 513 503 509 519 517 510 512 519 510 510 505 498 538 521 537 528 578 576 636 609 588 611 618 597 625 626 607 596 603 605 620 623 614 616 638 604 658 640 587 587 591 645 618 615 615 627 611 593 640 608 632 638 0 0 0 0 0 0 0 0 0 0 0 0 0 0 0
0 0 0 0 0 0 0 0 0 0 0 0 0 0 0 0 0 0 0 0 0 0 0 0 0 0 0 0 0 0 503 497 501 486 492 495 513 492 495 509 510 504 508 501 500 511 508 508 497 506 504 505 515 509 513 517 508 510 504 509 517 501 509 513 502 505 511 507 513 510 549 591 551 547 600 614 551 575 579 563 543 543 568 551 590 579 556 621 552 596 535 577 576 566 541 544 631 565 551 574 555 527 592 590 583 540 583 0 559 0 0 0 0 0 0 0 0 0 0 0
0 0 0 0 0 0 0 0 0 0 0 0 0 0 0 0 0 0 0 0 0 0 0 0 0 0 0 0 491 500 508 499 501 511 512 493 500 497 502 499 503 499 497 502 495 509 508 502 492 501 499 510 496 503 497 501 514 506 497 506 508 500 507 505 505 502 501 497 502 518 501 515 569 547 536 553 567 533 569 565 546 542 562 544 548 528 537 537 507 515 562 530 536 507 561 535 525 554 542 531 556 474 565 540 557 578 534 539 521 0 0 0 0 0 0 0 0 0 0 0
0 0 0 0 0 0 0 0 0 0 0 0 0 0 0 0 0 0 0 0 0 0 0 0 0 0 0 501 491 486 506 484 505 490 494 497 499 498 501 492 499 507 500 498 511 509 501 504 505 505 504 500 505 506 502 511 507 511 506 519 511 508 506 520 518 503 512 506 505 513 512 507 539 556 561 536 552 548 566 590 552 547 578 552 570 567 578 573 535 559 552 578 532 553 536 568 583 558 597 593 527 622 501 521 580 533 567 519 525 0 0 0 0 0 0 0 0 0 0 0
0 0 0 0 0 0 0 0 0 0 0 0 0 0 0 0 0 0 0 0 0 0 0 0 0 0 479 482 495 499 502 487 486 494 501 492 499 497 493 490 498 500 498 505 495 502 495 500 502 496 503 507 503 502 500 505 505 507 503 512 502 507 508 501 509 508 506 493 503 500 512 506 512 515 524 527 511 503 521 511 540 528 541 546 529 509 511 513 573 542 564 539 532 548 543 576 519 528 501 534 521 536 507 536 584 507 512 515 474 0 0 0 0 0 0 0 0 0 0 0
0 0 0 0 0 0 0 0 0 0 0 0 0 0 0 0 0 0 0 0 0 0 0 0 0 515 490 487 508 486 500 494 498 499 490 499 512 502 498 494 507 498 503 511 504 499 503 509 505 501 500 512 504 500 505 510 503 508 498 499 504 509 509 508 510 506 504 511 505 501 512 509 511 513 537 542 527 546 538 550 525 557 547 568 548 539 546 539 547 516 527 565 556 556 536 528 558 539 605 559 537 530 515 537 566 566 560 574 554 0 533 0 0 0 0 0 0 0 0 0
0 0 0 0 0 0 0 0 0 0 0 0 0 0 0 0 0 0 0 0 0 0 0 0 0 496 500 490 499 503 506 496 497 500 481 499 498 502 507 505 498 499 504 501 496 505 510 510 504 499 508 507 507 505 506 506 507 501 510 511 507 504 513 514 509 511 520 509 506 516 520 516 510 520 551 536 587 546 558 526 522 586 554 580 571 548 569 557 533 578 551 559 574 542 566 560 550 572 579 545 553 558 568 521 528 592 592 578 550 0 0 0 0 609 0 0 0 0 0 0
0 0 0 0 0 0 0 0 0 0 0 0 0 0 0 0 0 0 0 0 0 0 0 0 464 500 498 494 488 496 506 493 488 501 500 494 496 496 495 500 504 499 496 501 499 503 496 505 502 496 497 507 498 502 502 502 497 495 501 502 511 500 512 506 507 509 503 508 506 511 500 506 513 500 518 538 536 559 546 544 557 528 547 555 537 503 549 534 541 562 538 528 576 544 520 534 539 526 509 566 552 543 536 564 554 546 561 552 544 559 513 0 0 0 0 0 0 0 0 0
0 0 0 0 0 0 0 0 0 0 0 0 0 0 0 0 0 0 0 0 0 0 0 0 509 491 495 497 502 497 496 503 497 495 494 500 500 501 498 497 511 494 503 497 492 505 504 502 509 502 504 511 503 507 504 508 506 506 501 506 507 508 505 513 505 502 507 499 505 509 509 515 519 511 531 541 553 555 553 550 532 546 564 568 572 579 566 575 546 551 560 586 560 583 591 552 546 563 561 566 577 579 585 538 606 539 577 576 552 514 590 0 0 0 0 0 0 0 0 0
0 0 0 0 0 0 0 0 0 0 0 0 0 0 0 0 0 0 0 0 0 0 0 464 489 499 493 493 488 491 494 497 492 493 497 492 505 493 493 497 500 496 497 498 503 506 502 503 492 504 499 503 501 504 500 499 505 503 502 508 508 500 506 501 498 505 515 514 510 508 514 508 501 500 509 514 512 528 518 544 482 526 535 510 569 549 523 530 532 552 506 535 517 534 550 519 506 527 523 512 536 534 536 530 556 534 540 478 541 585 515 0 0 0 0 0 0 0 0 0
0 0 0 0 0 0 0 0 0 0 0 0 0 0 0 0 0 0 0 0 0 0 0 496 485 491 493 485 493 488 500 480 498 489 483 486 485 487 488 501 495 493 492 489 496 501 501 499 494 501 500 497 498 497 499 493 500 510 505 497 495 501 501 497 497 497 500 506 507 513 502 503 507 517 508 503 528 509 513 508 491 501 519 517 509 503 520 496 511 508 518 505 507 520 469 499 539 512 489 512 516 516 525 515 514 524 534 507 506 491 453 0 0 0 0 0 0 0 0 0
0 0 0 0 0 0 0 0 0 0 0 0 0 0 0 0 0 0 0 0 0 0 476 505 496 494 495 494 492 481 488 501 503 489 487 492 492 495 494 502 492 498 506 492 491 494 497 501 500 507 496 505 499 506 504 506 503 494 501 498 509 513 506 507 500 507 501 508 508 509 508 506 509 508 505 510 512 516 513 533 511 516 543 550 510 524 548 495 533 552 515 531 541 539 517 565 541 556 542 535 514 540 519 516 524 536 516 526 497 521 528 0 542 0 0 0 0 0 0 0
0 0 0 0 0 0 0 0 0 0 0 0 0 0 0 0 0 0 0 0 0 0 461 492 480 479 487 491 485 488 491 484 487 487 498 489 485 499 496 496 487 489 491 501 498 498 499 495 501 498 502 494 502 502 495 502 501 509 498 497 501 500 504 502 501 515 514 505 511 504 505 507 504 507 504 510 503 528 522 521 518 504 488 477 507 504 527 512 498 473 493 483 500 511 517 482 492 528 520 500 513 490 511 515 527 512 530 511 488 433 451 447 0 0 0 0 0 0 0 0
0 0 0 0 0 0 0 0 0 0 0 0 0 0 0 0 0 0 0 0 0 0 480 488 485 485 490 493 481 498 495 480 489 488 494 491 486 497 491 490 491 502 498 502 497 496 494 498 497 499 498 502 497 498 497 503 503 504 504 504 501 511 501 501 499 510 506 499 515 510 502 499 511 495 510 511 510 529 530 538 572 530 516 515 513 556 544 503 527 537 514 538 514 499 516 538 543 518 530 531 522 550 516 544 538 535 551 542 564 536 550 586 535 479 0 0 0 0 0 0
0 0 0 0 0 0 0 0 0 0 0 0 0 0 0 0 0 0 0 0 0 0 506 504 493 501 490 490 487 492 496 490 488 490 496 491 494 496 497 492 497 495 498 493 498 503 499 504 500 498 500 503 500 506 499 506 508 498 501 501 508 508 507 506 503 504 509 500 512 502 514 502 505 504 508 507 515 544 551 579 531 525 533 528 517 557 550 545 568 553 531 548 558 520 540 540 542 575 551 544 569 556 542 516 566 557 554 572 572 505 589 566 552 0 0 0 0 0 0 0
0 0 0 0 0 0 0 0 0 0 0 0 0 0 0 0 0 0 0 0 0 0 495 479 482 490 487 492 489 492 486 492 488 482 489 490 487 493 483 492 497 493 494 501 493 499 494 495 498 504 502 498 495 502 509 502 501 502 503 500 497 509 503 494 502 503 502 498 499 504 507 503 503 499 500 509 509 521 490 495 506 503 506 501 511 516 490 512 524 519 508 529 501 497 496 524 532 496 544 512 538 521 500 506 538 492 502 516 533 525 513 503 480 0 0 0 0 0 0 0
0 0 0 0 0 0 0 0 0 0 0 0 0 0 0 0 0 0 0 0 0 0 490 477 491 496 499 488 486 495 499 488 482 490 497 488 492 494 502 496 493 496 499 498 500 495 496 496 500 497 501 502 502 504 503 506 509 504 503 498 504 501 514 507 503 503 503 510 495 504 496 506 501 509 509 513 502 518 543 520 503 523 546 531 543 550 532 528 519 523 551 514 532 569 534 546 553 552 551 537 550 542 548 551 537 543 584 519 576 530 538 594 525 0 0 0 0 0 0 0
0 0 0 0 0 0 0 0 0 0 0 0 0 0 0 0 0 0 0 0 0 424 482 490 481 481 490 490 495 489 482 491 485 493 487 480 494 503 491 491 487 502 492 492 499 496 495 498 495 495 499 504 494 502 500 499 500 508 499 500 504 508 498 499 503 497 498 507 502 508 505 506 500 503 506 510 505 506 506 517 514 511 534 529 499 517 531 506 497 526 508 507 493 523 525 485 519 534 542 534 530 508 546 511 511 480 512 541 484 502 515 472 0 0 0 0 0 0 0 0
0 0 0 0 0 0 0 0 0 0 0 0 0 0 0 0 0 0 0 0 0 445 479 482 487 478 486 474 478 482 479 486 491 487 484 486 484 489 489 492 499 496 482 492 497 491 493 497 499 493 504 496 501 498 497 506 497 502 501 507 503 495 493 498 500 505 499 494 503 499 500 500 504 504 504 504 498 506 523 484 508 500 509 484 488 494 505 485 479 488 471 507 509 507 483 495 501 505 489 472 503 481 523 456 456 494 466 485 483 470 476 483 0 0 0 0 0 0 0 0
0 0 0 0 0 0 0 0 0 0 0 0 0 0 0 0 0 0 0 0 0 475 481 487 480 485 489 486 484 483 487 484 485 497 489 489 485 484 491 488 494 489 490 497 495 496 499 493 498 494 497 500 500 499 498 504 498 500 498 500 505 500 505 508 508 499 509 505 503 506 502 500 506 510 510 503 505 507 505 521 513 531 511 521 499 510 507 507 544 526 529 499 543 520 515 530 490 517 497 531 514 504 542 513 507 526 526 531 490 511 513 513 549 0 510 0 0 0 0 0
0 0 0 0 0 0 0 0 0 0 0 0 0 0 0 0 0 0 0 0 0 450 486 473 480 475 478 477 488 485 478 485 488 483 486 483 488 485 487 489 492 487 487 494 490 494 491 497 494 491 491 496 499 500 498 499 497 501 500 499 496 496 499 505 502 497 503 508 498 503 500 500 506 499 499 502 494 504 499 482 498 490 477 505 511 490 483 484 486 508 480 496 467 497 476 505 489 482 455 462 509 482 485 480 465 497 489 485 451 457 448 481 475 0 0 0 0 0 0 0
0 0 0 0 0 0 0 0 0 0 0 0 0 0 0 0 0 0 0 0 0 473 492 484 478 485 477 477 478 483 482 486 484 492 489 487 489 487 488 488 493 491 488 491 493 487 495 497 495 491 496 498 504 494 497 497 492 500 499 501 499 498 500 497 499 508 504 501 504 503 504 503 497 498 499 500 502 506 524 502 508 515 507 497 515 509 509 527 499 497 513 486 482 518 526 510 515 502 526 476 525 528 508 561 514 523 536 528 511 511 513 501 0 0 0 0 0 0 0 0
0 0 0 0 0 0 0 0 0 0 0 0 0 0 0 0 0 0 0 0 0 479 478 483 481 484 482 481 481 485 485 481 491 487 490 489 486 495 497 491 492 492 494 489 494 492 494 496 496 492 495 497 502 501 501 501 493 500 501 499 501 497 504 504 499 503 500 503 502 503 503 508 503 508 506 500 505 503 509 521 502 522 510 523 509 510 521 521 535 529 505 531 526 519 535 510 524 520 529 525 545 521 526 534 558 539 519 554 562 543 525 560 540 0 0 0 0 0 0 0
0 0 0 0 0 0 0 0 0 0 0 0 0 0 0 0 0 0 0 0 0 454 471 488 476 480 476 481 480 473 489 482 481 483 478 486 482 486 488 488 491 490 490 495 491 492 491 496 494 494 500 497 493 497 493 499 500 501 499 498 503 494 497 504 503 501 494 501 505 502 502 497 502 505 496 504 495 504 513 504 509 483 516 500 506 502 512 502 489 489 499 496 499 508 540 503 503 485 528 505 507 495 479 510 494 497 516 523 491 491 465 462 452 512 0 0 0 0 0 0
0 0 0 0 0 0 0 0 0 0 0 0 0 0 0 0 0 0 0 0 0 477 475 477 487 479 487 483 478 481 487 487 485 485 487 491 484 484 487 495 492 489 488 494 494 492 491 491 492 494 492 492 499 493 496 499 502 498 498 495 500 500 502 501 499 501 497 504 504 501 494 498 494 496 494 502 510 504 496 521 523 514 521 500 520 530 491 518 522 505 517 508 506 514 526 522 511 529 513 512 556 517 534 510 519 543 560 524 501 529 503 582 545 0 0 0 0 0 0 0
0 0 0 0 0 0 0 0 0 0 0 0 0 0 0 0 0 0 0 0 0 451 476 478 470 482 476 475 478 482 479 485 485 486 485 483 486 489 494 493 489 485 486 485 493 494 493 493 493 492 489 489 496 495 493 496 498 498 494 495 497 498 500 497 498 498 499 500 501 498 503 502 500 500 498 503 508 501 515 518 495 515 494 523 495 494 509 503 518 499 490 502 523 506 492 505 498 487 478 492 528 518 511 510 533 512 514 497 524 506 551 513 483 548 0 0 0 0 0 0
0 0 0 0 0 0 0 0 0 0 0 0 0 0 0 0 0 0 0 0 0 439 475 463 477 477 480 477 478 483 479 483 480 483 481 483 486 486 479 486 485 484 490 491 487 492 486 488 489 493 490 492 494 489 496 494 493 497 496 498 499 495 494 493 493 505 499 496 494 499 497 496 497 500 498 493 494 494 489 495 494 483 485 482 471 510 487 492 482 497 474 494 467 492 480 497 473 487 459 482 480 488 488 493 485 466 467 462 450 449 486 436 480 441 0 0 0 0 0 0
0 0 0 0 0 0 0 0 0 0 0 0 0 0 0 0 0 0 0 0 0 471 478 476 480 478 480 479 480 483 481 482 483 484 481 489 490 487 487 486 479 485 486 485 489 493 490 494 493 486 494 492 494 499 496 491 495 490 494 498 499 497 500 502 502 498 498 501 502 493 496 493 505 499 497 498 494 494 496 485 496 497 496 503 484 506 502 484 486 503 492 501 505 478 498 483 512 491 497 504 485 516 506 523 511 503 463 484 514 478 496 509 507 491 0 0 0 0 0 0
0 0 0 0 0 0 0 0 0 0 0 0 0 0 0 0 0 0 0 0 0 0 481 475 476 476 471 477 480 475 476 480 486 479 477 481 485 483 484 483 487 485 485 488 487 489 492 491 493 493 491 496 496 493 495 496 493 494 493 496 496 498 497 497 501 502 496 497 498 501 498 499 497 495 496 493 492 486 494 481 477 502 489 496 485 491 500 484 510 494 489 505 497 486 493 485 468 496 503 484 505 493 478 473 505 506 456 487 500 488 444 469 462 491 0 0 0 0 0 0
0 0 0 0 0 0 0 0 0 0 0 0 0 0 0 0 0 0 0 0 0 0 501 477 470 474 485 475 472 480 483 477 481 486 482 484 481 488 485 480 489 492 482 487 491 494 483 489 494 493 493 494 492 493 494 495 495 491 496 493 497 498 492 497 500 494 496 496 497 491 497 496 493 494 497 493 496 503 518 524 502 500 505 510 496 507 504 515 521 510 522 512 520 485 512 520 515 506 496 475 509 524 480 514 509 474 509 515 521 508 493 502 487 533 0 0 0 0 0 0
0 0 0 0 0 0 0 0 0 0 0 0 0 0 0 0 0 0 0 0 0 0 537 476 473 481 476 481 480 472 477 480 484 481 482 485 485 485 481 488 486 484 488 490 489 493 485 487 491 492 492 495 492 494 489 498 492 492 497 503 497 495 494 497 495 500 500 497 496 495 498 497 495 494 493 494 498 502 493 502 504 507 507 502 530 507 519 529 521 487 528 506 500 520 526 505 499 499 538 516 523 522 541 525 511 511 510 510 528 501 513 512 524 536 509 0 0 0 0 0
0 0 0 0 0 0 0 0 0 0 0 0 0 0 0 0 0 0 0 0 0 0 598 472 473 473 478 475 472 472 474 478 476 483 481 486 484 486 484 483 485 490 487 490 490 491 485 486 492 490 491 491 495 493 499 492 497 495 497 498 498 497 496 498 497 495 499 497 497 496 499 493 497 495 499 496 498 496 487 501 497 492 514 501 518 494 522 500 509 493 499 528 513 534 536 505 500 498 512 521 516 489 519 494 487 484 454 512 513 482 452 499 453 506 458 492 0 0 0 0
0 0 0 0 0 0 0 0 0 0 0 0 0 0 0 0 0 0 0 0 0 0 763 477 470 474 479 472 472 475 482 487 479 484 479 474 484 484 483 485 486 485 487 487 487 484 492 491 489 494 491 494 499 495 498 493 495 497 498 495 497 498 494 496 495 497 496 501 499 492 502 490 499 492 493 495 491 510 497 511 497 519 497 505 501 523 520 529 492 512 509 517 503 531 505 522 517 512 528 536 527 514 523 520 511 509 518 513 509 498 550 476 512 0 522 509 0 0 0 0
0 0 0 0 0 0 0 0 0 0 0 0 0 0 0 0 0 0 0 0 0 0 0 485 475 472 478 473 471 473 477 474 477 483 479 479 480 481 486 481 479 486 487 487 487 485 487 495 490 494 491 492 489 490 494 492 499 494 493 494 494 495 494 491 493 496 495 498 498 494 495 493 494 492 495 493 493 492 486 508 491 495 500 497 499 488 500 509 496 507 505 519 485 511 520 494 514 498 505 490 489 546 512 488 485 491 481 488 506 494 475 474 477 450 0 0 0 0 0 0
0 0 0 0 0 0 0 0 0 0 0 0 0 0 0 0 0 0 0 0 0 0 0 513 468 471 469 466 466 470 472 477 479 477 478 475 476 480 480 484 482 484 490 485 486 483 491 487 486 486 494 490 489 488 493 488 492 493 489 487 497 491 493 491 494 496 495 493 492 493 494 490 493 494 490 488 488 480 504 503 497 480 482 481 510 505 496 489 494 504 483 499 484 489 498 484 495 475 475 475 496 471 488 478 493 459 456 471 470 480 500 447 454 446 417 0 0 0 0 0
0 0 0 0 0 0 0 0 0 0 0 0 0 0 0 0 0 0 0 0 0 0 0 0 477 474 467 468 474 471 478 476 478 482 480 474 478 480 477 481 485 485 481 485 488 490 494 485 492 485 489 490 489 489 488 494 493 490 491 494 493 495 494 494 495 496 497 495 497 492 498 496 498 501 491 489 492 492 498 493 494 492 509 504 528 502 518 514 488 503 514 503 501 516 513 519 516 516 495 496 488 507 502 508 511 487 532 504 481 505 460 509 472 473 518 497 0 0 0 0
0 0 0 0 0 0 0 0 0 0 0 0 0 0 0 0 0 0 0 0 0 0 0 0 459 466 468 475 471 471 479 469 473 474 476 477 481 475 480 480 481 479 476 485 486 487 485 487 486 489 489 489 490 493 487 488 492 493 492 488 492 488 488 493 494 497 493 489 494 492 494 494 493 493 490 488 482 486 482 471 481 481 470 493 483 504 482 493 485 480 471 492 471 485 495 470 466 471 490 482 464 510 459 469 448 486 443 443 466 443 495 471 448 453 461 0 0 0 0 0
0 0 0 0 0 0 0 0 0 0 0 0 0 0 0 0 0 0 0 0 0 0 0 0 0 475 467 469 470 473 469 469 477 475 471 472 479 478 478 482 482 480 483 482 481 486 489 487 483 484 491 485 489 486 491 483 492 481 488 493 492 492 494 493 491 490 489 492 491 491 495 492 492 493 490 486 485 482 494 489 487 476 489 488 481 482 493 478 481 500 501 487 517 491 499 505 515 497 506 497 503 503 506 481 484 458 473 451 467 476 471 475 537 463 0 0 0 0 0 0
0 0 0 0 0 0 0 0 0 0 0 0 0 0 0 0 0 0 0 0 0 0 0 0 0 582 471 471 473 474 471 475 480 475 473 482 476 476 477 480 479 479 482 484 482 483 481 482 489 480 489 484 488 489 489 489 494 489 487 493 490 495 492 489 493 493 493 487 491 492 494 492 497 494 487 493 494 494 489 499 509 501 495 496 489 491 511 490 488 494 507 482 491 530 511 509 522 540 541 546 540 521 546 538 503 495 493 513 499 484 497 500 509 540 0 0 0 0 0 0
0 0 0 0 0 0 0 0 0 0 0 0 0 0 0 0 0 0 0 0 0 0 0 0 0 0 478 481 466 464 470 474 468 470 477 474 479 472 478 478 471 483 482 481 482 482 484 488 482 478 485 485 487 482 485 485 489 487 489 490 490 489 491 490 496 495 488 489 494 487 493 492 495 486 487 486 485 484 483 501 480 506 503 485 476 498 489 490 481 505 486 485 508 504 492 486 475 478 503 501 504 491 504 499 498 485 483 480 495 468 504 457 458 483 0 0 0 0 0 0
0 0 0 0 0 0 0 0 0 0 0 0 0 0 0 0 0 0 0 0 0 0 0 0 0 0 0 477 473 467 467 473 472 474 474 473 473 475 475 478 480 479 479 480 481 484 483 484 484 485 485 487 478 489 484 481 482 492 484 490 487 487 493 487 492 491 489 489 491 489 486 488 486 490 485 501 491 489 497 495 486 493 517 478 489 507 514 504 511 504 483 502 506 503 487 510 511 496 523 513 513 518 494 463 487 516 506 507 475 530 503 486 493 498 524 0 0 0 0 0
0 0 0 0 0 0 0 0 0 0 0 0 0 0 0 0 0 0 0 0 0 0 0 0 0 0 0 497 475 460 468 468 473 476 467 472 474 471 471 477 475 473 480 483 478 482 484 481 482 480 482 488 487 484 483 484 484 483 486 488 491 484 490 484 487 487 488 483 495 488 485 491 482 479 484 491 468 486 488 480 488 489 480 460 486 487 467 483 496 490 482 497 493 485 490 482 475 480 506 476 490 488 508 464 460 461 471 485 477 479 461 465 452 453 489 0 0 0 0 0
0 0 0 0 0 0 0 0 0 0 0 0 0 0 0 0 0 0 0 0 0 0 0 0 0 0 0 0 495 465 462 468 471 467 472 471 473 470 472 475 473 476 472 471 480 480 477 477 483 482 482 481 482 484 480 478 488 481 485 483 488 486 485 481 485 484 487 487 485 484 487 481 478 484 475 480 476 478 475 476 484 484 484 481 475 476 499 479 497 490 489 486 488 481 476 472 479 480 469 480 494 494 461 454 451 445 453 451 465 446 444 438 468 494 503 0 0 0 0 0
0 0 0 0 0 258 247 256 327 0 0 0 0 0 0 0 0 0 0 0 0 2381 0 0 0 0 0 0 0 496 462 465 465 470 464 473 467 472 474 469 470 475 479 474 476 480 475 482 479 479 483 485 483 477 479 479 484 487 488 483 485 487 485 485 488 488 485 483 483 483 483 481 486 484 490 484 488 482 469 494 504 489 484 493 506 495 484 482 482 502 476 510 502 492 484 490 489 486 474 504 478 505 491 467 481 462 474 497 491 489 482 472 476 438 463 0 0 0 0 0
0 0 0 0 236 233 232 231 232 292 324 0 0 0 0 0 0 0 0 0 0 2377 0 0 0 0 0 0 0 0 461 464 460 466 470 467 469 464 473 469 476 475 470 470 476 473 474 475 478 481 476 485 483 482 482 479 481 477 476 482 480 484 482 484 482 487 482 485 482 476 470 467 476 469 476 484 475 462 473 471 466 470 469 478 473 470 472 490 469 478 476 463 485 470 469 462 477 456 472 471 484 479 478 458 471 443 440 454 450 450 486 419 441 0 0 0 0 0 0 0
0 0 0 249 219 233 228 225 235 243 347 0 0 0 0 0 0 0 0 0 0 0 0 0 0 0 0 0 0 0 0 474 458 468 467 469 466 468 470 471 475 469 471 467 477 471 475 480 478 475 481 480 480 477 484 476 482 478 480 478 482 481 480 481 482 479 482 474 482 473 480 491 480 478 485 483 479 474 482 475 479 475 485 486 482 500 481 478 491 491 476 476 504 466 482 473 484 495 494 493 487 513 465 501 473 459 458 493 481 458 488 445 459 437 470 0 0 0 0 0
238 267 237 266 281 305 275 234 238 239 356 0 388 445 447 409 433 428 422 436 484 443 471 455 463 455 457 453 456 458 457 469 468 471 466 464 469 468 468 467 468 471 477 470 469 468 472 476 474 475 478 474 477 478 483 480 479 487 478 485 475 483 475 482 487 480 483 481 484 482 487 472 474 482 481 470 480 483 477 473 491 464 493 486 495 490 481 493 489 476 484 480 488 473 485 482 465 481 489 477 478 511 493 485 482 500 476 501 493 517 511 521 458 486 532 0 0 0 0 0
218 213 217 221 226 232 253 230 226 260 354 412 399 388 388 387 399 400 404 409 410 411 410 416 431 434 434 439 444 446 452 449 453 452 456 456 452 465 461 458 462 458 458 466 462 463 470 471 472 471 459 466 473 473 467 471 463 473 472 474 471 468 472 471 471 476 471 468 469 469 467 474 464 464 456 454 456 455 459 463 455 462 458 454 444 453 455 456 456 460 454 453 459 451 445 449 438 451 445 459 442 453 449 453 436 436 450 445 442 436 419 446 431 436 470 477 419 0 0 0
225 214 230 232 249 254 241 225 240 322 427 373 398 373 377 377 398 395 392 390 411 394 392 406 422 412 419 421 437 447 448 449 440 451 441 450 436 440 447 450 444 453 448 453 448 460 454 460 460 463 455 453 460 456 456 463 460 457 463 469 461 470 460 460 464 459 463 463 458 461 459 453 443 449 442 438 439 439 435 432 437 430 441 432 440 439 433 440 437 429 441 446 441 439 438 431 418 436 435 428 441 428 435 436 448 423 432 425 433 421 444 431 427 437 434 437 491 439 442 406
264 274 245 223 238 228 234 234 250 341 328 338 331 345 337 333 344 348 329 343 339 356 365 374 378 391 390 398 414 419 418 420 420 428 425 428 437 429 434 426 426 433 429 429 436 434 440 440 445 440 445 440 444 440 443 447 446 450 450 441 450 444 441 447 438 445 437 439 442 442 439 433 427 427 423 410 413 391 413 404 400 394 391 394 396 405 401 384 391 400 393 398 396 390 405 391 396 396 394 390 400 399 396 408 377 384 398 392 399 403 393 371 393 391 405 369 413 412 413 0
289 285 280 239 242 231 231 239 270 297 310 302 309 298 306 316 313 300 302 314 322 322 326 337 349 372 386 388 389 395 391 395 406 408 406 403 411 415 405 407 411 410 413 408 412 412 418 426 417 414 415 412 420 422 421 417 421 421 412 420 420 418 419 424 416 417 415 417 415 419 411 404 401 399 404 390 379 374 368 351 359 363 358 360 361 360 364 354 360 373 364 362 360 367 353 353 353 357 359 366 346 358 363 355 368 363 354 355 350 334 339 347 337 359 327 325 299 360 331 364
298 276 281 270 260 250 256 295 283 292 275 287 282 295 291 278 283 292 296 287 292 306 320 318 341 353 359 366 370 372 386 388 397 390 383 389 390 393 395 400 393 395 387 398 385 397 397 390 397 400 395 403 396 398 396 395 402 402 404 401 397 398 403 401 385 384 397 396 390 392 391 386 392 381 378 369 357 347 341 332 345 331 326 332 332 337 341 338 334 329 330 341 333 333 336 336 333 318 330 336 336 328 339 331 347 339 346 345 332 324 347 342 360 346 367 309 338 342 341 309
236 233 243 247 238 245 245 257 258 244 249 254 250 249 244 260 254 260 267 265 267 281 284 298 299 320 335 332 346 354 351 354 356 363 366 356 362 374 366 362 363 368 369 367 364 368 366 368 359 365 380 371 372 369 373 373 369 374 377 377 375 373 375 376 370 375 368 370 367 366 369 364 366 351 345 338 319 317 313 305 299 287 301 294 294 304 296 306 298 295 302 303 292 297 291 291 287 284 283 290 299 314 302 289 294 295 300 291 308 284 287 287 282 291 286 297 285 329 277 254
218 223 229 232 247 237 247 248 251 245 237 249 246 239 249 244 245 246 251 258 255 270 271 277 303 308 321 331 328 330 341 333 347 345 342 345 349 347 341 345 351 346 346 351 351 347 349 352 347 341 341 339 346 350 349 348 356 346 355 347 352 353 352 345 347 346 351 350 349 345 345 345 341 335 329 325 311 297 289 289 289 274 285 279 281 276 279 280 282 276 274 271 285 275 278 271 274 275 274 282 289 277 271 272 273 277 270 282 274 280 280 286 272 281 298 275 289 291 277 304
208 214 221 223 233 220 220 229 225 223 238 227 224 233 233 230 232 232 233 241 252 250 255 261 275 284 299 298 302 310 308 316 321 320 316 318 327 319 328 328 326 324 320 317 330 326 327 327 327 327 323 321 328 327 328 334 329 320 333 328 332 331 330 326 330 331 330 331 324 322 319 328 316 315 310 299 289 278 269 270 266 258 262 268 260 259 265 258 267 260 260 265 264 258 265 250 255 256 260 265 268 266 267 267 255 265 269 261 268 274 280 271 268 266 262 278 284 285 307 302
198 204 200 217 216 211 212 215 209 212 209 213 212 211 210 213 214 220 220 219 229 235 251 252 258 262 273 275 280 288 288 288 295 291 299 289 292 292 306 300 301 303 298 296 303 294 302 301 305 304 306 306 301 303 302 304 306 303 307 307 304 307 311 308 307 310 302 303 301 304 302 298 302 291 286 277 268 265 262 252 241 250 247 247 243 250 252 233 238 246 255 246 239 245 242 240 246 241 243 240 244 246 241 246 246 247 249 247 240 247 244 258 248 247 255 252 270 245 239 254
197 209 208 202 195 209 210 215 205 189 205 203 190 191 205 207 211 205 216 211 219 226 234 235 239 249 249 260 267 276 273 268 272 273 277 283 281 281 282 287 280 284 286 289 282 280 285 287 281 288 282 285 276 283 284 284 290 287 284 289 289 290 290 290 289 289 285 285 287 283 283 283 280 274 270 264 254 249 246 237 234 224 228 233 231 227 229 225 226 236 227 233 227 240 221 231 229 223 231 233 230 230 224 228 231 223 227 235 241 225 247 239 240 255 240 254 247 229 244 246
176 182 190 193 182 182 185 201 180 178 177 183 177 187 181 180 183 181 185 190 212 212 216 226 225 236 237 240 245 249 255 254 257 257 259 258 258 265 264 266 265 263 263 268 265 264 266 271 261 265 265 271 268 266 265 266 267 270 270 272 270 266 262 270 265 271 270 270 273 263 265 257 256 253 251 246 240 231 222 223 218 220 215 219 198 220 219 217 215 219 209 219 217 199 215 213 212 209 208 213 214 219 215 210 210 205 209 210 208 216 218 225 218 232 212 221 244 217 223 240
176 169 170 173 179 178 179 173 180 176 179 182 179 180 182 184 183 185 185 181 183 192 188 199 212 215 225 225 227 235 233 240 239 239 236 242 240 243 243 245 244 245 253 246 248 250 249 248 248 250 246 251 243 245 242 248 249 249 246 251 251 251 253 247 246 246 249 248 245 245 248 246 242 239 232 227 218 216 200 201 190 196 188 187 192 191 195 201 194 195 196 189 186 182 194 194 186 203 190 196 185 205 205 187 187 195 181 198 181 198 200 204 208 212 199 200 184 202 207 185
165 173 176 177 173 176 174 171 176 182 175 175 175 177 182 177 177 182 185 184 185 178 185 195 207 193 212 215 219 225 227 222 225 226 227 225 229 234 230 233 230 231 231 232 233 236 230 229 235 234 234 233 232 232 232 232 235 237 235 237 233 237 237 232 237 231 232 228 233 229 235 230 227 226 216 200 213 198 187 189 193 193 193 191 189 193 193 191 191 194 182 181 187 182 182 186 181 189 187 182 189 181 182 176 188 183 179 183 178 185 184 181 179 202 204 212 188 202 194 217
157 162 166 167 168 166 167 166 168 163 166 162 166 162 168 170 172 174 176 181 174 182 189 191 186 183 183 189 193 209 209 215 208 213 212 215 212 199 197 199 213 216 218 218 215 220 218 222 218 225 217 220 219 219 217 222 220 217 218 224 218 223 222 219 221 201 213 220 222 217 223 217 216 210 191 191 185 196 194 190 186 180 185 183 183 181 181 184 183 183 178 178 181 178 182 182 182 179 182 180 183 183 187 181 178 181 179 176 179 174 179 175 179 172 182 177 171 169 174 181
150 155 161 157 161 164 160 166 167 165 161 161 160 154 162 163 162 172 171 177 171 173 180 183 183 185 188 184 182 189 181 188 186 184 184 190 186 187 187 188 192 193 190 191 197 200 191 198 191 194 196 195 199 199 198 195 194 195 197 197 203 197 198 190 193 191 192 196 195 198 215 193 194 192 197 195 194 190 185 179 177 179 176 174 176 171 176 173 178 178 174 177 173 170 172 172 173 167 169 171 170 173 169 175 178 167 167 166 170 169 169 171 172 176 178 174 170 164 173 173
151 151 151 152 158 154 154 160 161 158 157 159 158 158 162 156 160 162 159 165 167 169 177 174 179 183 178 182 183 186 187 189 186 190 189 187 193 193 191 192 195 193 192 195 191 196 197 200 197 193 193 199 196 196 189 193 196 200 198 198 197 195 197 189 193 196 196 200 198 197 195 193 192 189 191 185 184 185 180 174 171 172 168 164 169 169 170 168 168 168 173 169 170 166 177 163 165 165 165 171 167 166 170 170 169 163 161 167 171 166 166 175 171 175 175 165 165 173 181 155
145 143 145 145 144 149 145 154 151 150 149 150 151 155 149 150 153 148 156 159 159 166 165 173 170 172 172 175 177 180 177 176 181 182 179 182 182 180 181 185 184 187 186 185 186 186 183 184 190 188 185 187 188 188 187 186 187 190 0 189 189 186 185 185 189 191 187 190 184 186 185 183 181 177 175 175 172 171 171 163 160 155 160 160 160 160 164 161 162 161 160 163 161 164 160 158 156 157 164 163 158 168 162 159 156 155 155 161 154 165 155 159 158 164 158 164 167 160 168 160
137 139 138 142 139 150 150 145 144 149 147 147 143 147 148 148 148 151 147 152 159 161 165 166 166 169 171 170 168 169 172 171 178 174 173 175 175 172 175 176 177 181 180 177 176 179 176 178 176 178 178 182 177 182 182 182 182 0 0 180 180 182 181 180 182 181 177 181 178 178 174 178 177 178 173 173 170 166 163 163 163 156 156 155 157 156 158 155 154 155 150 156 157 157 154 155 157 155 156 155 155 155 156 161 154 150 148 152 163 160 152 153 154 155 151 162 162 167 165 162
137 133 130 136 143 141 148 141 144 139 139 140 142 143 143 137 141 145 145 145 150 153 155 156 162 158 161 159 165 167 163 165 167 165 164 165 166 171 168 170 172 0 172 171 173 175 170 174 171 173 176 174 175 174 174 0 176 172 0 176 0 0 175 174 171 170 173 169 170 171 169 167 167 170 165 164 165 157 156 155 153 155 152 150 152 150 149 147 151 156 147 151 152 152 149 146 152 151 154 148 148 146 147 149 146 142 142 141 148 148 147 143 145 149 152 146 147 153 146 165
132 125 125 115 133 136 143 140 132 131 135 129 127 132 139 127 133 139 135 142 141 144 147 152 149 160 156 158 158 160 158 155 157 159 157 158 163 160 0 0 0 0 0 0 0 0 0 167 164 167 167 165 167 167 0 0 170 167 0 0 0 0 0 0 164 166 168 0 160 164 164 161 162 157 154 156 154 156 149 152 150 148 142 145 142 148 142 144 147 145 143 146 145 148 138 138 142 147 141 140 137 142 143 140 135 134 137 135 135 140 140 141 144 147 148 140 131 137 135 128
115 130 124 116 117 130 134 131 138 123 132 133 124 129 133 127 122 136 137 136 139 142 146 148 148 149 154 153 153 153 153 156 156 158 155 153 154 0 0 0 0 0 0 0 0 0 0 0 0 162 165 162 0 0 0 0 0 0 0 0 0 0 0 0 161 163 0 0 0 0 0 157 161 155 155 151 150 152 149 143 140 138 143 146 142 142 145 140 146 142 135 140 140 142 140 138 143 142 137 140 138 134 141 135 131 136 133 135 141 143 133 154 134 143 133 142 143 132 139 145
113 105 115 119 125 125 130 130 127 118 132 120 119 119 118 122 125 123 131 134 124 125 133 144 140 139 142 147 144 151 151 148 154 152 151 147 0 0 0 0 0 0 0 0 0 0 0 0 150 153 156 0 0 0 0 0 0 0 0 0 0 0 0 0 0 0 0 0 0 0 0 0 148 150 150 147 148 142 141 141 130 139 128 127 129 126 136 138 128 130 135 129 133 129 118 129 138 142 134 124 126 137 131 130 125 133 129 121 131 132 134 131 135 136 131 123 116 128 115 124
103 109 112 108 110 116 121 120 116 120 119 115 119 117 128 121 119 117 127 117 130 125 127 125 135 140 139 139 143 144 142 139 142 145 144 141 0 0 0 0 0 0 0 0 0 0 0 0 0 0 0 0 0 0 0 0 0 0 0 0 0 0 0 0 0 0 0 0 0 0 0 0 142 140 141 141 139 132 129 129 124 121 121 126 125 116 124 127 123 128 124 123 117 129 125 126 127 133 122 120 119 132 133 116 120 129 114 119 133 134 126 133 115 118 113 129 110 113 118 109
111 107 112 117 117 116 116 127 119 117 115 122 115 115 119 126 121 127 124 114 120 116 123 117 135 127 136 137 0 140 0 0 0 139 142 0 0 0 0 0 0 0 0 0 0 0 0 0 0 0 0 0 0 0 0 0 0 0 0 0 0 0 0 0 0 0 0 0 0 0 0 0 0 142 127 127 123 124 120 123 120 116 124 125 113 123 116 122 118 120 118 130 118 114 116 121 120 121 126 120 120 122 120 123 123 118 128 122 110 133 129 112 135 122 134 118 130 139 139 144
102 99 108 112 107 104 103 106 101 102 109 105 105 108 103 109 111 110 114 112 112 116 111 117 122 120 126 122 121 124 0 0 0 0 0 0 0 0 0 0 0 0 0 0 0 0 0 0 0 0 0 0 0 0 0 0 0 0 0 0 0 0 0 0 0 0 0 0 0 0 0 0 130 0 0 127 119 120 121 115 113 113 108 112 112 115 111 111 112 115 112 118 109 111 111 105 110 113 112 109 115 111 112 117 115 115 110 112 123 106 107 108 106 133 109 101 123 120 124 140
97 101 91 96 100 102 105 102 102 105 103 105 107 110 111 105 108 109 117 104 109 110 110 109 112 111 117 119 121 122 0 128 0 0 0 0 0 0 0 0 0 0 0 0 0 0 0 0 0 0 0 0 0 0 0 0 0 0 0 0 0 0 0 0 0 0 0 0 0 0 0 0 0 126 0 117 121 116 113 114 114 110 109 105 110 111 110 117 105 110 115 116 111 116 106 116 107 110 101 118 115 106 114 107 110 112 107 114 120 114 105 106 111 103 110 136 134 114 127 146
95 103 101 106 100 97 103 92 95 98 99 97 103 98 98 95 107 103 112 115 113 105 98 109 114 107 114 116 115 121 121 119 122 0 0 0 0 0 0 0 0 0 0 0 0 0 0 0 0 0 0 0 0 0 0 0 0 0 0 0 0 0 0 0 0 0 0 0 0 0 0 0 124 120 111 121 112 116 114 116 105 112 103 121 109 109 104 101 102 104 107 108 111 96 99 102 106 100 115 107 106 116 108 105 113 106 108 93 101 105 109 101 101 91 107 105 137 124 123 134
85 81 84 86 84 82 84 95 90 83 88 93 96 99 93 87 80 95 95 88 90 87 100 105 101 101 113 108 0 0 107 108 118 0 0 0 0 0 0 0 0 0 0 0 0 0 0 0 0 0 0 0 0 0 0 0 0 0 0 0 0 0 0 0 0 0 0 0 0 0 0 114 112 108 106 111 106 102 103 101 101 102 97 88 100 98 90 105 102 99 93 95 101 83 86 96 92 101 95 89 91 93 93 94 82 88 95 89 94 85 91 90 86 88 90 85 83 83 115 101
92 86 89 90 96 94 96 104 92 94 93 95 93 96 96 94 100 92 103 95 96 106 107 103 102 106 113 108 0 106 114 111 116 115 119 107 0 0 114 0 0 119 0 0 0 0 0 0 0 0 0 0 0 0 0 0 0 0 0 0 114 0 0 0 112 0 0 0 108 0 110 113 116 111 112 107 110 110 105 96 109 105 105 89 100 101 107 101 101 100 106 106 108 102 100 104 96 94 102 110 100 100 94 97 91 104 100 93 88 83 88 94 93 97 103 92 98 124 115 130
85 92 93 89 95 100 91 93 84 95 83 89 87 89 88 88 94 100 96 95 100 95 97 110 90 105 104 103 103 108 91 0 105 102 99 106 0 114 113 0 108 0 0 0 0 0 0 0 0 0 0 0 0 0 0 0 0 109 0 0 110 107 104 111 114 109 105 101 113 106 108 100 101 102 113 106 99 91 99 93 95 96 99 85 95 92 90 101 108 97 97 106 109 88 95 83 89 92 94 85 95 83 90 98 84 87 97 89 96 90 93 82 82 83 90 86 108 108 92 84
84 86 84 88 93 92 102 88 90 83 89 84 87 92 89 91 90 87 93 88 78 94 94 83 85 91 93 93 104 90 98 99 95 101 95 110 101 104 103 101 102 98 98 110 106 92 0 0 97 0 0 107 102 92 100 109 103 103 109 105 101 106 109 102 100 111 101 95 100 107 98 109 104 98 103 92 95 99 97 89 94 95 96 96 91 92 96 96 93 94 97 87 90 88 92 92 86 84 93 81 88 87 88 92 82 85 96 90 83 90 90 100 95 105 86 100 113 91 132 128
86 83 86 85 84 84 98 103 86 85 89 81 84 91 87 88 91 93 92 96 83 96 96 93 91 94 95 91 99 101 98 82 100 91 97 95 102 100 94 105 103 96 101 106 101 94 105 0 102 103 101 102 99 99 100 104 104 105 97 107 108 94 95 101 101 98 100 101 94 106 100 103 103 97 104 89 96 97 95 88 99 96 95 94 97 98 88 87 92 90 84 98 89 91 94 94 97 96 101 85 92 98 93 89 91 101 98 92 92 83 86 98 103 98 111 131 132 113 158 139
82 74 71 71 80 85 85 90 90 82 85 83 86 78 88 84 87 87 86 86 92 85 92 88 89 83 94 95 87 91 91 92 82 90 97 86 95 96 92 96 92 91 83 91 96 93 88 103 95 89 94 84 96 89 89 80 101 88 102 97 96 98 98 98 96 97 97 96 96 98 95 91 97 93 87 95 92 96 94 96 85 93 86 87 87 91 87 84 86 90 94 78 91 83 86 90 84 78 77 88 83 87 83 74 83 81 88 82 80 92 86 88 82 88 78 118 105 111 125 65
72 77 83 88 72 83 85 89 86 86 88 76 83 82 84 89 87 89 85 87 85 93 88 84 89 84 92 87 87 92 86 95 90 95 86 92 86 93 92 93 94 96 94 90 89 97 91 89 102 93 93 96 98 87 107 95 92 86 92 95 100 86 89 93 91 97 88 96 107 94 83 97 86 95 96 85 93 96 95 94 95 89 91 90 81 86 87 80 95 91 81 92 79 84 90 84 91 88 85 82 85 82 81 77 76 86 85 83 86 95 93 87 79 121 112 121 120 123 128 225
