0 0 0 0 0 0 0 0 0 0 0 0 0 0 0 0 0 0 0 0 0 0 0 0 0 0 0 0 0 0 0 0 0 0 0 0 0 0 0 0 0 0 0 0 0 0 0 0 0 0 0 0 0 0 0 0 0 0 0 0 0 0 0 0 0 0 0 0 0 0 0 0 0 0 0 0 0 0 0 0 0 0 0 0 0 0 0 0 0 0 0 0 0 0 0 0 0 0 0 0 0 0 0 0 0 0 0 0 0 0 0 0 0 0 0 0 0 0 0 0
0 0 0 0 0 0 0 0 0 0 0 0 0 0 0 0 0 0 0 0 0 0 0 0 0 0 0 0 0 0 0 0 0 0 0 0 0 0 0 0 0 0 0 0 0 0 0 0 0 0 0 0 0 0 0 0 0 0 0 0 0 0 0 0 0 0 0 0 0 0 0 0 0 0 0 0 0 0 0 0 0 0 0 0 0 0 0 0 0 0 0 0 0 0 0 0 0 0 0 0 0 0 0 0 0 0 0 0 0 0 0 0 0 0 0 0 0 0 0 0
0 0 0 0 0 0 0 0 0 0 0 0 0 0 0 0 0 0 0 0 0 0 0 0 0 0 0 0 0 0 0 0 0 0 0 0 0 0 0 0 0 0 0 0 0 0 0 0 0 0 0 0 0 0 0 0 0 0 0 0 0 0 0 0 0 0 0 0 0 0 0 0 0 0 0 0 0 0 0 0 0 0 0 0 0 0 0 0 0 0 0 0 0 0 0 0 0 0 0 0 0 0 0 0 0 0 0 0 0 0 0 0 0 0 0 0 0 0 0 0
0 0 0 0 0 0 0 0 0 0 0 0 0 0 0 0 0 0 0 0 0 0 0 0 0 0 0 0 0 0 0 0 0 0 0 0 0 0 0 0 0 0 0 0 0 0 0 0 0 0 0 0 0 0 0 0 0 0 0 0 0 0 0 0 0 0 0 0 0 0 0 0 0 0 0 0 0 0 0 0 0 0 0 0 0 0 0 0 0 0 0 0 0 0 0 0 0 0 0 0 0 0 0 0 0 0 0 0 0 0 0 0 0 0 0 0 0 0 0 0
0 0 0 0 0 0 0 0 0 0 0 0 0 0 0 0 0 0 0 0 0 0 0 0 0 0 0 0 0 0 0 0 0 0 0 0 0 0 0 0 0 0 0 0 0 0 0 0 0 0 0 0 0 0 0 0 0 0 0 0 0 0 0 0 0 0 0 0 0 0 0 0 0 0 0 0 0 0 0 0 0 0 0 0 0 0 0 0 0 0 0 0 0 0 0 0 0 0 0 0 0 0 0 0 0 0 0 0 0 0 0 0 0 0 0 0 0 0 0 0
0 0 0 0 0 0 0 0 0 0 0 0 0 0 0 0 0 0 0 0 0 0 0 0 0 0 0 0 0 0 0 0 0 0 0 0 0 0 0 557 561 501 487 526 537 520 527 522 518 516 519 521 538 562 523 0 0 0 0 0 0 0 0 0 0 0 0 0 0 0 0 0 0 0 0 0 0 0 0 0 0 0 0 0 0 0 0 0 0 0 0 0 0 0 0 0 0 0 0 0 0 0 0 0 0 0 0 0 0 0 0 0 0 0 0 0 0 0 0 0
0 0 0 0 0 0 0 0 0 0 0 0 0 0 0 0 0 0 0 0 0 0 0 0 0 0 0 0 0 0 0 0 0 0 0 0 0 500 504 499 493 490 485 509 505 498 507 503 496 520 503 505 501 486 505 515 511 499 466 518 0 0 0 0 0 0 0 0 0 0 0 0 0 0 0 0 0 0 0 0 0 0 0 0 0 0 0 0 0 0 0 0 0 0 0 0 0 0 0 0 0 0 0 0 0 0 0 0 0 0 0 0 0 0 0 0 0 0 0 0
0 0 0 0 0 0 0 0 0 0 0 0 0 0 0 0 0 0 0 0 0 0 0 0 0 0 0 0 0 0 0 0 0 0 0 522 507 516 503 504 513 510 505 520 507 508 513 527 503 505 516 515 518 501 526 517 511 519 511 504 518 517 533 535 541 0 0 0 0 0 0 0 0 0 0 0 0 0 0 0 0 0 0 0 0 0 0 0 0 0 0 0 0 0 0 0 0 0 0 0 0 0 0 0 0 0 0 0 0 0 0 0 0 0 0 0 0 0 0 0
0 0 0 0 0 0 0 0 0 0 0 0 0 0 0 0 0 0 0 0 0 0 0 0 0 0 0 0 0 0 0 0 0 480 494 497 498 511 502 500 512 509 502 509 511 505 504 505 509 513 502 494 515 497 506 522 517 491 519 498 510 511 506 510 515 504 510 521 560 574 525 573 595 574 608 618 602 604 0 573 0 0 0 0 0 0 0 0 0 0 0 0 0 0 0 0 0 0 0 0 0 0 0 0 0 0 0 0 0 0 0 0 0 0 0 0 0 0 0 0
0 0 0 0 0 0 0 0 0 0 0 0 0 0 0 0 0 0 0 0 0 0 0 0 0 0 0 0 0 0 0 515 488 514 483 512 485 493 504 493 503 490 494 500 505 492 498 514 501 515 498 507 507 503 496 507 509 500 507 505 520 513 502 505 498 499 518 511 513 518 535 541 570 531 562 611 551 567 560 595 548 546 558 560 564 519 504 577 533 606 570 530 544 513 571 552 536 585 553 585 570 570 525 542 0 0 0 0 0 0 0 0 0 0 0 0 0 0 0 0
0 0 0 0 0 0 0 0 0 0 0 0 0 0 0 0 0 0 0 0 0 0 0 0 0 0 0 0 0 0 524 506 514 488 481 502 506 501 505 509 518 506 517 500 512 515 514 507 499 511 512 506 515 508 513 517 509 505 495 509 502 502 507 507 508 510 512 522 511 507 557 578 526 589 566 569 589 547 599 540 558 571 585 578 564 564 609 598 570 537 617 554 584 598 602 595 618 568 588 569 596 560 540 595 585 562 572 0 576 0 0 0 0 0 0 0 0 0 0 0
0 0 0 0 0 0 0 0 0 0 0 0 0 0 0 0 0 0 0 0 0 0 0 0 0 0 0 0 498 507 509 504 494 503 494 495 502 499 500 494 508 500 496 497 503 514 493 503 501 503 497 499 503 502 501 497 507 499 497 509 508 499 500 503 509 507 497 504 510 506 500 518 538 584 570 549 516 523 521 540 519 540 509 530 507 582 561 531 510 537 584 531 494 532 596 530 505 534 479 530 593 537 543 509 560 511 535 555 0 0 0 0 0 0 0 0 0 0 0 0
0 0 0 0 0 0 0 0 0 0 0 0 0 0 0 0 0 0 0 0 0 0 0 0 0 0 0 493 503 499 505 493 500 500 493 487 511 496 507 506 500 500 505 507 495 502 502 507 498 504 509 506 518 502 507 515 499 505 504 515 513 503 506 507 511 502 505 512 514 513 512 523 578 552 553 552 549 562 548 553 509 549 553 587 563 587 511 569 580 562 603 575 548 558 588 547 531 568 571 536 560 604 553 568 505 609 589 599 0 0 0 0 0 0 0 0 0 0 0 0
0 0 0 0 0 0 0 0 0 0 0 0 0 0 0 0 0 0 0 0 0 0 0 0 0 0 514 506 490 513 501 507 493 500 500 501 502 491 509 503 500 506 503 508 500 507 505 500 502 501 514 509 511 509 509 505 509 512 516 511 503 515 509 510 518 514 513 503 512 507 511 514 542 590 561 585 552 596 546 530 594 610 593 556 575 572 575 621 583 571 592 600 599 581 593 578 592 610 590 578 611 572 570 599 586 619 601 577 576 0 0 0 0 0 0 0 0 0 0 0
0 0 0 0 0 0 0 0 0 0 0 0 0 0 0 0 0 0 0 0 0 0 0 0 0 453 501 487 502 495 498 485 495 488 490 490 499 500 496 504 503 503 502 500 490 502 500 498 500 502 502 508 496 499 504 509 494 508 506 510 508 507 509 504 507 502 515 499 520 516 509 504 496 543 556 552 536 511 560 534 517 527 551 553 488 553 538 555 575 514 562 544 506 528 538 537 517 524 539 542 529 535 498 554 564 556 522 536 510 451 583 0 0 0 0 0 0 0 0 0
0 0 0 0 0 0 0 0 0 0 0 0 0 0 0 0 0 0 0 0 0 0 0 0 0 489 485 492 507 490 496 502 507 501 501 499 500 499 497 498 513 509 504 509 500 507 503 504 501 502 508 509 508 510 506 499 506 508 502 513 509 501 517 515 506 509 515 512 509 507 515 523 507 534 595 558 545 574 562 587 568 563 566 568 512 526 573 575 582 536 554 577 588 570 549 554 559 546 593 581 558 550 540 573 600 586 590 569 609 611 553 582 561 524 0 0 0 0 0 0
0 0 0 0 0 0 0 0 0 0 0 0 0 0 0 0 0 0 0 0 0 0 0 0 484 487 496 489 506 490 494 493 497 491 498 500 499 490 494 492 505 499 489 504 496 507 504 502 495 497 495 501 503 507 502 507 504 505 503 511 502 499 504 505 503 507 508 499 511 508 513 500 514 517 523 535 568 535 517 552 529 545 520 546 533 535 548 516 547 571 526 563 535 542 531 531 521 561 564 565 596 534 562 550 577 566 574 565 500 509 539 0 0 0 0 0 0 0 0 0
0 0 0 0 0 0 0 0 0 0 0 0 0 0 0 0 0 0 0 0 0 0 0 0 475 479 485 493 494 494 492 491 491 493 496 493 490 485 490 509 485 492 499 492 489 501 495 494 496 495 499 508 501 499 502 498 504 500 500 506 507 494 508 508 502 506 506 501 503 505 507 512 505 509 513 509 532 514 537 513 509 530 540 534 530 510 524 554 509 514 532 510 498 510 535 524 529 512 555 511 507 537 527 508 504 554 524 498 475 517 0 0 0 0 0 0 0 0 0 0
0 0 0 0 0 0 0 0 0 0 0 0 0 0 0 0 0 0 0 0 0 0 0 473 498 501 490 491 489 487 488 493 493 494 501 488 497 488 490 499 493 492 495 496 497 503 501 508 501 509 505 502 504 504 506 502 507 504 503 505 508 495 511 502 505 503 511 504 509 506 508 498 511 503 507 518 526 523 539 504 517 517 546 519 558 516 526 521 540 529 531 553 566 557 538 541 513 519 542 553 546 544 525 534 497 550 534 525 467 526 529 0 0 0 0 0 0 0 0 0
0 0 0 0 0 0 0 0 0 0 0 0 0 0 0 0 0 0 0 0 0 0 0 495 479 490 482 485 502 493 498 495 493 497 484 491 485 481 489 495 485 494 503 495 498 504 496 501 493 499 493 500 494 495 497 500 498 508 501 490 500 499 500 499 495 505 492 503 497 503 512 497 500 508 510 499 515 512 497 528 515 539 504 552 528 524 523 521 538 542 523 511 514 478 509 479 508 506 552 525 514 528 518 540 512 495 492 513 513 508 485 0 0 0 0 0 0 0 0 0
0 0 0 0 0 0 0 0 0 0 0 0 0 0 0 0 0 0 0 0 0 0 476 492 491 496 490 489 488 488 499 498 493 495 481 488 489 487 495 486 492 505 498 496 491 492 506 499 494 499 492 493 503 496 507 494 505 503 505 511 504 499 510 504 496 507 501 506 498 503 505 506 511 496 504 509 509 540 545 517 519 543 519 513 511 551 525 519 486 561 538 508 522 513 557 520 557 524 530 548 513 535 525 526 540 533 557 521 539 479 528 534 492 0 0 0 0 0 0 0
0 0 0 0 0 0 0 0 0 0 0 0 0 0 0 0 0 0 0 0 0 0 489 495 490 489 495 493 496 500 493 491 492 490 498 497 491 497 496 488 501 500 491 510 503 492 503 495 502 506 500 500 499 502 501 501 503 507 508 504 506 506 502 508 516 508 509 510 511 501 504 507 517 503 515 512 523 533 524 552 557 544 549 549 556 547 524 522 524 554 531 537 523 559 521 516 528 537 534 523 566 555 553 568 574 538 552 564 547 557 506 0 0 0 0 0 0 0 0 0
0 0 0 0 0 0 0 0 0 0 0 0 0 0 0 0 0 0 0 0 0 0 490 472 487 485 493 491 495 489 486 486 491 491 487 491 488 500 484 490 491 499 496 499 505 507 498 500 491 493 490 498 495 497 502 499 509 502 503 502 502 502 504 508 498 502 502 504 506 505 504 501 513 502 511 502 511 524 531 511 526 508 532 512 507 550 518 508 503 506 511 499 559 519 526 518 502 521 534 513 536 496 532 520 510 541 513 525 506 515 521 508 517 0 0 0 0 0 0 0
0 0 0 0 0 0 0 0 0 0 0 0 0 0 0 0 0 0 0 0 0 0 513 498 496 484 491 490 495 485 490 493 500 489 494 490 486 501 494 490 501 500 497 495 502 501 500 507 499 500 502 507 506 503 498 505 502 506 506 505 504 508 502 511 502 503 509 499 505 504 515 510 504 508 501 515 506 530 524 525 520 528 554 517 527 525 557 531 535 531 545 538 530 545 574 530 576 522 541 544 568 571 584 575 516 556 544 556 546 522 536 570 578 0 0 0 0 0 0 0
0 0 0 0 0 0 0 0 0 0 0 0 0 0 0 0 0 0 0 0 0 0 485 484 483 495 486 491 487 489 487 491 497 487 490 489 486 497 487 487 492 498 512 498 492 495 496 494 500 498 497 498 499 500 493 498 501 498 499 495 504 511 499 495 510 497 499 506 499 499 500 495 506 503 507 502 501 509 497 525 532 507 536 548 549 536 544 525 483 525 518 501 544 534 498 525 514 501 526 519 531 495 536 536 538 533 512 530 482 511 519 522 526 0 0 0 0 0 0 0
0 0 0 0 0 0 0 0 0 0 0 0 0 0 0 0 0 0 0 0 0 0 471 472 498 485 486 489 484 488 495 486 487 489 489 486 488 488 497 494 490 495 486 495 492 500 494 500 492 499 503 498 496 502 497 501 497 497 501 496 509 497 498 500 502 503 501 497 490 502 496 502 507 501 499 497 504 506 517 508 512 501 498 514 525 493 499 499 513 501 523 493 505 515 506 496 508 508 499 487 518 510 499 509 512 511 516 501 466 441 502 539 476 493 0 0 0 0 0 0
0 0 0 0 0 0 0 0 0 0 0 0 0 0 0 0 0 0 0 0 0 477 479 493 485 484 490 488 501 484 481 497 483 495 490 483 494 498 487 495 491 504 498 493 500 496 488 494 499 493 493 498 499 498 501 497 494 502 498 501 507 504 504 502 499 503 502 502 495 502 507 500 497 505 506 513 511 513 515 518 514 522 512 475 506 530 506 500 523 524 512 531 538 519 493 513 531 526 533 528 538 536 558 497 531 504 540 516 550 522 555 0 0 0 0 0 0 0 0 0
0 0 0 0 0 0 0 0 0 0 0 0 0 0 0 0 0 0 0 0 0 426 476 482 483 478 483 480 481 474 480 482 492 483 487 497 486 488 483 485 491 496 496 494 493 489 493 493 496 498 497 500 493 495 497 503 503 498 502 498 501 499 496 492 495 497 501 497 497 497 492 501 500 502 506 504 505 512 509 511 514 504 480 499 478 476 487 486 501 488 493 474 507 494 503 480 502 473 488 504 490 465 496 472 462 496 501 481 507 482 486 421 0 0 0 0 0 0 0 0
0 0 0 0 0 0 0 0 0 0 0 0 0 0 0 0 0 0 0 0 0 474 479 483 483 486 486 487 479 476 491 481 486 484 489 489 485 490 486 499 491 488 491 494 495 489 495 491 498 498 500 496 500 499 497 498 496 501 500 501 510 500 499 502 498 498 503 509 508 504 502 505 502 505 502 505 506 508 523 524 504 507 525 526 509 502 530 508 526 495 496 481 515 527 517 508 485 520 522 534 515 540 516 544 507 520 496 493 515 540 511 543 517 0 520 0 0 0 0 0
0 0 0 0 0 0 0 0 0 0 0 0 0 0 0 0 0 0 0 0 0 444 476 484 484 483 482 477 490 486 485 492 485 485 491 485 488 488 488 488 494 488 491 498 492 495 493 497 491 496 496 501 495 503 503 500 501 498 503 500 493 502 502 498 501 503 503 500 499 502 502 501 498 503 504 501 504 505 529 511 528 521 511 495 501 505 516 525 530 525 529 509 518 546 526 504 551 532 527 554 545 539 539 543 527 542 548 547 523 492 560 537 558 0 0 0 0 0 0 0
0 0 0 0 0 0 0 0 0 0 0 0 0 0 0 0 0 0 0 0 0 449 492 484 489 477 486 480 484 484 481 490 483 487 487 484 485 490 487 489 489 492 493 492 495 492 490 495 494 489 494 498 496 499 498 498 497 501 499 498 500 499 501 498 500 502 498 500 498 503 506 498 509 507 497 498 495 507 511 522 514 501 513 528 518 490 513 523 515 523 526 517 510 508 497 528 505 497 516 481 524 502 511 473 516 522 535 490 507 542 496 485 529 0 0 0 0 0 0 0
0 0 0 0 0 0 0 0 0 0 0 0 0 0 0 0 0 0 0 0 0 504 477 488 489 487 481 476 486 483 485 485 490 490 490 487 488 490 492 493 492 492 488 492 488 491 497 494 499 498 495 489 497 500 496 496 494 494 495 498 498 501 499 501 503 504 505 505 497 506 506 503 501 501 500 500 500 501 511 508 523 524 522 521 527 517 526 503 517 508 535 486 514 508 517 523 499 520 509 523 520 526 542 515 508 533 518 516 529 552 529 531 493 538 0 0 0 0 0 0
0 0 0 0 0 0 0 0 0 0 0 0 0 0 0 0 0 0 0 0 0 453 473 475 476 478 472 477 479 480 481 484 481 476 487 486 483 490 483 484 488 492 490 493 485 489 486 491 490 496 494 493 495 495 493 496 491 495 498 498 498 501 499 499 499 497 501 496 506 501 503 499 505 492 496 498 496 499 496 494 495 507 500 518 501 513 479 484 520 493 503 506 508 484 516 522 508 510 504 503 504 513 489 506 487 508 502 494 501 507 492 524 536 0 0 0 0 0 0 0
0 0 0 0 0 0 0 0 0 0 0 0 0 0 0 0 0 0 0 0 0 469 481 473 476 478 480 475 471 483 478 478 479 487 478 486 487 484 487 489 485 485 484 490 484 491 485 494 491 490 486 496 492 492 499 490 494 495 494 495 496 496 497 496 498 500 496 499 498 497 499 491 495 498 497 497 497 490 508 510 491 489 483 479 488 485 507 504 488 497 493 506 479 489 503 495 483 484 472 507 510 500 486 514 487 510 492 496 486 520 471 481 463 499 0 0 0 0 0 0
0 0 0 0 0 0 0 0 0 0 0 0 0 0 0 0 0 0 0 0 0 450 476 481 476 474 478 481 480 479 476 491 479 488 484 486 486 488 485 491 492 492 488 489 490 495 492 489 493 489 498 490 493 495 492 492 495 499 496 494 498 499 502 497 496 499 497 499 496 494 500 497 498 503 495 503 499 494 498 514 521 494 509 503 515 498 509 511 511 513 497 504 512 493 523 513 522 491 511 510 509 505 483 521 533 486 497 510 477 529 505 499 512 471 0 0 0 0 0 0
0 0 0 0 0 0 0 0 0 0 0 0 0 0 0 0 0 0 0 0 0 445 464 472 470 470 472 474 473 480 476 480 475 477 480 478 481 482 482 485 485 483 485 490 491 490 488 489 486 496 487 489 494 493 501 490 494 494 496 495 492 497 495 495 502 497 497 497 498 495 495 496 492 494 498 498 503 498 506 492 489 505 489 493 491 485 490 474 493 481 497 481 483 486 476 485 508 494 473 490 480 487 514 506 481 503 502 468 484 484 507 464 451 484 0 0 0 0 0 0
0 0 0 0 0 0 0 0 0 0 0 0 0 0 0 0 0 0 0 0 0 492 476 470 481 471 485 481 477 479 481 484 481 482 481 487 489 482 483 490 485 486 493 486 485 490 489 494 488 492 490 490 494 494 492 494 492 495 495 498 495 493 496 499 502 499 498 498 500 499 500 494 499 500 496 501 494 495 495 497 515 512 493 493 491 492 487 498 505 494 484 506 499 479 497 486 480 492 530 495 503 521 523 509 500 493 516 496 489 515 528 531 505 474 0 0 0 0 0 0
0 0 0 0 0 0 0 0 0 0 0 0 0 0 0 0 0 0 0 0 0 0 475 478 479 474 473 476 482 480 479 482 484 483 489 482 487 480 488 484 485 482 486 481 486 490 491 487 496 489 493 495 491 495 495 495 490 490 496 490 501 497 498 495 498 501 501 493 498 498 493 498 495 496 493 495 494 501 492 499 495 491 497 492 507 494 495 507 500 521 506 519 518 506 523 503 512 516 510 518 494 521 473 514 540 525 512 512 523 500 475 504 530 490 501 0 0 0 0 0
0 0 0 0 0 0 0 0 0 0 0 0 0 0 0 0 0 0 0 0 0 0 491 470 475 474 474 472 476 481 478 478 479 479 478 480 472 484 484 481 483 487 484 486 483 488 486 489 492 489 493 493 494 489 491 490 499 493 494 497 495 495 496 493 500 496 492 495 492 490 496 496 497 492 497 493 494 495 485 500 505 490 499 499 511 498 503 482 493 500 518 513 499 481 512 485 496 500 481 475 480 495 494 481 490 470 487 477 487 515 482 448 451 448 389 0 0 0 0 0
0 0 0 0 0 0 0 0 0 0 0 0 0 0 0 0 0 0 0 0 0 0 505 471 474 479 477 475 480 478 481 479 480 483 482 485 483 485 483 487 485 485 485 487 490 493 492 490 492 495 491 497 492 494 494 499 496 491 493 499 498 496 492 498 502 496 502 497 493 498 495 495 498 492 495 498 499 505 506 505 506 513 516 524 532 520 539 517 530 542 545 532 518 524 522 522 553 507 521 533 506 509 536 530 495 550 514 539 524 532 536 533 507 572 538 496 0 0 0 0
0 0 0 0 0 0 0 0 0 0 0 0 0 0 0 0 0 0 0 0 0 0 617 476 471 468 472 475 472 474 471 481 476 480 485 483 483 480 482 488 490 487 483 488 490 488 487 490 499 490 492 496 498 492 493 494 492 496 495 497 497 493 500 495 499 496 498 495 493 499 488 494 494 496 494 493 500 490 491 492 507 485 523 504 510 507 508 486 514 502 527 516 512 502 505 533 485 526 523 510 503 498 507 496 512 475 514 506 490 496 499 483 552 461 479 0 0 0 0 0
0 0 0 0 0 0 0 0 0 0 0 0 0 0 0 0 0 0 0 0 0 0 718 474 470 469 471 467 472 474 471 477 479 485 473 479 479 482 480 482 487 486 487 487 486 486 486 488 486 491 493 488 491 486 489 491 490 491 491 495 493 495 495 490 494 495 494 498 495 494 502 489 499 494 489 488 487 477 481 496 483 483 488 480 490 490 482 501 468 488 480 491 504 499 480 495 464 505 487 500 514 509 464 461 463 472 456 482 457 490 461 480 428 0 0 0 0 0 0 0
0 0 0 0 0 0 0 0 0 0 0 0 0 0 0 0 0 0 0 0 0 0 0 485 474 467 476 474 477 477 476 477 476 475 480 473 481 481 480 480 485 484 489 488 487 485 485 492 489 488 494 490 488 493 495 490 498 490 495 494 491 496 494 490 488 494 497 496 497 494 497 497 497 489 492 491 492 507 478 489 492 500 504 496 488 507 496 492 508 508 496 492 508 502 541 511 511 517 505 506 534 489 537 493 490 443 498 518 492 456 501 480 482 471 0 0 0 0 0 0
0 0 0 0 0 0 0 0 0 0 0 0 0 0 0 0 0 0 0 0 0 0 0 490 465 465 468 471 473 470 478 476 478 474 473 476 476 479 475 481 479 480 482 486 485 489 492 486 490 488 492 492 486 483 494 487 492 494 489 488 495 492 491 494 499 492 489 494 492 492 497 489 495 493 495 486 491 503 489 490 496 500 481 485 496 491 484 481 489 496 489 494 489 477 498 498 492 475 481 503 500 499 511 468 445 472 463 476 487 492 474 464 445 454 417 0 0 0 0 0
0 0 0 0 0 0 0 0 0 0 0 0 0 0 0 0 0 0 0 0 0 0 0 0 479 472 469 471 471 477 477 473 474 475 481 477 473 483 476 482 478 481 479 482 490 485 487 486 486 487 493 493 492 487 490 492 488 493 490 492 494 495 486 492 496 496 498 493 497 495 492 495 492 493 498 484 492 505 492 517 489 512 492 497 516 514 515 510 509 498 507 505 511 495 508 521 499 511 507 504 505 494 504 522 495 483 477 500 483 503 489 511 480 494 459 478 0 0 0 0
0 0 0 0 0 0 0 0 0 0 0 0 0 0 0 0 0 0 0 0 0 0 0 0 490 466 470 473 471 473 472 469 477 475 478 480 475 482 481 486 481 482 484 487 482 483 486 487 485 492 491 489 488 494 487 490 490 491 491 492 491 488 495 495 493 495 494 490 493 490 496 491 497 494 489 492 489 490 496 493 506 494 502 489 488 503 482 496 493 508 502 490 520 523 533 498 503 521 517 475 508 506 492 498 517 463 500 467 491 492 515 516 511 476 513 0 0 0 0 0
0 0 0 0 0 0 0 0 0 0 0 0 0 0 0 0 0 0 0 0 0 0 0 0 0 473 469 472 470 469 468 469 481 472 470 478 475 474 476 482 479 479 481 483 482 483 485 487 486 483 489 485 486 484 491 493 487 488 487 492 491 488 495 495 493 490 485 494 495 496 495 490 489 489 492 487 483 485 481 487 490 476 491 489 490 493 495 482 485 491 501 497 489 493 494 493 492 496 499 507 506 485 502 478 468 493 464 481 476 490 507 460 479 493 0 0 0 0 0 0
0 0 0 0 0 0 0 0 0 0 0 0 0 0 0 0 0 0 0 0 0 0 0 0 0 549 462 475 467 471 472 475 476 473 478 478 476 470 478 479 479 478 478 484 485 480 483 479 489 484 484 483 488 487 487 490 495 488 493 493 490 493 492 492 492 494 492 485 495 485 495 491 494 489 486 489 484 495 494 490 495 499 488 484 492 493 505 499 499 493 505 488 505 519 518 529 509 495 505 525 541 522 531 548 528 517 497 500 500 501 499 486 507 535 476 0 0 0 0 0
0 0 0 0 0 0 0 0 0 0 0 0 0 0 0 0 0 0 0 0 0 0 0 0 0 0 477 463 462 472 466 470 471 473 474 472 471 478 475 481 475 477 480 485 483 481 481 480 482 483 487 487 487 487 483 484 484 486 489 485 488 490 488 488 490 491 488 483 492 489 494 493 489 491 489 479 484 472 488 484 484 485 495 488 480 487 490 469 479 486 504 475 499 499 465 490 470 492 508 468 485 477 498 492 510 464 492 479 470 463 440 469 461 430 0 0 0 0 0 0
0 0 0 0 0 0 0 0 0 0 0 0 0 0 0 0 0 0 0 0 0 0 0 0 0 0 0 471 462 467 467 471 473 473 472 475 472 477 475 476 474 477 475 476 474 484 482 475 483 481 485 482 479 482 483 479 481 488 484 485 485 490 492 485 484 487 485 492 491 487 488 483 485 485 488 490 480 473 496 471 474 480 480 474 482 472 495 473 484 475 479 484 473 493 469 461 469 480 502 482 483 471 467 490 482 435 470 445 477 487 434 432 439 491 419 0 0 0 0 0
0 0 0 0 0 0 0 0 0 0 0 0 0 0 0 0 0 0 0 0 0 0 0 0 0 0 0 521 470 466 471 469 472 471 472 476 473 473 476 475 474 478 477 479 486 475 482 480 482 482 484 483 482 483 485 482 491 485 482 489 488 490 486 487 486 485 489 490 489 485 485 490 486 484 475 490 486 482 493 492 501 500 489 509 486 509 503 498 525 517 508 505 488 489 477 505 503 511 510 485 499 498 516 480 463 475 486 497 476 474 474 452 471 522 0 0 0 0 0 0
0 0 0 0 0 0 0 0 0 0 0 0 0 0 0 0 0 0 0 0 0 0 0 0 0 0 0 0 476 466 465 460 466 463 469 469 469 471 476 470 470 477 474 474 477 481 473 477 479 481 483 483 485 480 479 483 478 478 482 486 489 486 484 484 486 484 483 485 483 486 482 483 476 476 485 481 477 469 477 480 482 462 472 460 484 476 484 476 468 472 467 471 481 511 460 460 470 470 483 474 471 470 450 445 468 441 431 473 441 412 428 444 449 428 0 0 0 0 0 0
0 0 0 0 0 241 235 257 331 0 0 0 0 0 0 0 0 0 0 0 0 0 0 0 0 0 0 0 0 502 460 468 470 469 464 471 474 467 469 471 478 478 473 475 476 476 477 475 478 476 481 483 482 482 478 483 483 484 484 482 481 486 481 481 481 485 483 484 480 485 481 479 484 490 480 484 478 479 486 494 501 477 485 484 495 493 482 480 479 491 490 497 503 462 513 498 493 464 478 492 483 503 479 471 445 495 471 471 483 487 442 520 440 504 452 0 0 0 0 0
0 0 0 0 253 234 237 238 241 294 377 0 0 0 0 0 0 0 0 0 0 2375 0 0 0 0 0 0 0 0 463 464 463 472 469 476 470 468 474 472 474 476 471 472 475 479 476 479 477 478 480 483 482 482 479 479 485 478 484 477 485 486 483 489 483 485 481 485 482 484 477 477 484 475 479 481 491 488 476 473 495 473 483 490 493 509 487 484 493 484 477 496 519 507 478 484 482 484 488 516 497 500 494 478 511 475 468 470 477 496 493 520 529 0 0 0 0 0 0 0
0 0 0 257 223 229 225 224 231 240 328 0 0 0 0 0 0 0 0 0 0 0 0 0 0 0 0 0 0 0 0 467 459 468 459 466 469 467 464 468 470 467 468 470 473 474 474 474 479 478 478 478 479 474 478 479 477 479 477 478 484 485 481 479 483 474 478 476 471 471 474 471 477 466 471 469 473 488 475 476 471 481 483 461 477 476 462 471 483 473 470 476 502 475 485 485 461 468 475 482 479 472 469 472 466 447 437 470 448 472 450 454 424 438 429 0 0 0 0 0
245 302 268 283 287 297 276 239 240 234 339 0 464 449 431 428 427 443 438 449 476 460 438 445 457 461 454 466 443 459 454 458 466 469 469 472 462 469 472 475 461 473 471 466 471 470 476 474 479 475 475 480 476 483 482 474 476 483 478 487 477 478 477 481 477 477 477 474 482 477 491 484 490 489 480 470 480 492 483 477 494 488 492 468 480 505 480 505 468 477 475 486 502 485 485 512 493 491 497 489 496 483 508 488 482 497 493 458 501 497 490 486 480 476 492 0 0 0 0 0
176 202 227 203 231 232 253 224 225 263 368 401 406 407 381 396 382 410 406 399 403 405 415 408 425 423 416 440 442 441 449 455 454 453 459 448 453 468 455 456 462 460 457 462 459 465 466 461 468 470 468 467 467 471 469 471 467 470 466 472 473 471 476 473 471 475 466 476 474 460 472 460 462 468 469 456 460 458 458 461 456 464 460 461 453 447 445 455 445 457 450 449 450 471 433 462 449 447 451 444 465 453 440 453 446 457 450 452 449 443 422 432 432 424 427 470 400 442 0 0
178 224 216 206 219 253 234 228 227 297 386 378 363 356 353 368 362 367 372 386 382 376 382 401 408 402 414 427 427 436 440 445 445 442 439 443 437 449 444 442 445 445 440 448 441 454 454 451 456 450 452 453 459 453 450 458 456 450 457 456 460 462 457 466 458 457 458 456 448 454 452 457 450 440 434 429 437 432 433 428 424 425 423 438 425 424 432 430 420 423 432 426 429 439 424 406 436 418 433 426 420 411 412 423 416 415 413 412 415 403 417 410 412 414 400 433 425 401 394 404
278 301 236 225 233 228 230 229 253 350 330 326 340 329 337 344 345 356 339 350 340 344 363 375 384 385 392 406 421 417 411 421 418 426 428 432 438 435 429 432 432 429 428 434 430 434 433 437 437 441 445 437 432 443 445 443 448 442 441 444 446 449 442 441 446 438 436 434 437 441 429 436 427 430 416 419 406 406 410 408 401 389 393 406 399 402 397 391 382 399 400 401 402 400 406 397 398 387 388 404 395 401 400 395 399 391 382 378 407 390 396 390 382 401 416 397 386 394 398 394
289 292 281 240 235 234 232 239 287 293 298 286 300 290 304 314 301 296 308 304 323 319 326 344 348 361 379 384 395 394 395 398 396 407 408 408 408 411 407 416 406 411 417 409 408 417 418 419 418 413 411 414 419 420 419 419 418 423 423 421 419 423 415 409 418 424 425 419 420 415 409 410 397 396 392 381 381 365 368 365 353 364 350 350 355 364 362 359 363 353 348 353 365 365 366 353 353 356 344 348 361 335 349 351 369 350 350 352 352 329 343 351 341 321 362 341 357 332 341 333
273 282 268 280 274 254 265 269 281 281 272 276 272 298 286 288 287 281 287 287 299 307 306 324 337 358 368 364 367 372 387 390 394 387 380 386 390 394 397 395 397 389 393 390 388 398 391 393 395 400 392 398 399 397 399 389 396 398 401 398 397 395 398 396 393 390 395 397 393 397 390 390 389 382 376 365 359 349 336 333 334 342 327 327 336 326 342 322 337 329 336 334 330 348 331 338 318 326 331 331 335 336 337 342 336 333 330 323 336 321 332 333 324 346 351 358 333 324 348 324
245 252 243 252 252 249 254 255 267 262 253 252 254 262 256 266 268 262 266 278 273 282 290 297 310 322 325 345 357 360 370 359 365 362 367 364 368 361 369 367 372 372 369 376 374 375 371 371 368 371 374 374 379 379 376 378 373 376 378 377 379 376 374 373 367 371 372 372 364 369 367 364 361 352 350 343 329 328 309 315 311 307 309 304 309 308 305 304 302 294 308 304 314 306 304 310 304 304 291 311 302 317 311 305 314 301 311 296 304 306 302 316 317 329 314 324 306 356 319 363
222 229 228 236 228 235 241 236 234 249 244 235 244 247 238 235 242 241 245 247 255 262 269 282 295 293 316 321 327 330 327 334 344 349 338 343 348 338 341 350 342 342 351 348 346 347 347 344 347 344 345 347 349 351 347 352 350 353 353 342 354 348 353 342 352 349 351 347 350 343 347 339 338 335 326 319 308 297 281 299 287 276 281 276 283 278 274 279 280 274 270 271 278 283 277 272 272 269 272 281 277 277 276 278 271 266 273 271 277 277 279 275 272 283 263 271 280 271 300 276
217 227 230 228 236 220 224 232 227 239 232 230 225 234 231 231 238 236 235 245 241 246 262 267 274 283 298 299 302 305 309 321 323 320 320 323 322 325 325 327 323 319 318 320 326 327 322 324 323 327 322 328 325 328 328 328 329 324 335 332 328 329 325 331 329 327 328 322 321 320 320 323 319 307 309 299 289 280 274 265 265 262 267 267 258 257 265 258 263 258 260 267 259 258 265 259 256 253 263 262 273 262 268 269 261 266 272 264 272 272 270 263 278 282 257 273 287 299 326 294
197 203 197 213 211 209 208 213 211 214 207 209 184 212 210 211 225 213 217 223 222 230 240 250 252 270 267 274 274 281 288 297 291 290 293 301 299 295 299 304 300 298 296 301 305 299 302 296 301 307 308 295 295 300 296 304 305 303 303 296 308 306 305 302 303 306 308 301 303 301 297 292 298 293 285 272 268 258 262 254 250 246 245 244 240 248 245 238 240 247 244 240 241 243 240 235 241 239 243 243 237 239 245 239 238 246 236 240 235 233 245 260 228 242 238 257 234 245 225 257
196 205 194 200 198 208 205 207 199 202 205 198 202 204 184 188 210 185 210 209 211 221 231 234 240 249 246 259 267 267 270 264 269 275 277 278 282 279 284 280 275 279 285 286 281 276 282 284 282 282 284 285 277 280 281 283 284 283 280 284 282 288 290 286 289 287 283 285 284 278 278 276 276 269 265 259 256 247 236 234 229 230 232 223 232 224 225 227 227 226 231 222 234 227 224 226 231 222 223 226 225 224 218 222 227 221 228 228 228 229 229 247 246 225 245 229 219 225 233 220
181 176 171 190 180 180 201 200 177 186 186 179 180 184 182 175 186 178 186 206 207 213 220 230 230 227 236 244 243 251 262 257 255 255 261 256 255 259 264 268 263 263 263 269 263 264 269 272 261 265 265 265 267 262 266 267 264 269 262 273 267 267 270 276 264 268 262 268 272 266 260 263 257 256 248 245 239 228 228 218 219 225 219 223 219 220 222 214 214 219 220 220 218 210 216 219 208 212 208 213 217 217 218 215 212 213 215 222 218 221 213 233 229 243 221 230 224 248 224 236
175 171 167 173 176 178 176 173 173 180 179 178 182 175 180 182 181 184 186 179 183 190 185 198 213 221 220 219 227 231 234 245 241 239 241 238 238 245 250 247 244 241 246 246 248 252 246 246 245 246 238 252 246 240 241 244 247 243 249 249 246 244 251 245 240 249 248 246 242 245 242 246 241 240 238 225 220 213 213 211 194 194 187 188 190 192 189 196 191 188 192 189 190 184 186 186 184 184 188 191 186 194 191 186 187 186 189 199 184 197 202 196 201 205 202 172 181 209 182 185
168 176 173 171 170 179 173 173 176 176 178 177 172 171 176 173 174 180 188 181 186 189 185 188 206 205 213 218 216 224 224 228 223 223 231 226 231 234 227 228 225 229 235 232 234 235 226 227 238 234 234 234 232 228 231 233 234 239 235 236 236 235 235 235 231 233 235 232 234 232 231 231 228 225 221 217 197 196 190 190 193 196 195 191 189 195 184 192 192 186 187 192 185 188 188 184 190 184 188 181 188 186 179 176 181 185 182 176 179 180 201 198 196 183 197 200 210 212 219 210
163 168 172 170 168 166 168 169 166 163 168 165 164 166 171 172 177 173 176 180 180 185 190 191 186 180 187 188 193 207 209 213 209 214 214 217 216 215 212 196 213 221 220 218 216 220 218 220 216 224 219 219 221 223 221 217 218 221 222 222 221 223 222 219 223 201 215 218 219 219 223 213 214 212 194 194 191 198 190 189 184 185 184 184 186 182 186 186 183 187 185 178 183 180 180 181 178 182 182 185 182 187 179 182 177 178 181 179 174 180 172 175 178 171 185 171 177 178 194 197
146 154 157 157 159 164 158 163 163 162 161 159 162 161 163 160 161 167 167 175 173 172 179 180 184 184 184 183 183 187 192 184 185 184 187 187 186 183 188 191 192 188 190 190 193 195 193 195 195 194 198 197 192 197 195 193 193 194 193 193 202 197 196 189 197 194 196 193 192 196 196 194 193 190 191 198 194 191 184 177 178 177 178 174 174 170 175 173 178 174 177 173 167 172 171 171 169 167 169 170 168 171 173 173 176 166 168 166 171 172 170 173 174 176 179 166 173 173 170 176
148 155 154 151 157 154 156 160 160 156 158 160 155 154 158 159 158 161 157 168 167 168 179 177 176 177 178 182 183 186 189 188 189 188 190 188 191 194 191 190 190 192 190 197 195 196 196 194 199 194 195 197 198 194 186 193 198 200 197 199 199 196 197 199 195 194 193 198 199 193 195 194 192 194 191 186 188 182 175 174 175 168 166 165 168 168 172 168 173 164 168 169 175 166 170 169 162 169 163 171 169 167 168 166 167 164 165 159 167 168 171 167 170 169 178 160 169 168 170 173
144 140 146 144 145 151 146 148 149 154 145 153 147 151 151 149 155 149 153 157 163 165 163 173 169 173 171 175 175 176 174 178 179 178 178 180 179 180 183 185 181 184 186 184 184 184 184 184 189 184 185 187 188 187 186 186 188 188 0 189 187 186 184 187 186 186 188 186 183 186 184 182 181 180 174 176 176 175 171 162 161 158 158 157 157 160 162 161 164 162 159 163 158 161 162 160 154 159 165 162 154 158 158 158 156 155 157 159 156 153 160 160 158 163 152 167 158 160 175 170
133 137 137 141 141 148 147 147 143 144 141 143 141 146 141 145 142 146 150 150 160 159 160 163 166 167 169 162 168 171 172 168 175 174 171 172 174 173 173 175 175 179 174 178 171 176 173 178 178 179 179 178 179 180 182 180 181 0 0 180 177 177 176 181 179 177 178 180 178 173 174 176 173 174 172 171 167 167 161 156 158 154 152 154 153 154 155 153 154 151 151 154 156 149 149 154 147 153 153 153 155 155 152 153 148 147 148 150 162 152 146 150 146 152 147 154 149 148 149 156
138 136 132 138 143 144 152 140 141 141 139 140 141 144 142 140 140 146 146 145 149 156 156 156 158 161 161 163 165 167 161 164 170 167 164 166 166 169 167 169 172 0 172 0 170 174 170 172 172 172 174 172 172 174 176 0 173 171 0 0 175 0 172 176 170 169 175 168 176 169 169 166 169 169 163 163 165 158 157 152 152 153 149 151 154 152 152 148 149 152 149 152 151 149 149 149 151 150 152 145 151 148 145 145 152 144 143 146 149 148 150 144 137 152 153 155 148 161 155 171
126 122 126 123 132 134 142 140 131 121 133 132 126 124 135 135 135 134 137 141 139 143 149 149 145 154 154 152 160 161 159 153 158 159 155 155 160 161 0 0 0 0 0 0 0 0 164 165 163 168 164 162 166 166 0 0 0 165 0 0 0 0 0 0 165 167 167 0 158 164 161 158 158 161 152 152 152 155 146 148 145 145 146 146 144 147 138 142 143 146 143 142 143 143 138 138 144 146 141 141 135 138 136 138 135 127 135 137 136 138 135 139 146 146 147 131 134 137 139 130
122 120 124 115 125 134 134 129 136 129 134 130 126 125 131 124 132 137 137 135 143 141 145 143 149 148 154 153 154 155 152 151 157 160 154 156 154 0 0 0 0 0 0 0 0 0 0 0 0 162 164 160 0 0 0 0 0 0 0 0 0 0 0 0 0 160 0 0 0 0 0 157 160 155 156 148 149 150 148 140 141 140 147 139 139 143 142 137 147 141 137 139 137 141 138 136 140 140 140 138 138 138 137 133 131 136 134 133 137 143 141 146 137 143 138 144 141 132 141 153
112 107 116 125 127 126 129 129 128 127 130 121 120 120 119 129 131 132 130 133 126 127 133 138 141 141 145 143 143 150 150 147 151 151 148 147 0 0 0 0 0 0 0 0 0 0 0 0 151 153 154 0 0 0 0 0 0 0 0 0 0 0 0 0 0 0 0 0 0 0 0 0 150 148 148 147 145 143 140 141 127 141 136 136 125 126 138 139 127 137 140 129 131 126 116 130 140 137 134 135 129 136 132 130 132 132 130 131 133 137 136 136 135 137 142 136 131 127 110 156
103 109 107 113 110 112 117 120 116 121 115 116 114 112 127 122 123 119 116 116 129 120 133 123 134 139 138 141 142 141 141 139 143 143 143 140 0 0 0 0 0 0 0 0 0 0 0 0 145 0 0 0 0 0 0 0 0 0 0 0 0 0 0 0 0 0 0 0 0 0 0 0 143 140 141 139 137 130 129 130 124 121 119 120 125 120 122 124 124 128 123 122 116 125 123 124 128 131 122 117 117 121 132 120 128 118 115 128 129 132 121 133 124 119 110 113 118 107 114 126
111 107 113 116 115 118 119 124 119 115 115 118 114 114 118 123 119 129 122 116 120 114 122 118 136 137 137 137 0 133 0 0 0 142 139 0 0 0 0 0 0 0 0 0 0 0 0 0 0 0 0 0 0 0 0 0 0 0 0 0 0 0 0 0 0 0 0 0 0 0 0 0 0 142 136 127 126 124 121 124 122 117 122 126 115 119 119 119 116 118 122 121 119 118 115 122 122 121 125 117 117 121 131 123 120 113 127 124 111 130 127 123 133 120 128 129 128 141 155 143
100 100 105 111 104 102 106 106 98 105 111 107 104 106 107 106 108 112 118 110 110 114 109 114 120 118 122 121 121 126 0 0 0 0 127 0 0 0 0 0 0 0 0 0 0 0 0 0 0 0 0 0 0 0 0 0 0 0 0 0 0 0 0 0 0 0 0 0 0 0 0 0 131 0 0 124 119 121 123 112 114 113 109 116 114 114 109 111 109 113 113 115 111 112 109 105 110 112 113 107 118 114 105 114 114 113 107 107 109 107 104 112 103 118 117 103 101 117 109 120
98 101 92 95 100 98 105 100 102 106 104 101 101 106 106 107 107 106 116 109 105 110 109 106 114 112 117 118 119 121 0 125 0 0 0 0 0 0 0 0 0 0 0 0 0 0 0 0 0 0 0 0 0 0 0 0 0 0 0 0 0 0 0 0 0 0 0 0 0 0 0 0 0 125 0 114 118 114 114 109 111 109 103 101 112 106 108 115 105 110 112 113 110 110 107 115 109 109 98 116 105 102 110 104 108 114 112 105 116 116 104 100 114 95 99 141 124 107 112 135
96 103 99 103 96 101 103 93 95 98 94 94 100 94 97 95 107 105 114 113 112 105 96 109 113 107 111 113 112 118 121 117 124 0 0 0 0 0 0 0 0 0 0 0 0 0 0 0 0 0 0 0 0 0 0 0 0 0 0 0 0 0 0 0 0 0 0 0 0 0 0 0 124 121 109 120 114 117 117 116 105 110 101 117 105 108 105 102 105 102 105 103 111 96 98 101 102 104 112 104 108 108 109 105 106 109 112 93 104 99 104 102 99 103 105 91 115 128 115 127
84 82 82 84 89 82 79 91 89 84 89 92 99 92 93 89 77 93 88 90 89 87 100 103 100 99 115 105 0 114 105 107 115 0 0 0 0 0 0 0 0 0 0 0 0 0 0 0 0 0 0 0 0 0 0 0 0 0 0 0 0 0 0 0 0 0 0 0 0 0 0 116 110 107 106 111 107 106 102 98 97 102 95 86 99 98 88 97 103 99 92 94 102 81 83 95 92 101 83 98 88 95 94 92 84 88 89 92 92 81 87 78 77 90 91 86 90 86 107 113
94 87 89 88 98 99 99 108 92 92 99 93 92 96 95 95 103 91 104 95 95 104 107 106 103 103 111 111 0 105 110 109 115 112 123 106 0 0 113 0 0 118 0 0 0 0 0 0 0 0 0 0 0 0 0 0 0 0 0 0 112 0 0 0 114 0 0 0 112 0 108 111 116 113 114 107 109 111 101 98 110 104 104 89 97 97 103 105 102 102 108 104 107 99 101 104 98 89 99 107 105 98 96 97 92 107 92 93 88 82 95 88 91 104 106 107 106 128 140 147
86 90 91 88 97 97 91 90 85 97 87 87 85 92 88 84 94 96 98 91 100 92 99 111 90 101 105 99 102 106 93 0 106 103 98 104 0 115 116 0 110 0 0 0 0 0 0 0 0 0 0 0 0 0 0 0 0 110 0 0 107 107 102 110 114 111 104 100 110 106 106 102 104 98 112 109 101 91 100 96 95 96 101 83 93 92 91 103 103 91 96 102 109 85 83 85 89 95 94 87 88 86 87 99 89 85 100 87 95 91 92 94 84 89 87 84 115 128 100 109
80 83 78 86 91 92 100 87 89 79 87 86 85 91 87 88 91 87 89 88 81 93 94 83 86 93 94 90 103 88 94 97 95 96 94 110 99 101 102 100 106 96 98 107 106 89 0 0 94 0 0 109 105 91 99 108 103 101 107 103 99 104 109 100 100 108 102 95 94 110 97 105 107 102 106 92 93 96 99 89 96 89 92 94 88 91 86 91 95 94 98 87 91 91 87 90 87 84 92 81 82 90 90 90 89 82 90 87 78 93 83 92 101 93 86 89 100 82 94 122
86 82 85 83 83 87 96 100 90 82 86 83 86 85 86 91 91 94 94 100 84 96 96 85 91 95 95 88 97 99 98 87 96 95 99 98 101 100 96 106 102 95 99 107 100 94 105 0 104 103 100 106 99 103 102 102 103 105 98 106 104 94 94 106 104 100 94 102 97 106 99 106 99 95 106 87 93 93 94 84 97 96 84 89 98 96 88 86 94 91 84 99 89 92 93 81 87 93 97 87 93 98 82 91 89 97 90 97 91 83 86 108 101 104 120 136 132 98 133 126
81 75 69 67 79 83 87 85 86 78 86 80 82 79 86 81 84 84 86 82 85 85 90 87 86 86 94 93 95 94 87 93 95 93 93 94 96 95 89 97 92 89 85 92 95 89 86 96 95 88 93 96 95 88 89 81 105 91 97 96 96 98 83 95 93 97 97 88 96 95 95 84 91 93 96 95 92 93 95 93 87 95 81 90 86 90 87 88 82 85 95 80 89 84 85 89 84 75 80 89 78 86 81 70 82 80 82 87 81 71 79 85 80 96 84 113 117 92 96 56
72 69 81 85 72 85 82 85 83 82 84 85 80 82 83 85 88 88 83 84 82 88 85 91 89 86 93 86 87 91 85 94 90 95 95 89 85 95 87 96 95 82 94 92 88 95 89 87 98 87 90 85 93 82 102 95 90 97 92 94 98 98 89 95 88 94 89 95 107 94 97 96 97 82 95 95 95 83 93 93 90 91 89 88 78 86 87 80 92 90 80 91 80 79 91 83 90 84 80 83 91 79 79 79 76 83 82 80 77 88 88 86 80 95 105 86 109 82 84 151
