0 0 0 0 0 0 0 0 0 0 0 0 0 0 0 0 0 0 0 0 0 0 0 0 0 0 0 0 0 0 0 0 0 0 0 0 0 0 0 0 0 0 0 0 0 0 0 0 0 0 0 0 0 0 0 0 0 0 0 0 0 0 0 0 0 0 0 0 0 0 0 0 0 0 0 0 0 0 0 0 0 0 0 0 0 0 0 0 0 0 0 0 0 0 0 0 0 0 0 0 0 0 0 0 0 0 0 0 0 0 0 0 0 0 0 0 0 0 0 0
0 0 0 0 0 0 0 0 0 0 0 0 0 0 0 0 0 0 0 0 0 0 0 0 0 0 0 0 0 0 0 0 0 0 0 0 0 0 0 0 0 0 0 0 0 0 0 0 0 0 0 0 0 0 0 0 0 0 0 0 0 0 0 0 0 0 0 0 0 0 0 0 0 0 0 0 0 0 0 0 0 0 0 0 0 0 0 0 0 0 0 0 0 0 0 0 0 0 0 0 0 0 0 0 0 0 0 0 0 0 0 0 0 0 0 0 0 0 0 0
0 0 0 0 0 0 0 0 0 0 0 0 0 0 0 0 0 0 0 0 0 0 0 0 0 0 0 0 0 0 0 0 0 0 0 0 0 0 0 0 0 0 0 0 0 0 0 0 0 0 0 0 0 0 0 0 0 0 0 0 0 0 0 0 0 0 0 0 0 0 0 0 0 0 0 0 0 0 0 0 0 0 0 0 0 0 0 0 0 0 0 0 0 0 0 0 0 0 0 0 0 0 0 0 0 0 0 0 0 0 0 0 0 0 0 0 0 0 0 0
0 0 0 0 0 0 0 0 0 0 0 0 0 0 0 0 0 0 0 0 0 0 0 0 0 0 0 0 0 0 0 0 0 0 0 0 0 0 0 0 0 0 0 0 0 0 0 0 0 0 0 0 0 0 0 0 0 0 0 0 0 0 0 0 0 0 0 0 0 0 0 0 0 0 0 0 0 0 0 0 0 0 0 0 0 0 0 0 0 0 0 0 0 0 0 0 0 0 0 0 0 0 0 0 0 0 0 0 0 0 0 0 0 0 0 0 0 0 0 0
0 0 0 0 0 0 0 0 0 0 0 0 0 0 0 0 0 0 0 0 0 0 0 0 0 0 0 0 0 0 0 0 0 0 0 0 0 0 0 0 0 0 0 0 0 0 0 0 0 0 0 0 0 0 0 0 0 0 0 0 0 0 0 0 0 0 0 0 0 0 0 0 0 0 0 0 0 0 0 0 0 0 0 0 0 0 0 0 0 0 0 0 0 0 0 0 0 0 0 0 0 0 0 0 0 0 0 0 0 0 0 0 0 0 0 0 0 0 0 0
0 0 0 0 0 0 0 0 0 0 0 0 0 0 0 0 0 0 0 0 0 0 0 0 0 0 0 0 0 0 0 0 0 0 0 0 0 0 0 527 532 524 493 495 532 515 533 501 532 521 536 515 518 539 494 0 0 0 0 0 0 0 0 0 0 0 0 0 0 0 0 0 0 0 0 0 0 0 0 0 0 0 0 0 0 0 0 0 0 0 0 0 0 0 0 0 0 0 0 0 0 0 0 0 0 0 0 0 0 0 0 0 0 0 0 0 0 0 0 0
0 0 0 0 0 0 0 0 0 0 0 0 0 0 0 0 0 0 0 0 0 0 0 0 0 0 0 0 0 0 0 0 0 0 0 0 0 490 485 501 495 492 516 501 491 516 507 513 497 526 500 502 488 503 502 523 521 521 506 483 0 0 0 0 0 0 0 0 0 0 0 0 0 0 0 0 0 0 0 0 0 0 0 0 0 0 0 0 0 0 0 0 0 0 0 0 0 0 0 0 0 0 0 0 0 0 0 0 0 0 0 0 0 0 0 0 0 0 0 0
0 0 0 0 0 0 0 0 0 0 0 0 0 0 0 0 0 0 0 0 0 0 0 0 0 0 0 0 0 0 0 0 0 0 0 534 509 513 495 492 507 507 495 513 500 512 506 506 520 500 510 503 515 510 524 519 509 503 506 503 509 524 512 558 516 0 0 0 0 0 0 0 0 0 0 0 0 0 0 0 0 0 0 0 0 0 0 0 0 0 0 0 0 0 0 0 0 0 0 0 0 0 0 0 0 0 0 0 0 0 0 0 0 0 0 0 0 0 0 0
0 0 0 0 0 0 0 0 0 0 0 0 0 0 0 0 0 0 0 0 0 0 0 0 0 0 0 0 0 0 0 0 0 483 514 513 513 518 513 508 509 516 502 520 510 502 510 515 500 515 507 502 521 515 519 523 512 507 511 517 514 522 522 512 524 505 537 560 579 617 598 579 594 0 668 609 609 595 0 647 0 0 0 0 0 0 0 0 0 0 0 0 0 0 0 0 0 0 0 0 0 0 0 0 0 0 0 0 0 0 0 0 0 0 0 0 0 0 0 0
0 0 0 0 0 0 0 0 0 0 0 0 0 0 0 0 0 0 0 0 0 0 0 0 0 0 0 0 0 0 0 505 513 510 483 491 497 501 518 490 505 508 502 505 507 504 509 503 507 501 502 511 507 511 496 502 502 503 504 503 505 505 502 510 505 509 519 514 534 500 584 559 566 558 576 598 538 561 575 616 572 536 521 541 565 614 0 601 574 534 574 583 579 580 618 522 562 590 617 599 572 583 634 613 0 0 0 0 0 0 0 0 0 0 0 0 0 0 0 0
0 0 0 0 0 0 0 0 0 0 0 0 0 0 0 0 0 0 0 0 0 0 0 0 0 0 0 0 0 0 511 508 515 504 496 502 509 509 504 509 509 502 513 505 520 507 522 495 512 501 499 519 510 511 511 520 509 513 497 507 509 510 504 503 506 513 515 506 522 524 564 574 562 549 599 586 622 583 553 589 564 596 605 621 657 606 569 608 600 589 578 606 579 635 600 564 555 588 575 607 598 606 606 586 575 579 621 564 564 0 0 0 0 0 0 0 0 0 0 0
0 0 0 0 0 0 0 0 0 0 0 0 0 0 0 0 0 0 0 0 0 0 0 0 0 0 0 0 462 490 496 502 484 497 498 493 503 498 501 496 496 508 503 497 500 508 500 501 494 510 495 507 503 509 506 505 512 509 501 517 513 504 504 513 520 492 495 505 509 508 526 553 555 584 569 578 556 556 559 565 543 562 591 554 544 532 534 546 628 596 524 579 547 564 545 544 506 525 536 539 546 592 591 549 517 560 539 534 584 0 0 0 0 0 0 0 0 0 0 0
0 0 0 0 0 0 0 0 0 0 0 0 0 0 0 0 0 0 0 0 0 0 0 0 0 0 0 498 502 508 504 492 499 499 495 496 514 494 510 494 505 507 499 501 505 497 511 507 496 509 495 504 509 489 510 512 506 502 510 516 510 499 506 507 503 501 507 512 505 514 506 514 577 539 550 571 550 538 544 584 532 552 555 556 559 534 549 543 543 560 541 557 538 549 560 510 577 538 540 554 565 544 555 521 562 530 551 575 0 0 0 0 0 0 0 0 0 0 0 0
0 0 0 0 0 0 0 0 0 0 0 0 0 0 0 0 0 0 0 0 0 0 0 0 0 0 480 519 503 508 515 492 505 503 498 495 498 500 511 503 504 510 510 516 509 512 508 508 498 503 507 506 509 503 506 509 511 510 508 508 504 514 516 510 510 515 512 499 508 511 522 509 550 551 578 579 565 578 582 581 593 565 573 583 568 529 552 615 547 585 581 565 584 537 577 576 581 553 571 576 574 584 607 607 591 594 599 581 549 579 0 0 0 0 0 0 0 0 0 0
0 0 0 0 0 0 0 0 0 0 0 0 0 0 0 0 0 0 0 0 0 0 0 0 0 515 481 497 506 494 496 491 491 484 495 490 503 503 506 499 501 507 501 499 503 493 509 503 497 502 503 505 501 499 498 498 500 505 504 513 517 508 507 508 505 498 498 505 506 507 505 508 483 534 545 540 507 562 560 547 546 520 522 529 521 519 541 535 522 543 529 548 533 549 568 536 538 566 553 528 519 560 562 533 550 541 517 504 502 0 512 0 0 0 0 0 0 0 0 0
0 0 0 0 0 0 0 0 0 0 0 0 0 0 0 0 0 0 0 0 0 0 0 0 0 490 491 496 507 490 491 493 507 503 492 498 494 504 503 500 499 509 504 498 501 502 503 511 498 502 502 509 505 506 499 503 505 503 506 509 514 505 510 508 507 506 516 514 507 518 519 502 509 516 554 555 533 544 566 524 567 550 557 578 560 488 560 558 557 559 559 532 555 579 553 533 550 580 574 548 570 541 572 551 539 541 572 565 546 552 530 0 599 561 0 0 0 0 0 0
0 0 0 0 0 0 0 0 0 0 0 0 0 0 0 0 0 0 0 0 0 0 0 0 463 490 493 484 493 496 504 491 500 501 491 497 500 497 504 502 499 500 505 509 498 509 505 495 498 504 501 502 506 506 505 508 504 502 507 509 503 502 506 504 503 509 511 504 513 519 512 508 513 504 539 533 551 530 550 557 522 551 558 568 537 542 553 551 548 528 543 557 568 578 536 561 541 559 559 534 517 585 550 568 513 571 555 544 571 544 588 0 0 0 0 0 0 0 0 0
0 0 0 0 0 0 0 0 0 0 0 0 0 0 0 0 0 0 0 0 0 0 0 0 477 482 490 485 489 492 494 495 490 489 484 492 493 492 498 495 495 485 494 496 492 502 510 500 498 498 500 510 497 504 498 499 505 500 503 501 510 502 500 503 499 506 510 500 501 508 507 502 505 507 508 493 533 512 522 500 526 539 532 523 524 511 509 544 515 504 537 516 535 576 512 531 549 537 545 549 508 548 506 525 550 536 529 480 450 576 0 0 0 0 0 0 0 0 0 0
0 0 0 0 0 0 0 0 0 0 0 0 0 0 0 0 0 0 0 0 0 0 0 507 500 498 488 492 490 494 498 507 494 498 498 497 504 503 499 495 501 500 496 502 508 504 493 503 502 500 503 505 507 511 503 505 499 507 505 508 511 504 505 511 507 506 514 510 513 510 518 498 517 510 515 521 544 546 524 544 525 575 566 540 536 534 528 568 542 542 532 569 577 572 544 555 535 547 568 555 545 567 567 597 568 588 561 544 527 572 553 0 0 0 0 0 0 0 0 0
0 0 0 0 0 0 0 0 0 0 0 0 0 0 0 0 0 0 0 0 0 0 0 495 495 492 493 483 485 487 499 500 490 496 484 495 482 490 488 494 486 506 496 492 504 492 495 504 497 510 497 496 499 505 500 503 508 507 505 494 497 503 500 498 497 504 500 511 504 516 507 511 500 506 506 505 535 516 520 523 512 502 527 525 543 541 534 526 542 540 512 535 548 531 529 539 520 556 522 525 549 527 534 532 527 528 552 514 502 538 508 0 0 0 0 0 0 0 0 0
0 0 0 0 0 0 0 0 0 0 0 0 0 0 0 0 0 0 0 0 0 0 434 483 492 494 486 493 481 492 484 500 497 485 488 496 494 490 495 489 494 500 491 498 500 494 498 500 498 503 495 497 503 496 508 506 503 495 500 512 501 503 506 503 504 509 504 512 507 503 504 509 507 508 510 498 508 522 524 536 536 536 510 539 516 518 514 515 516 518 540 522 531 535 517 526 513 492 535 501 498 519 545 529 527 535 508 466 494 522 505 536 538 0 0 0 0 0 0 0
0 0 0 0 0 0 0 0 0 0 0 0 0 0 0 0 0 0 0 0 0 0 495 492 495 495 502 497 502 498 493 487 491 480 498 496 486 494 500 491 497 501 497 501 498 505 503 503 510 500 499 507 498 508 493 509 510 508 508 498 507 506 502 512 506 509 511 513 510 506 504 510 508 509 513 509 526 525 533 527 529 544 531 522 534 522 530 538 511 540 545 540 528 554 520 551 527 513 564 520 548 534 537 526 538 525 536 538 511 587 521 496 0 0 0 0 0 0 0 0
0 0 0 0 0 0 0 0 0 0 0 0 0 0 0 0 0 0 0 0 0 0 462 485 489 481 485 483 489 487 491 480 493 488 493 482 489 492 488 500 494 491 490 496 498 505 500 495 499 500 499 503 508 498 496 498 500 503 503 498 504 498 505 506 500 504 501 506 513 499 498 501 510 499 512 508 510 508 514 516 520 514 542 519 505 521 515 517 521 525 513 507 523 524 510 518 517 525 506 519 515 506 521 512 497 491 509 517 501 513 492 518 492 0 0 0 0 0 0 0
0 0 0 0 0 0 0 0 0 0 0 0 0 0 0 0 0 0 0 0 0 0 511 491 500 487 492 507 489 492 492 490 483 492 487 483 480 492 504 490 497 499 499 494 502 496 500 498 499 503 497 495 503 497 496 501 499 505 506 502 511 508 508 507 506 501 508 501 509 512 510 514 501 503 499 517 511 548 522 512 528 512 536 516 531 539 539 529 527 533 546 509 539 493 488 557 507 516 531 555 518 555 515 545 526 529 532 550 541 512 473 508 526 531 0 0 0 0 0 0
0 0 0 0 0 0 0 0 0 0 0 0 0 0 0 0 0 0 0 0 0 0 490 481 480 485 498 487 489 496 489 490 489 485 491 490 487 487 489 492 491 487 506 504 499 490 494 497 500 503 498 499 495 497 496 501 502 505 501 496 498 506 505 505 509 501 499 499 508 501 511 506 507 511 496 499 507 502 504 508 513 525 527 528 519 525 521 520 560 540 520 521 528 531 492 508 516 511 529 483 514 550 491 523 537 529 526 528 500 528 544 520 528 0 0 0 0 0 0 0
0 0 0 0 0 0 0 0 0 0 0 0 0 0 0 0 0 0 0 0 0 0 477 474 488 482 483 486 478 478 488 485 486 485 495 486 491 488 489 497 493 489 496 495 495 489 492 498 499 493 501 497 497 501 501 506 502 500 499 498 498 502 501 502 502 500 501 504 496 502 492 499 499 504 504 497 496 501 532 503 502 507 514 507 501 505 511 500 502 509 489 497 508 523 494 492 537 531 512 520 532 506 510 505 483 483 491 480 0 487 491 476 508 0 0 0 0 0 0 0
0 0 0 0 0 0 0 0 0 0 0 0 0 0 0 0 0 0 0 0 0 483 484 492 482 496 487 482 496 481 483 498 485 500 499 491 510 494 487 492 492 503 491 497 492 496 497 499 492 498 500 507 498 507 504 503 498 503 505 497 506 505 508 508 504 501 499 506 499 510 510 501 503 503 510 511 505 515 518 552 522 518 524 534 543 514 515 506 531 543 520 521 499 522 561 543 528 490 527 528 546 551 513 538 541 524 505 525 514 494 517 441 532 514 0 0 0 0 0 0
0 0 0 0 0 0 0 0 0 0 0 0 0 0 0 0 0 0 0 0 0 431 477 483 482 475 480 485 486 475 480 486 485 487 484 498 491 486 491 485 490 498 494 488 499 492 492 491 493 494 495 501 496 496 502 498 498 498 500 504 496 500 497 497 504 501 500 504 500 503 497 502 498 502 507 511 510 501 505 489 532 500 501 507 525 508 529 511 501 508 507 504 491 496 540 492 501 490 520 497 502 522 528 537 464 509 530 535 518 547 511 537 0 0 0 0 0 0 0 0
0 0 0 0 0 0 0 0 0 0 0 0 0 0 0 0 0 0 0 0 0 450 479 483 483 477 483 478 483 478 484 483 487 489 485 488 486 488 490 493 497 490 489 494 490 498 493 497 498 495 493 498 501 492 499 499 502 496 500 498 504 493 499 499 501 501 504 500 499 495 499 497 498 511 503 505 501 505 515 510 493 521 489 508 501 500 496 516 491 514 510 499 496 506 492 498 512 478 518 536 502 498 507 502 520 520 446 530 552 493 459 426 522 0 516 0 0 0 0 0
0 0 0 0 0 0 0 0 0 0 0 0 0 0 0 0 0 0 0 0 0 469 482 481 487 487 483 477 488 481 479 490 491 487 494 492 494 488 486 493 490 492 492 497 494 493 493 492 495 497 492 502 501 502 500 500 500 497 513 496 495 497 494 499 501 500 505 499 506 501 500 502 499 497 502 511 501 494 525 519 540 494 513 491 495 520 502 489 506 497 509 494 489 524 490 511 527 492 514 482 506 514 516 517 519 492 505 522 505 512 458 480 510 521 0 0 0 0 0 0
0 0 0 0 0 0 0 0 0 0 0 0 0 0 0 0 0 0 0 0 0 450 483 481 479 476 475 480 485 483 479 480 481 487 484 483 482 489 485 488 489 489 490 490 495 487 489 491 493 493 498 496 496 496 500 496 496 495 498 500 500 501 500 498 501 506 501 505 503 505 502 511 504 503 495 500 498 504 502 508 489 489 494 492 488 489 478 495 495 471 489 478 504 511 486 502 487 498 502 470 476 487 489 495 490 497 507 478 501 515 493 505 481 0 0 0 0 0 0 0
0 0 0 0 0 0 0 0 0 0 0 0 0 0 0 0 0 0 0 0 0 452 486 484 482 489 485 477 481 481 490 487 487 487 489 488 487 490 490 487 491 488 494 489 494 490 493 498 495 495 493 497 494 499 496 497 499 497 501 500 498 499 502 500 502 502 500 500 502 506 506 500 495 504 502 501 504 500 520 518 513 508 524 508 516 523 517 502 527 510 534 488 514 481 516 519 497 493 535 520 524 528 504 530 497 491 524 566 517 531 497 515 588 0 0 0 0 0 0 0
0 0 0 0 0 0 0 0 0 0 0 0 0 0 0 0 0 0 0 0 0 424 480 480 479 484 473 481 485 484 483 480 479 481 485 485 487 487 484 488 493 491 487 496 492 489 490 496 487 498 497 494 494 501 499 500 499 497 498 501 502 495 496 499 502 503 498 502 504 500 500 498 502 504 495 498 500 507 510 508 510 510 487 518 509 524 507 517 491 497 515 535 524 504 501 548 550 502 519 524 552 527 493 536 526 518 511 502 532 506 493 512 486 559 0 0 0 0 0 0
0 0 0 0 0 0 0 0 0 0 0 0 0 0 0 0 0 0 0 0 0 443 476 474 474 476 478 478 470 474 481 482 483 488 483 483 485 483 485 488 489 486 487 491 493 490 490 491 493 491 493 493 495 493 496 496 495 501 500 499 499 491 501 498 497 498 499 493 497 501 499 496 499 503 499 501 498 494 499 486 493 511 495 489 510 512 505 498 496 512 500 496 496 466 488 493 499 460 482 489 495 506 496 497 520 498 472 500 514 487 469 530 525 0 0 0 0 0 0 0
0 0 0 0 0 0 0 0 0 0 0 0 0 0 0 0 0 0 0 0 0 464 474 475 474 477 474 479 486 484 481 482 481 485 487 488 488 489 490 490 488 486 480 491 493 495 491 491 495 494 494 492 493 494 493 497 499 498 494 495 500 497 499 495 499 497 498 497 499 501 500 501 502 504 497 498 496 500 504 512 522 501 511 523 525 506 506 509 501 504 498 484 506 512 517 529 512 510 527 514 523 507 509 520 533 517 553 512 501 500 533 502 525 567 0 0 0 0 0 0
0 0 0 0 0 0 0 0 0 0 0 0 0 0 0 0 0 0 0 0 0 401 472 472 469 476 474 477 476 479 479 481 481 478 480 482 485 488 484 482 485 488 488 488 489 493 488 487 488 494 492 495 492 489 502 493 493 501 494 492 496 498 498 496 497 498 500 500 499 497 496 499 497 501 491 497 494 490 513 493 506 527 517 497 492 497 506 488 483 498 522 525 481 500 516 487 520 495 499 493 482 502 503 507 497 499 512 492 484 521 530 478 462 495 0 0 0 0 0 0
0 0 0 0 0 0 0 0 0 0 0 0 0 0 0 0 0 0 0 0 0 436 481 469 479 479 479 474 477 478 477 481 485 484 485 487 485 478 484 487 484 487 489 488 488 491 490 493 492 494 490 496 494 491 497 497 492 496 489 492 495 499 496 499 497 504 499 494 499 493 501 498 500 502 503 493 493 496 504 504 505 508 489 480 493 484 488 497 482 490 497 494 498 503 492 499 474 485 503 509 487 507 510 495 498 489 514 501 464 502 506 484 516 484 0 0 0 0 0 0
0 0 0 0 0 0 0 0 0 0 0 0 0 0 0 0 0 0 0 0 0 0 471 476 477 471 475 476 480 481 484 478 486 485 486 476 484 486 482 488 485 485 490 489 490 489 492 494 497 497 490 494 490 494 495 496 491 498 498 495 502 494 496 497 501 505 499 494 499 493 499 495 495 497 500 498 492 493 500 487 503 499 505 506 494 494 511 503 494 514 518 507 519 505 505 489 506 547 536 532 516 542 498 506 515 536 536 509 504 516 536 546 464 526 534 0 0 0 0 0
0 0 0 0 0 0 0 0 0 0 0 0 0 0 0 0 0 0 0 0 0 0 499 476 467 476 478 476 473 476 486 477 482 483 478 481 481 485 490 484 485 483 489 482 489 487 482 495 486 491 493 494 493 495 490 493 491 490 494 496 495 494 493 496 499 498 496 498 497 492 499 492 492 496 489 493 505 499 504 491 509 497 500 499 495 483 492 485 511 504 506 493 525 519 516 508 510 475 494 491 509 495 480 513 499 498 474 516 509 479 462 497 486 479 0 0 0 0 0 0
0 0 0 0 0 0 0 0 0 0 0 0 0 0 0 0 0 0 0 0 0 0 527 474 471 479 474 481 481 481 481 479 481 486 482 484 483 485 480 489 490 484 488 488 491 490 494 490 496 494 493 491 493 495 493 500 495 492 495 497 496 491 492 494 497 501 503 499 490 494 496 498 494 493 496 494 501 517 514 482 504 503 528 517 513 527 518 517 523 526 552 530 518 531 515 525 505 497 529 521 518 529 508 506 490 524 516 509 499 539 551 514 532 510 535 544 0 0 0 0
0 0 0 0 0 0 0 0 0 0 0 0 0 0 0 0 0 0 0 0 0 0 622 472 473 479 475 476 471 477 478 482 482 484 480 485 482 483 480 487 483 488 487 486 485 485 491 489 489 494 489 493 493 493 492 493 492 494 498 494 495 489 500 497 494 499 497 500 498 494 495 493 495 492 496 500 493 489 492 498 511 514 503 516 519 502 511 514 505 518 536 525 533 518 546 541 522 508 488 506 513 509 516 497 527 493 487 497 497 508 503 525 481 504 504 0 0 0 0 0
0 0 0 0 0 0 0 0 0 0 0 0 0 0 0 0 0 0 0 0 0 0 0 480 471 474 475 474 476 473 480 475 483 481 476 482 483 477 483 485 483 485 485 486 487 486 488 490 492 486 495 489 495 494 491 494 496 491 490 496 494 492 496 494 492 492 491 499 495 499 497 494 498 492 488 495 494 493 497 497 487 499 483 501 495 507 508 481 492 485 488 525 483 507 485 498 521 512 517 529 494 517 509 495 495 479 481 489 481 481 510 499 466 0 0 0 0 0 0 0
0 0 0 0 0 0 0 0 0 0 0 0 0 0 0 0 0 0 0 0 0 0 0 494 473 471 475 473 476 471 480 476 478 477 482 482 483 479 485 479 485 483 488 487 488 489 490 492 490 490 492 489 488 490 494 494 498 494 495 496 492 491 494 495 490 493 496 497 498 490 499 498 500 497 492 491 487 492 494 502 503 504 494 488 506 510 507 508 512 502 509 522 495 485 504 507 522 508 509 500 516 515 506 503 492 484 480 506 490 504 482 470 480 513 0 0 0 0 0 0
0 0 0 0 0 0 0 0 0 0 0 0 0 0 0 0 0 0 0 0 0 0 0 537 466 470 478 472 471 473 477 470 477 479 480 480 481 481 480 480 482 482 485 484 487 487 487 489 493 487 491 495 488 490 492 489 492 496 490 491 491 495 494 498 494 494 493 497 491 492 494 490 491 497 497 488 493 485 490 503 486 490 501 503 511 496 493 496 518 492 481 490 496 496 504 496 500 481 495 504 496 502 505 471 467 475 455 458 471 476 486 487 455 413 0 0 0 0 0 0
0 0 0 0 0 0 0 0 0 0 0 0 0 0 0 0 0 0 0 0 0 0 0 0 471 476 466 473 474 471 477 468 475 476 475 475 479 482 478 480 481 481 484 480 486 486 488 488 494 491 490 489 487 491 496 490 490 494 490 493 491 494 490 494 500 493 489 490 496 494 496 492 491 497 497 485 495 501 479 481 495 500 490 497 503 489 509 499 486 487 511 513 495 479 512 498 480 485 498 480 477 478 499 498 504 481 461 490 451 448 493 465 441 484 480 468 0 0 0 0
0 0 0 0 0 0 0 0 0 0 0 0 0 0 0 0 0 0 0 0 0 0 0 0 536 467 472 471 474 475 477 472 472 477 477 479 481 479 483 485 486 482 484 488 488 484 488 489 484 491 494 488 490 489 489 490 495 489 494 492 495 489 495 496 494 491 496 493 498 491 492 491 494 494 496 490 487 492 511 499 490 493 485 509 499 494 488 506 507 501 499 511 528 502 537 523 521 524 514 517 510 526 528 492 489 537 475 480 501 499 516 492 524 468 541 449 0 0 0 0
0 0 0 0 0 0 0 0 0 0 0 0 0 0 0 0 0 0 0 0 0 0 0 0 0 468 463 472 472 467 472 476 473 470 475 471 477 476 479 478 474 475 484 486 483 483 487 478 488 488 490 481 485 495 487 487 484 483 486 491 492 487 488 490 491 493 490 496 489 495 492 485 491 489 489 484 486 476 493 478 479 485 485 489 495 487 484 482 486 484 477 482 483 508 481 491 503 504 489 493 488 497 489 477 459 490 455 485 431 467 474 442 472 519 0 0 0 0 0 0
0 0 0 0 0 0 0 0 0 0 0 0 0 0 0 0 0 0 0 0 0 0 0 0 0 542 469 471 474 474 470 472 474 475 478 474 477 481 477 477 481 482 480 481 483 482 482 488 488 481 489 483 487 490 490 493 493 485 488 487 491 487 493 487 486 496 490 490 489 490 492 490 492 486 489 478 484 488 487 485 495 489 485 481 487 489 498 503 503 483 501 486 500 494 522 513 514 522 513 491 510 504 523 485 497 495 502 464 500 474 501 478 497 534 490 0 0 0 0 0
0 0 0 0 0 0 0 0 0 0 0 0 0 0 0 0 0 0 0 0 0 0 0 0 0 0 470 473 463 472 470 473 469 477 478 475 475 477 479 474 481 478 479 482 488 484 486 482 487 487 486 487 490 484 487 491 486 489 489 491 492 490 487 489 493 492 491 492 493 490 494 493 493 490 485 484 476 484 507 487 485 485 485 496 491 518 495 490 512 488 504 498 498 509 501 512 481 487 492 510 507 523 531 491 524 486 482 485 502 483 516 483 519 462 0 0 0 0 0 0
0 0 0 0 0 0 0 0 0 0 0 0 0 0 0 0 0 0 0 0 0 0 0 0 0 0 0 472 468 467 468 469 469 474 474 475 471 478 477 480 478 480 476 478 478 477 480 478 483 480 482 483 483 483 481 483 483 487 481 492 482 486 489 486 484 488 487 489 492 488 486 487 489 485 487 491 471 475 483 496 484 484 484 468 485 482 486 486 479 466 468 482 478 468 471 499 484 475 477 472 497 487 478 466 449 469 520 439 487 453 479 443 449 457 0 0 0 0 0 0
0 0 0 0 0 0 0 0 0 0 0 0 0 0 0 0 0 0 0 0 0 0 0 0 0 0 0 536 470 472 471 467 478 473 472 470 480 473 475 476 479 476 478 477 481 477 481 480 485 484 485 486 486 488 484 485 486 485 487 490 487 486 489 494 487 487 485 487 490 491 491 489 484 484 492 489 500 496 486 495 494 504 491 503 504 525 524 504 511 483 503 544 510 526 493 540 504 518 516 521 518 493 506 484 513 501 491 498 452 496 473 512 509 536 505 0 0 0 0 0
0 0 0 0 0 0 0 0 0 0 0 0 0 0 0 0 0 0 0 0 0 0 0 0 0 0 0 0 494 465 464 464 467 463 473 465 475 472 475 474 473 477 478 478 479 476 478 480 478 481 482 485 483 486 488 483 484 482 489 489 486 482 482 488 484 485 488 478 489 485 485 481 483 490 484 492 481 490 480 485 491 474 484 488 481 475 500 481 486 492 494 490 470 478 486 487 463 496 494 487 488 489 482 469 451 474 494 470 468 464 478 472 526 429 426 0 0 0 0 0
0 0 0 0 0 246 244 256 310 0 0 0 0 0 0 0 0 0 0 0 0 0 0 0 0 0 0 0 0 486 462 464 469 466 470 472 466 471 470 467 474 473 476 477 474 481 478 480 477 475 477 476 478 481 486 483 483 484 485 480 479 482 484 486 484 484 482 481 480 481 479 489 485 481 486 475 476 475 481 486 455 487 484 477 480 481 476 472 458 484 480 486 480 482 482 478 484 476 474 495 488 470 459 480 478 461 480 453 471 440 438 462 469 438 423 428 0 0 0 0
0 0 0 0 251 232 236 239 239 292 373 0 0 0 0 0 0 0 0 0 0 2345 0 0 0 0 0 0 0 0 470 464 462 470 468 472 473 465 473 473 471 472 474 470 478 474 483 477 478 475 478 481 478 480 482 483 478 481 482 484 484 481 487 489 485 484 487 484 479 480 471 481 481 493 490 489 481 485 481 481 494 480 494 487 490 498 500 481 485 484 508 485 488 502 486 476 476 489 496 463 485 509 510 478 477 457 475 486 502 465 489 464 480 0 0 0 0 0 0 0
0 0 0 235 218 222 226 227 233 240 306 0 0 0 0 0 0 0 0 0 0 0 0 0 0 0 0 0 0 0 0 468 463 470 464 463 466 467 464 468 468 469 472 470 468 472 469 473 480 472 473 476 475 472 479 474 479 476 473 477 481 483 481 482 481 475 477 480 472 475 469 467 481 479 486 471 476 470 464 479 479 465 481 464 476 474 467 466 469 473 474 474 480 460 471 458 475 456 458 472 463 450 450 454 473 455 446 456 481 465 446 425 434 431 415 0 0 0 0 0
250 254 282 261 281 304 272 231 240 237 330 0 416 434 426 424 440 442 423 425 490 469 438 437 449 453 454 447 456 453 460 470 464 462 463 465 467 472 464 472 466 474 473 467 475 470 472 472 472 476 474 477 477 478 482 476 476 482 477 487 479 479 473 478 481 481 476 485 482 477 476 479 479 472 487 464 477 468 478 468 479 471 473 480 500 485 477 478 468 469 490 484 488 492 471 482 456 482 466 485 471 471 484 493 468 479 455 458 490 482 458 463 485 501 427 498 0 0 0 0
209 230 202 211 221 231 249 231 228 266 364 386 374 400 382 401 390 407 407 423 397 421 411 418 428 425 434 432 443 438 449 452 453 452 452 452 460 465 463 456 463 460 459 465 465 458 464 467 476 470 473 468 466 467 473 476 470 470 470 468 474 472 473 474 473 478 477 468 471 467 458 470 464 464 458 455 456 457 461 455 460 452 454 461 455 448 440 453 457 459 466 455 448 430 460 457 434 446 456 454 456 455 442 458 453 460 443 462 452 431 438 447 455 447 430 445 439 0 0 0
209 196 206 219 236 229 235 230 231 285 361 366 365 356 376 375 366 370 368 367 379 378 378 397 402 405 414 419 423 436 434 442 448 441 443 444 438 446 447 448 442 451 450 447 449 454 447 455 456 457 454 459 455 456 457 459 454 449 454 460 456 465 455 455 464 453 455 455 455 448 455 451 449 440 438 435 431 436 421 428 434 422 426 423 421 420 418 429 426 423 431 412 420 418 426 419 418 426 407 422 420 430 416 427 419 397 404 422 400 398 399 407 413 434 409 397 404 415 419 0
308 324 259 227 232 231 235 225 258 346 338 349 331 327 345 341 366 352 353 343 362 364 368 372 387 384 389 399 415 420 414 419 423 428 430 435 435 438 428 433 431 434 432 431 441 435 434 444 446 446 445 439 439 439 451 447 447 444 440 441 449 441 446 442 442 444 444 440 440 435 435 434 434 428 427 420 416 407 405 392 401 396 404 395 398 411 408 396 402 397 400 395 396 403 410 406 405 408 386 395 409 386 412 403 400 392 387 389 388 396 400 404 388 387 404 391 390 407 398 417
293 304 287 238 238 229 232 246 286 285 306 305 295 313 312 318 311 313 302 313 327 318 327 339 354 361 377 386 393 393 393 396 411 410 408 408 412 417 406 416 410 417 417 415 412 416 419 423 416 419 413 414 420 422 420 421 416 422 424 420 427 423 422 421 417 418 423 415 416 412 417 411 403 401 395 400 381 369 368 363 355 358 352 361 356 347 362 367 357 366 361 357 353 363 385 373 356 370 351 359 355 366 372 370 370 379 356 368 361 347 350 344 363 336 340 380 371 372 358 375
281 269 283 278 254 244 259 275 269 289 283 276 278 283 290 284 285 286 287 287 298 313 310 317 331 350 361 368 367 384 377 393 383 392 384 387 386 395 392 397 392 384 395 396 391 396 398 392 395 392 387 395 397 398 396 392 397 403 395 399 397 403 395 392 394 384 396 395 399 387 390 395 395 382 372 362 358 348 331 335 336 327 328 338 328 321 334 329 323 337 331 337 336 338 326 337 337 324 328 324 339 317 327 318 350 340 341 343 339 334 321 324 335 314 349 322 328 314 302 322
251 244 231 255 240 260 247 259 256 259 266 258 262 261 258 264 257 263 274 277 276 292 289 297 310 323 325 343 347 361 362 364 366 356 365 365 373 369 364 371 380 368 373 378 369 371 367 374 367 372 378 368 378 382 383 378 377 381 373 381 376 379 378 378 375 378 377 375 368 372 367 368 366 358 348 343 323 317 311 320 305 305 313 300 309 308 295 307 310 290 298 314 314 308 307 306 305 293 306 303 321 310 295 306 304 298 304 309 316 302 309 304 321 298 311 308 346 332 305 282
219 220 223 221 232 234 231 239 235 238 244 244 243 254 233 249 239 233 249 248 260 266 276 286 284 295 314 320 322 330 330 333 342 339 341 340 341 342 343 344 350 344 350 340 348 343 348 348 351 338 348 353 351 355 346 354 353 350 355 347 349 346 346 336 350 348 348 353 349 344 344 343 347 333 323 314 310 294 287 288 284 277 283 273 281 282 278 277 280 268 274 285 289 280 278 277 275 281 276 285 285 271 273 277 262 267 275 273 276 275 258 285 262 285 280 294 261 254 279 262
216 231 230 230 225 221 223 218 222 230 243 224 225 242 228 227 233 238 237 241 242 242 260 263 269 285 296 305 301 310 315 317 316 315 316 320 316 325 327 333 319 326 321 320 328 321 330 328 325 326 328 325 328 328 325 328 324 328 335 325 327 329 326 326 329 325 328 320 324 324 326 320 320 307 304 303 280 274 276 275 274 263 259 263 259 258 260 258 264 253 259 268 265 257 259 256 263 258 261 263 268 257 267 259 259 265 260 260 260 267 265 261 261 262 251 273 273 253 260 288
199 204 196 217 217 215 214 219 217 212 208 212 208 220 210 208 214 211 220 227 222 226 246 252 255 264 271 279 277 287 288 294 297 288 300 292 296 301 308 302 299 299 306 303 300 300 303 301 308 304 310 301 301 302 297 303 301 305 301 298 308 306 304 303 308 305 309 307 307 308 303 299 299 291 292 277 267 261 258 249 247 244 247 245 241 241 247 240 248 245 247 246 242 238 243 239 239 239 244 242 245 240 242 242 248 240 234 246 249 246 234 255 253 252 254 257 235 271 247 256
196 195 196 200 195 199 205 209 199 204 187 182 191 189 203 193 210 205 210 210 217 219 227 236 240 252 252 260 270 265 271 272 270 270 276 278 282 280 276 284 277 280 287 286 283 283 283 281 285 287 286 275 276 285 280 284 285 282 281 287 283 284 284 288 291 289 282 283 286 281 283 281 273 275 265 257 251 249 238 235 235 235 230 229 228 226 224 226 227 231 230 226 223 231 222 227 219 217 222 226 226 226 222 235 227 214 220 227 222 232 235 233 241 225 240 235 224 217 218 218
181 180 175 191 188 183 188 201 179 186 188 181 182 182 186 183 185 187 189 207 214 211 222 228 233 240 250 247 247 252 253 255 255 261 265 256 256 260 265 267 266 264 265 268 263 265 268 269 266 268 265 264 265 262 269 268 267 265 265 276 269 270 268 276 267 268 271 271 269 266 267 261 261 252 253 245 242 234 228 222 218 222 223 220 220 223 221 215 218 218 220 217 219 216 217 217 214 214 212 213 215 216 213 215 213 216 216 212 221 221 225 228 236 228 223 230 242 241 233 231
171 174 174 179 176 178 177 180 178 175 184 185 180 175 184 185 185 182 181 189 187 191 188 209 216 218 225 224 225 231 235 239 242 240 240 238 239 243 249 248 242 245 251 250 251 254 247 245 246 251 246 248 250 253 244 247 249 248 252 251 250 247 250 247 244 254 250 251 245 245 246 243 241 239 237 220 223 217 217 212 197 195 188 189 188 197 194 196 211 189 191 187 191 189 185 189 195 180 190 190 188 209 188 191 205 192 190 185 186 210 205 202 211 204 208 196 202 214 184 241
170 170 174 176 170 175 175 171 177 179 181 173 175 170 178 179 179 177 188 185 179 186 187 190 208 191 211 216 217 225 225 224 221 224 227 227 229 228 228 228 225 228 229 236 232 233 230 228 233 235 237 233 232 233 233 231 238 237 236 235 235 238 236 234 234 233 236 229 232 227 233 236 227 226 219 216 213 195 189 198 197 193 195 194 190 195 188 193 184 190 191 183 182 190 190 182 190 188 177 181 187 176 183 180 185 185 181 176 182 180 184 176 204 202 203 202 212 199 191 181
162 167 172 171 174 164 170 169 170 166 168 169 168 169 169 173 173 174 176 185 176 189 189 189 186 186 189 188 209 212 211 212 212 213 214 215 219 216 214 199 218 222 217 214 218 225 221 217 219 225 219 222 222 217 216 218 222 220 222 221 220 224 224 222 218 215 220 221 219 219 223 213 201 210 195 195 185 193 190 191 186 187 187 186 186 181 187 185 184 187 185 179 182 185 182 182 180 176 179 184 185 178 184 184 185 179 185 178 178 180 174 187 180 177 198 175 177 177 199 225
145 154 161 159 160 159 157 160 161 163 159 157 159 160 163 159 165 171 171 172 172 175 181 183 181 188 185 182 190 193 183 185 181 185 186 191 188 186 186 189 194 190 191 189 194 194 195 194 194 191 197 196 196 198 196 191 190 196 196 192 201 199 199 190 194 193 195 193 195 196 198 195 194 193 195 195 195 192 187 181 178 177 175 176 171 168 176 178 177 174 174 173 173 168 173 172 170 166 167 170 167 171 166 171 169 166 168 164 169 168 168 170 162 176 178 173 172 175 172 168
150 150 153 155 159 156 155 161 155 158 158 157 156 154 156 159 157 161 157 165 166 169 178 176 178 181 178 182 184 186 191 190 190 190 187 190 194 197 191 189 195 191 192 198 194 194 197 196 194 191 193 188 195 197 198 193 197 198 198 199 199 198 198 199 193 194 196 188 199 195 196 193 192 194 191 187 184 183 178 174 174 172 168 163 166 168 169 168 171 166 173 170 171 167 170 164 165 162 162 170 169 167 170 168 166 162 162 166 173 164 168 169 171 171 175 167 160 173 182 152
141 142 142 146 150 150 149 150 150 151 146 153 147 149 148 152 150 146 157 160 159 164 166 178 172 174 174 173 172 178 176 177 180 178 179 176 182 179 183 181 184 184 185 185 183 183 184 185 186 186 185 188 186 186 187 188 188 189 0 190 187 189 186 184 191 190 190 187 184 186 188 185 181 180 178 176 176 172 169 162 158 158 162 161 162 161 160 162 164 160 161 161 158 161 160 164 152 159 161 162 161 164 165 155 157 161 159 158 159 165 155 166 159 162 163 168 161 164 164 166
135 138 135 141 141 148 147 148 144 144 141 144 141 146 139 145 143 146 149 151 158 162 166 164 166 165 167 169 167 172 170 171 176 171 171 172 173 172 175 176 175 180 177 178 172 178 174 179 180 177 180 179 177 180 182 179 180 0 0 179 178 175 179 183 179 179 176 178 176 171 174 176 171 175 170 172 169 164 163 158 160 155 156 156 156 158 157 153 154 155 148 157 154 156 155 152 155 150 154 154 157 154 156 154 153 144 146 152 163 156 151 142 144 152 149 149 149 146 142 150
138 132 132 142 144 143 148 142 141 139 142 141 145 147 145 139 143 152 147 147 150 157 157 159 160 159 163 160 166 167 165 165 167 166 167 169 167 169 169 170 174 0 171 0 172 175 170 169 172 170 175 173 175 174 176 0 174 173 0 0 173 0 176 174 174 172 173 168 176 171 169 166 171 166 166 165 165 158 158 154 155 156 154 152 151 151 151 148 153 154 147 152 150 148 151 149 153 155 159 150 154 146 150 151 150 143 142 141 155 148 153 154 150 161 155 153 148 158 150 186
131 123 129 116 133 133 141 138 130 130 132 133 123 132 136 133 135 135 137 139 139 147 151 152 147 156 156 156 158 161 159 156 158 158 159 157 163 163 0 0 0 0 0 0 0 0 0 164 165 164 166 162 167 166 0 0 0 167 0 0 0 0 0 0 166 166 164 0 162 163 161 162 159 159 152 157 154 156 147 148 149 147 146 148 141 148 142 144 144 142 144 146 146 143 140 141 139 144 142 142 138 136 142 143 137 137 141 135 140 149 142 144 146 149 134 143 139 142 138 136
122 121 127 123 128 133 134 131 139 130 125 133 125 124 132 125 123 135 138 138 141 140 145 145 146 150 153 154 152 155 150 155 158 160 153 155 153 0 0 0 0 0 0 0 0 0 0 0 0 161 162 160 0 0 0 0 0 0 0 0 0 0 0 0 158 0 0 0 0 0 0 155 160 155 152 148 150 150 147 145 138 141 143 143 141 141 141 142 145 138 134 140 137 140 140 138 142 139 138 137 137 134 139 135 131 131 134 136 140 146 138 149 143 142 132 136 134 128 144 153
113 107 119 122 125 126 132 129 129 128 132 120 124 118 121 129 123 124 132 137 135 133 134 143 138 142 145 144 145 148 151 148 153 151 149 149 0 0 0 0 0 0 0 0 0 0 0 0 154 152 155 0 0 0 0 0 0 0 0 0 0 0 0 0 0 0 0 0 0 0 0 0 150 150 150 148 146 142 143 145 130 141 128 137 128 128 136 139 128 132 138 140 130 123 118 136 137 138 136 133 127 135 135 120 125 135 130 121 132 138 134 140 141 147 136 138 135 132 119 135
103 114 112 113 107 114 121 119 116 122 112 112 116 116 127 123 124 129 118 114 132 124 125 123 134 140 137 138 142 142 144 143 145 142 144 143 0 0 0 0 0 0 0 0 0 0 0 0 0 0 0 0 0 0 0 0 0 0 0 0 0 0 0 0 0 0 0 0 0 0 0 0 140 141 140 140 137 138 129 127 128 120 119 121 124 121 122 125 123 125 121 121 118 128 125 133 128 122 120 121 121 129 132 116 129 116 116 129 129 132 128 133 126 121 112 129 111 102 106 109
112 110 116 119 113 118 116 126 118 117 116 118 114 120 118 123 119 130 124 116 115 118 120 116 135 138 135 140 0 132 0 0 0 140 140 0 0 0 0 0 0 0 0 0 0 0 0 0 0 0 0 0 0 0 0 0 0 0 0 0 0 0 0 0 0 0 0 0 0 0 0 0 0 143 126 126 125 122 120 125 120 117 120 125 119 121 118 118 119 118 119 125 118 115 112 122 121 123 120 121 119 126 131 124 130 113 116 118 107 132 126 111 123 114 132 120 115 138 144 134
103 101 110 111 105 103 105 104 99 102 106 105 105 106 108 107 108 111 116 113 111 115 110 117 119 119 127 119 118 126 0 0 0 0 127 0 0 0 0 0 0 0 0 0 0 0 0 0 0 0 0 0 0 0 0 0 0 0 0 0 0 0 0 0 0 0 0 0 0 0 0 0 130 0 0 125 124 121 119 117 119 115 108 116 114 116 112 113 109 113 113 117 105 110 111 109 112 115 111 110 115 114 109 115 113 118 108 111 121 104 104 110 106 125 124 103 124 128 115 155
98 102 90 96 100 103 102 101 102 105 102 100 103 104 105 108 104 109 115 106 108 109 109 103 116 110 114 119 119 121 0 129 0 0 0 0 0 0 0 0 0 0 0 0 0 0 0 0 0 0 0 0 0 0 0 0 0 0 0 0 0 0 0 0 0 0 0 0 0 0 0 0 0 121 0 115 119 115 116 112 111 113 106 102 111 109 106 116 103 110 115 111 111 114 106 116 103 106 101 117 112 105 108 110 103 109 109 111 116 112 103 106 112 110 108 124 128 98 108 130
95 101 100 106 96 101 103 94 93 102 100 100 105 94 102 98 105 105 114 117 112 105 98 109 114 109 113 115 116 124 121 120 124 0 0 0 0 0 0 0 0 0 0 0 0 0 0 0 0 0 0 0 0 0 0 0 0 0 0 0 0 0 0 0 0 0 0 0 0 0 0 0 122 124 0 119 114 117 119 119 109 111 102 118 110 108 107 100 104 103 107 108 111 90 100 100 104 102 113 105 107 110 110 107 111 112 108 92 101 110 105 106 107 100 108 107 150 131 131 132
87 83 83 87 80 81 78 95 93 83 92 94 97 95 92 87 80 93 92 86 92 85 97 104 99 100 111 105 0 113 104 105 118 0 0 0 0 0 0 0 0 0 0 0 0 0 0 0 0 0 0 0 0 0 0 0 0 0 0 0 0 0 0 0 0 0 0 0 0 0 0 117 110 108 105 112 110 105 106 100 100 103 100 94 100 95 88 99 104 103 92 96 101 83 84 97 95 101 90 93 93 94 91 91 83 90 90 92 94 84 91 86 81 98 85 88 91 83 86 110
93 85 87 87 98 94 98 104 92 94 95 97 94 91 97 95 98 91 101 96 94 104 104 105 101 105 111 106 0 103 110 110 116 111 124 111 112 0 111 0 0 117 0 0 0 0 0 0 0 0 0 0 0 0 0 0 0 0 0 0 0 0 0 0 111 0 0 0 113 0 109 110 116 111 115 110 108 112 100 98 111 105 105 90 95 98 107 103 101 101 107 106 108 99 100 102 98 93 100 107 102 98 96 104 91 103 100 93 89 82 91 95 89 95 107 98 106 105 118 138
88 91 93 88 97 94 93 91 84 98 88 90 90 93 89 85 94 100 99 96 100 91 95 111 93 102 104 100 102 106 93 0 108 104 98 101 0 115 115 0 109 0 0 0 0 0 0 0 0 0 0 0 0 0 0 0 0 109 0 0 0 103 103 112 115 112 102 98 112 105 109 104 105 100 111 105 100 92 103 97 94 97 100 83 94 92 97 104 106 95 98 105 107 87 84 83 89 92 95 87 96 86 91 97 94 89 101 94 101 91 90 93 83 93 88 95 107 127 113 111
83 87 82 86 88 90 103 90 87 80 89 86 83 89 88 90 91 85 92 86 81 95 93 84 86 91 91 92 104 92 95 97 98 97 92 108 99 101 104 102 0 96 98 110 107 90 0 0 96 101 0 105 104 94 100 107 106 102 107 106 100 105 111 102 100 111 102 95 96 108 100 109 103 102 101 94 96 94 99 89 93 90 93 96 96 94 86 90 95 94 96 89 92 93 89 92 94 92 93 82 88 87 86 91 87 92 96 84 81 90 83 94 89 102 87 96 88 79 82 94
86 83 85 86 85 86 100 103 86 83 91 81 83 87 81 92 88 91 92 96 83 96 95 86 91 95 95 88 98 99 96 86 97 94 94 97 98 101 93 105 101 96 97 107 103 97 105 0 105 99 98 105 101 98 100 100 104 104 101 106 107 94 94 103 102 99 98 100 97 107 100 105 101 93 104 88 94 96 95 85 98 101 96 92 99 96 92 86 93 86 86 100 87 92 93 81 96 93 101 92 91 105 88 94 90 99 92 92 89 85 88 93 104 103 111 160 108 113 119 134
80 75 68 72 79 80 89 86 88 79 86 82 85 78 88 83 87 88 86 84 93 83 91 88 88 86 92 94 86 91 91 93 80 94 93 96 96 87 91 95 94 90 83 90 85 96 87 103 95 86 96 98 99 89 90 80 103 90 98 96 94 98 85 97 96 95 95 98 96 96 93 89 91 93 87 95 93 82 97 95 87 91 84 91 85 96 86 87 83 87 78 75 89 86 86 90 83 79 83 92 83 83 84 68 80 80 90 84 82 91 85 83 77 89 89 84 133 67 74 80
75 73 79 86 72 85 81 85 83 80 85 89 79 83 84 86 89 88 83 87 87 93 85 91 86 84 91 83 94 95 95 94 91 97 86 90 86 95 92 97 95 96 94 88 89 99 88 97 98 87 91 86 97 85 102 92 89 84 92 98 100 98 91 94 89 96 89 95 106 95 84 94 85 96 97 96 93 96 94 94 91 86 92 88 80 87 89 80 93 92 78 90 75 79 93 83 88 88 83 82 85 82 81 78 77 80 81 88 84 90 93 85 80 106 100 109 119 83 85 169
