0 0 0 0 0 0 0 0 0 0 0 0 0 0 0 0 0 0 0 0 0 0 0 0 0 0 0 0 0 0 0 0 0 0 0 0 0 0 0 0 0 0 0 0 0 0 0 0 0 0 0 0 0 0 0 0 0 0 0 0 0 0 0 0 0 0 0 0 0 0 0 0 0 0 0 0 0 0 0 0 0 0 0 0 0 0 0 0 0 0 0 0 0 0 0 0 0 0 0 0 0 0 0 0 0 0 0 0 0 0 0 0 0 0 0 0 0 0 0 0
0 0 0 0 0 0 0 0 0 0 0 0 0 0 0 0 0 0 0 0 0 0 0 0 0 0 0 0 0 0 0 0 0 0 0 0 0 0 0 0 0 0 0 0 0 0 0 0 0 0 0 0 0 0 0 0 0 0 0 0 0 0 0 0 0 0 0 0 0 0 0 0 0 0 0 0 0 0 0 0 0 0 0 0 0 0 0 0 0 0 0 0 0 0 0 0 0 0 0 0 0 0 0 0 0 0 0 0 0 0 0 0 0 0 0 0 0 0 0 0
0 0 0 0 0 0 0 0 0 0 0 0 0 0 0 0 0 0 0 0 0 0 0 0 0 0 0 0 0 0 0 0 0 0 0 0 0 0 0 0 0 0 0 0 0 0 0 0 0 0 0 0 0 0 0 0 0 0 0 0 0 0 0 0 0 0 0 0 0 0 0 0 0 0 0 0 0 0 0 0 0 0 0 0 0 0 0 0 0 0 0 0 0 0 0 0 0 0 0 0 0 0 0 0 0 0 0 0 0 0 0 0 0 0 0 0 0 0 0 0
0 0 0 0 0 0 0 0 0 0 0 0 0 0 0 0 0 0 0 0 0 0 0 0 0 0 0 0 0 0 0 0 0 0 0 0 0 0 0 0 0 0 0 0 0 0 0 0 0 0 0 0 0 0 0 0 0 0 0 0 0 0 0 0 0 0 0 0 0 0 0 0 0 0 0 0 0 0 0 0 0 0 0 0 0 0 0 0 0 0 0 0 0 0 0 0 0 0 0 0 0 0 0 0 0 0 0 0 0 0 0 0 0 0 0 0 0 0 0 0
0 0 0 0 0 0 0 0 0 0 0 0 0 0 0 0 0 0 0 0 0 0 0 0 0 0 0 0 0 0 0 0 0 0 0 0 0 0 0 0 0 0 0 0 0 0 0 0 0 0 0 0 0 0 0 0 0 0 0 0 0 0 0 0 0 0 0 0 0 0 0 0 0 0 0 0 0 0 0 0 0 0 0 0 0 0 0 0 0 0 0 0 0 0 0 0 0 0 0 0 0 0 0 0 0 0 0 0 0 0 0 0 0 0 0 0 0 0 0 0
0 0 0 0 0 0 0 0 0 0 0 0 0 0 0 0 0 0 0 0 0 0 0 0 0 0 0 0 0 0 0 0 0 0 0 0 0 0 0 508 502 494 499 502 519 498 504 533 506 531 494 518 491 537 521 0 0 0 0 0 0 0 0 0 0 0 0 0 0 0 0 0 0 0 0 0 0 0 0 0 0 0 0 0 0 0 0 0 0 0 0 0 0 0 0 0 0 0 0 0 0 0 0 0 0 0 0 0 0 0 0 0 0 0 0 0 0 0 0 0
0 0 0 0 0 0 0 0 0 0 0 0 0 0 0 0 0 0 0 0 0 0 0 0 0 0 0 0 0 0 0 0 0 0 0 0 0 482 500 506 475 500 494 492 500 511 505 496 499 517 501 504 499 501 502 505 507 482 472 474 0 0 0 0 0 0 0 0 0 0 0 0 0 0 0 0 0 0 0 0 0 0 0 0 0 0 0 0 0 0 0 0 0 0 0 0 0 0 0 0 0 0 0 0 0 0 0 0 0 0 0 0 0 0 0 0 0 0 0 0
0 0 0 0 0 0 0 0 0 0 0 0 0 0 0 0 0 0 0 0 0 0 0 0 0 0 0 0 0 0 0 0 0 0 0 523 495 506 497 503 507 511 492 503 495 500 513 495 512 503 521 517 520 513 524 524 516 502 505 518 500 530 504 554 533 0 0 0 0 0 0 0 0 0 0 0 0 0 0 0 0 0 0 0 0 0 0 0 0 0 0 0 0 0 0 0 0 0 0 0 0 0 0 0 0 0 0 0 0 0 0 0 0 0 0 0 0 0 0 0
0 0 0 0 0 0 0 0 0 0 0 0 0 0 0 0 0 0 0 0 0 0 0 0 0 0 0 0 0 0 0 0 0 492 486 514 491 521 502 501 502 493 502 505 492 504 492 492 504 511 508 493 506 497 486 498 505 502 506 501 510 497 509 490 512 491 469 522 542 501 553 540 502 0 496 570 524 582 526 538 0 0 0 0 0 0 0 0 0 0 0 0 0 0 0 0 0 0 0 0 0 0 0 0 0 0 0 0 0 0 0 0 0 0 0 0 0 0 0 0
0 0 0 0 0 0 0 0 0 0 0 0 0 0 0 0 0 0 0 0 0 0 0 0 0 0 0 0 0 0 0 490 510 518 494 497 495 500 507 507 513 512 505 507 498 515 503 508 505 495 506 496 509 506 506 497 504 515 514 510 516 502 506 513 501 511 509 514 526 527 587 539 559 557 593 607 589 577 547 577 604 516 602 609 552 583 546 586 541 543 578 550 569 594 565 555 549 562 562 547 593 561 536 579 0 559 0 0 0 0 0 0 0 0 0 0 0 0 0 0
0 0 0 0 0 0 0 0 0 0 0 0 0 0 0 0 0 0 0 0 0 0 0 0 0 0 0 0 0 0 535 495 527 502 499 504 510 508 502 518 513 512 511 506 508 515 514 509 513 504 505 504 505 522 512 511 510 521 506 513 517 515 511 515 509 518 514 519 521 541 561 544 588 624 605 583 655 591 583 583 577 618 612 631 604 596 636 641 591 568 597 593 602 640 581 616 609 573 565 643 656 620 577 642 615 648 563 0 0 0 0 0 0 0 0 0 0 0 0 0
0 0 0 0 0 0 0 0 0 0 0 0 0 0 0 0 0 0 0 0 0 0 0 0 0 0 0 0 480 503 492 508 493 507 495 488 502 485 511 501 505 507 501 491 515 503 509 500 501 505 497 504 514 514 504 505 500 506 498 519 509 497 510 519 513 516 511 508 513 518 520 525 567 569 604 571 541 542 595 568 563 544 564 586 571 542 588 531 580 583 556 562 586 549 576 563 547 561 526 550 575 576 561 594 595 576 591 597 593 0 0 0 0 0 0 0 0 0 0 0
0 0 0 0 0 0 0 0 0 0 0 0 0 0 0 0 0 0 0 0 0 0 0 0 0 0 0 532 514 506 508 492 498 499 503 502 498 507 513 505 509 506 505 502 507 509 504 512 503 506 517 514 512 507 520 509 509 509 512 520 517 515 514 513 521 516 512 515 504 510 517 515 565 549 591 601 575 584 582 608 571 579 592 595 565 547 605 582 581 626 568 613 546 589 579 584 589 593 579 584 584 579 585 558 565 558 621 587 597 0 0 0 0 0 0 0 0 0 0 0
0 0 0 0 0 0 0 0 0 0 0 0 0 0 0 0 0 0 0 0 0 0 0 0 0 0 479 507 505 504 504 495 497 498 500 500 501 496 503 503 501 504 498 497 505 508 502 504 505 500 507 505 511 509 509 502 496 508 519 514 506 519 515 514 513 514 507 502 520 511 513 512 540 557 557 517 584 569 561 579 538 567 575 544 592 568 527 550 575 560 554 526 572 565 575 547 576 539 525 578 535 560 552 584 561 541 553 544 524 0 0 0 0 0 0 0 0 0 0 0
0 0 0 0 0 0 0 0 0 0 0 0 0 0 0 0 0 0 0 0 0 0 0 0 0 467 484 486 506 498 502 501 485 489 498 492 509 496 505 494 502 495 505 505 503 497 504 501 503 500 498 502 498 499 503 509 495 504 500 511 509 499 504 509 504 500 509 497 509 504 518 503 503 526 523 564 526 529 521 523 501 557 527 538 529 519 539 516 511 541 510 519 520 541 513 524 517 512 530 528 528 531 519 501 522 547 491 513 490 537 497 0 0 0 0 0 0 0 0 0
0 0 0 0 0 0 0 0 0 0 0 0 0 0 0 0 0 0 0 0 0 0 0 0 0 501 495 496 502 492 503 493 502 492 484 493 496 507 504 496 508 505 502 497 509 507 514 503 504 504 497 511 513 501 498 507 504 499 503 503 504 501 502 515 508 514 508 511 508 509 520 506 512 515 540 555 551 538 568 548 570 555 559 567 575 521 561 583 544 563 551 544 545 547 561 547 548 553 539 549 569 566 553 526 549 554 566 563 558 550 541 554 585 573 0 0 0 0 0 0
0 0 0 0 0 0 0 0 0 0 0 0 0 0 0 0 0 0 0 0 0 0 0 0 463 493 502 494 489 493 491 494 487 493 497 490 487 495 499 494 501 499 500 503 493 498 501 502 497 497 502 501 497 498 501 500 500 501 505 501 503 504 504 506 500 509 507 499 508 501 503 504 516 506 532 505 495 515 544 499 520 513 513 529 517 524 551 528 499 510 520 515 512 513 530 502 507 489 537 520 517 517 532 550 532 528 563 467 544 535 491 0 0 0 0 0 0 0 0 0
0 0 0 0 0 0 0 0 0 0 0 0 0 0 0 0 0 0 0 0 0 0 0 0 486 496 497 486 506 497 496 495 490 492 489 500 500 501 498 497 500 496 497 500 490 512 500 500 499 507 508 502 505 512 503 501 505 507 500 502 511 503 510 505 515 505 507 505 504 507 509 506 500 518 493 521 524 547 525 523 554 551 546 530 549 517 524 543 520 557 523 537 544 529 534 513 518 554 547 545 534 548 532 563 527 540 545 494 539 523 522 0 0 0 0 0 0 0 0 0
0 0 0 0 0 0 0 0 0 0 0 0 0 0 0 0 0 0 0 0 0 0 0 508 509 500 483 505 494 494 499 509 496 496 512 503 506 496 496 504 500 499 501 508 503 510 505 502 506 512 512 506 499 500 512 508 502 506 509 498 516 504 505 505 500 504 518 512 504 514 519 503 512 504 507 529 546 546 544 565 524 564 566 569 578 559 550 558 538 563 570 588 570 562 581 570 514 547 550 518 555 532 555 532 564 544 577 591 602 0 577 0 0 0 0 0 0 0 0 0
0 0 0 0 0 0 0 0 0 0 0 0 0 0 0 0 0 0 0 0 0 0 0 481 495 497 502 498 502 504 484 491 490 502 492 496 481 483 497 501 491 497 501 499 499 494 499 503 499 504 500 501 496 501 497 503 507 504 507 500 505 502 505 506 502 499 510 505 509 508 508 507 512 504 507 517 518 545 538 509 527 530 525 534 511 566 558 516 527 550 551 521 503 535 544 518 526 526 519 559 529 527 523 536 523 544 517 512 492 492 530 0 0 0 0 0 0 0 0 0
0 0 0 0 0 0 0 0 0 0 0 0 0 0 0 0 0 0 0 0 0 0 518 503 492 499 494 500 500 486 496 501 508 498 491 493 491 495 489 494 501 499 496 498 506 496 510 506 505 511 500 506 504 498 503 511 512 496 508 502 506 515 508 501 506 514 507 507 506 506 511 507 513 507 503 514 523 546 556 563 538 525 523 564 582 571 528 521 548 570 564 558 547 567 560 544 586 558 565 545 538 578 559 549 545 528 554 547 555 547 604 537 589 0 0 0 0 0 0 0
0 0 0 0 0 0 0 0 0 0 0 0 0 0 0 0 0 0 0 0 0 0 496 489 487 498 486 492 490 501 493 486 488 495 497 497 484 494 499 497 498 497 489 500 501 494 497 502 497 506 497 503 495 501 497 505 509 506 504 504 510 505 500 508 513 513 506 515 514 505 507 512 511 507 520 509 516 502 512 528 535 510 531 545 521 521 520 526 519 528 515 499 544 539 505 521 517 539 499 546 483 498 546 577 472 543 553 504 512 496 522 0 0 0 0 0 0 0 0 0
0 0 0 0 0 0 0 0 0 0 0 0 0 0 0 0 0 0 0 0 0 0 482 484 486 483 495 488 488 493 491 493 493 486 487 486 493 498 492 495 493 501 493 495 500 501 495 492 495 497 494 494 493 503 497 498 506 502 504 496 509 502 506 501 498 510 508 506 500 504 506 501 509 499 505 500 509 524 503 506 507 519 523 508 516 550 525 504 510 530 535 517 522 519 574 528 545 534 493 499 496 486 526 538 516 525 495 488 519 513 490 508 530 474 0 0 0 0 0 0
0 0 0 0 0 0 0 0 0 0 0 0 0 0 0 0 0 0 0 0 0 0 494 499 492 492 485 499 483 503 497 492 492 491 491 493 490 498 489 500 501 492 502 491 497 496 498 500 501 502 500 510 500 502 498 505 501 497 502 505 504 506 510 511 501 505 503 505 509 495 510 514 504 516 503 508 511 522 516 550 508 513 542 526 545 534 557 502 484 522 526 530 576 520 536 536 541 561 525 553 531 530 518 508 547 569 486 484 534 487 525 546 565 0 0 0 0 0 0 0
0 0 0 0 0 0 0 0 0 0 0 0 0 0 0 0 0 0 0 0 0 0 484 478 484 494 483 488 488 482 486 486 500 484 483 489 487 488 485 493 497 488 506 500 495 495 492 496 494 501 499 504 496 501 497 505 503 498 499 498 501 502 505 501 501 503 498 504 492 505 507 501 506 499 509 506 503 497 501 506 482 488 512 493 480 533 483 482 506 502 509 513 516 510 498 501 476 465 499 501 494 496 474 501 498 505 516 476 500 447 543 447 498 0 0 0 0 0 0 0
0 0 0 0 0 0 0 0 0 0 0 0 0 0 0 0 0 0 0 0 0 0 482 473 489 488 486 488 490 490 496 490 488 494 497 489 491 491 500 487 499 496 496 495 500 488 492 501 504 502 501 500 500 500 500 500 500 498 502 500 506 501 505 506 507 500 500 498 506 504 498 501 504 499 501 503 507 513 524 508 528 538 522 507 541 501 516 518 524 481 516 511 509 538 542 484 531 547 546 504 518 531 516 514 505 535 546 523 491 521 507 508 519 0 0 0 0 0 0 0
0 0 0 0 0 0 0 0 0 0 0 0 0 0 0 0 0 0 0 0 0 455 478 492 485 489 488 484 489 495 486 493 486 501 490 488 500 489 491 496 485 498 492 497 494 494 497 503 497 497 501 500 500 503 508 503 500 505 509 502 503 503 509 506 508 500 504 502 509 507 508 501 506 508 505 507 505 495 537 503 504 514 508 534 536 513 543 521 538 520 526 513 518 550 544 536 514 554 521 564 570 535 534 538 504 554 537 523 546 553 540 0 0 0 0 0 0 0 0 0
0 0 0 0 0 0 0 0 0 0 0 0 0 0 0 0 0 0 0 0 0 454 483 481 497 487 481 479 485 482 481 486 488 488 491 489 484 491 492 485 494 495 491 494 498 494 497 497 497 498 498 498 496 502 501 503 500 497 504 500 497 501 501 498 510 498 505 502 504 500 504 499 502 510 503 510 506 502 508 510 502 504 511 493 525 478 514 521 501 504 461 486 510 491 519 502 499 511 489 501 481 474 501 548 471 484 500 482 540 478 507 467 0 0 0 0 0 0 0 0
0 0 0 0 0 0 0 0 0 0 0 0 0 0 0 0 0 0 0 0 0 468 484 487 488 475 487 483 486 477 483 490 487 486 489 491 486 491 497 493 491 491 494 498 499 493 495 495 494 501 494 498 496 502 497 502 497 497 503 502 511 499 501 500 502 502 506 501 507 503 503 503 498 506 510 499 501 517 512 539 503 506 514 521 532 533 522 520 519 516 529 507 510 539 515 522 560 518 528 506 543 514 505 528 514 535 501 546 543 511 535 531 515 0 545 0 0 0 0 0
0 0 0 0 0 0 0 0 0 0 0 0 0 0 0 0 0 0 0 0 0 450 477 481 487 483 481 483 488 491 482 482 480 491 488 489 486 487 492 492 492 490 494 492 496 493 495 499 495 491 499 498 495 498 502 496 505 500 509 499 495 499 503 499 498 500 507 507 497 505 506 504 506 498 505 500 497 509 513 522 511 494 485 497 508 501 509 509 495 521 504 495 498 506 504 525 485 503 533 486 488 509 503 499 530 498 516 486 507 513 492 496 523 0 0 0 0 0 0 0
0 0 0 0 0 0 0 0 0 0 0 0 0 0 0 0 0 0 0 0 0 448 479 487 479 474 484 481 485 475 487 481 487 485 486 487 486 489 484 493 493 494 490 494 490 490 492 496 494 495 499 495 497 500 493 495 498 495 498 497 499 498 494 493 499 503 504 504 500 498 495 501 496 511 503 501 492 504 483 497 485 519 485 506 499 488 497 482 507 465 470 491 479 499 486 483 471 501 490 483 471 506 486 489 475 479 483 480 477 484 463 489 0 0 0 0 0 0 0 0
0 0 0 0 0 0 0 0 0 0 0 0 0 0 0 0 0 0 0 0 0 468 477 483 474 479 482 490 478 484 485 483 487 488 489 488 485 487 487 495 490 493 501 490 497 494 499 496 498 495 489 494 497 501 497 502 492 497 501 503 495 502 501 501 503 513 503 501 500 512 510 502 505 503 500 494 497 500 493 497 504 512 495 516 506 515 501 502 492 508 521 510 487 494 508 498 501 509 470 503 524 512 570 503 501 518 489 504 512 513 531 503 545 539 0 0 0 0 0 0
0 0 0 0 0 0 0 0 0 0 0 0 0 0 0 0 0 0 0 0 0 439 477 479 468 482 474 474 484 478 480 479 480 474 480 482 486 485 483 489 492 486 490 493 494 491 485 494 494 492 493 496 495 498 494 497 493 497 499 503 496 498 493 496 498 498 499 497 500 506 504 500 503 501 503 498 499 503 496 508 484 489 489 481 503 498 486 495 493 493 509 492 487 479 499 476 471 473 494 501 465 495 516 501 481 467 524 495 480 475 505 491 503 0 0 0 0 0 0 0
0 0 0 0 0 0 0 0 0 0 0 0 0 0 0 0 0 0 0 0 0 476 478 476 477 480 484 483 474 476 479 483 481 485 483 485 486 484 488 494 489 489 491 493 489 491 490 493 497 488 494 494 497 495 497 493 495 499 497 501 497 501 502 497 500 504 497 498 497 501 497 496 503 497 504 494 502 501 501 498 509 503 495 508 504 503 497 506 498 519 509 499 515 509 496 486 496 499 501 500 511 545 508 519 511 512 514 524 500 511 507 524 511 0 0 0 0 0 0 0
0 0 0 0 0 0 0 0 0 0 0 0 0 0 0 0 0 0 0 0 0 493 477 475 477 480 475 477 487 484 483 491 494 489 484 483 484 487 489 490 489 487 486 488 490 493 492 493 501 492 497 495 497 495 496 492 497 501 500 496 501 501 503 495 501 503 498 505 503 499 498 499 501 503 506 502 500 508 495 513 529 505 521 537 527 508 510 522 497 513 508 509 532 517 511 524 499 490 516 510 551 518 500 538 532 518 510 500 520 525 547 503 523 550 0 0 0 0 0 0
0 0 0 0 0 0 0 0 0 0 0 0 0 0 0 0 0 0 0 0 0 432 470 471 472 480 478 479 482 483 476 481 476 480 486 480 485 483 485 489 492 489 488 491 490 484 490 489 488 493 493 494 494 494 495 496 493 497 496 499 493 498 496 497 497 500 500 500 496 498 498 497 499 498 496 502 499 497 500 503 489 511 516 471 505 489 492 473 488 486 499 514 473 485 513 506 473 475 491 492 500 500 476 510 495 459 491 527 502 504 458 505 474 500 0 0 0 0 0 0
0 0 0 0 0 0 0 0 0 0 0 0 0 0 0 0 0 0 0 0 0 503 473 470 481 478 479 478 480 480 482 487 485 488 484 491 489 483 484 492 483 491 489 491 491 497 489 494 491 495 495 495 499 495 495 498 498 492 492 496 494 501 500 499 501 504 503 500 505 500 499 496 506 497 501 492 500 495 499 511 518 512 495 506 486 509 494 491 514 498 507 522 508 491 518 496 502 518 509 525 503 517 526 531 526 514 511 510 528 474 528 549 592 573 493 0 0 0 0 0
0 0 0 0 0 0 0 0 0 0 0 0 0 0 0 0 0 0 0 0 0 0 478 473 474 474 473 476 476 477 484 483 490 476 485 477 487 481 486 484 484 487 491 492 494 493 491 494 495 495 498 499 494 496 502 497 492 496 493 494 497 502 494 500 498 499 498 496 501 494 496 500 496 498 500 493 495 497 489 495 491 506 501 520 493 491 512 493 494 492 513 504 513 481 506 504 515 515 513 513 520 493 484 510 507 504 480 513 480 499 505 471 457 485 0 0 0 0 0 0
0 0 0 0 0 0 0 0 0 0 0 0 0 0 0 0 0 0 0 0 0 0 497 472 471 481 481 477 475 482 480 480 480 487 483 480 480 484 487 481 491 483 485 483 486 490 490 489 497 492 491 496 493 498 489 493 493 496 494 496 496 492 495 497 496 497 499 501 500 497 502 499 498 495 494 496 492 508 500 495 497 505 492 494 507 507 484 482 498 492 519 506 492 507 518 502 495 482 499 511 480 489 471 477 477 499 473 495 507 492 487 500 521 481 0 0 0 0 0 0
0 0 0 0 0 0 0 0 0 0 0 0 0 0 0 0 0 0 0 0 0 0 525 471 474 481 476 478 487 476 479 480 479 485 481 488 492 488 484 489 489 484 491 488 489 492 495 488 490 497 491 502 494 491 496 494 495 492 496 496 498 493 497 499 500 495 502 498 495 498 495 501 499 494 493 498 499 508 493 503 498 518 525 515 524 525 522 494 513 518 536 532 493 516 538 511 522 506 527 515 510 489 505 507 500 541 497 525 497 528 478 518 487 524 535 485 0 0 0 0
0 0 0 0 0 0 0 0 0 0 0 0 0 0 0 0 0 0 0 0 0 0 560 471 471 472 481 476 473 471 477 471 474 476 482 483 485 483 486 487 483 489 487 490 489 488 493 487 488 488 488 496 490 494 492 496 495 497 497 493 495 495 502 495 498 498 496 500 499 496 492 496 492 500 489 495 498 491 493 495 474 499 492 499 518 511 494 478 507 489 508 496 516 494 480 503 507 498 515 492 484 487 490 487 464 458 483 487 462 479 472 452 450 458 0 0 0 0 0 0
0 0 0 0 0 0 0 0 0 0 0 0 0 0 0 0 0 0 0 0 0 0 772 480 477 472 479 479 477 474 483 477 478 484 481 477 479 481 486 485 488 489 488 489 489 490 487 488 493 493 490 494 494 493 497 491 494 498 494 494 496 500 494 493 497 494 491 500 498 496 502 493 497 497 492 495 493 486 493 513 500 514 489 494 502 514 505 508 500 508 499 506 509 518 529 514 515 521 498 519 511 535 511 508 496 505 492 508 512 489 543 495 520 0 471 0 0 0 0 0
0 0 0 0 0 0 0 0 0 0 0 0 0 0 0 0 0 0 0 0 0 0 0 493 469 478 478 473 478 480 478 476 478 481 479 479 481 478 491 481 487 483 495 488 487 490 489 490 489 494 489 493 494 495 496 493 493 492 497 493 493 496 493 495 493 497 497 502 501 496 500 496 498 496 494 492 498 491 497 504 502 505 489 515 494 500 509 491 502 521 511 511 500 515 500 526 505 514 515 502 526 537 533 490 477 473 537 480 505 514 501 523 508 0 0 0 0 0 0 0
0 0 0 0 0 0 0 0 0 0 0 0 0 0 0 0 0 0 0 0 0 0 0 489 467 471 473 472 472 472 478 477 478 478 473 481 478 476 477 484 484 480 488 483 485 492 490 486 492 486 493 492 493 487 496 491 494 492 484 494 495 491 493 491 498 494 494 499 493 494 494 494 494 497 493 494 494 490 494 503 494 481 496 487 500 502 519 502 494 489 481 497 500 505 517 474 470 479 475 505 509 493 510 485 464 461 464 485 480 484 497 462 463 434 0 0 0 0 0 0
0 0 0 0 0 0 0 0 0 0 0 0 0 0 0 0 0 0 0 0 0 0 0 0 480 470 471 477 472 473 478 475 479 477 484 483 479 485 480 481 482 484 487 489 484 490 491 488 491 491 494 493 496 492 497 495 492 492 491 496 498 499 495 496 501 495 495 496 497 494 494 501 496 488 493 494 495 512 518 512 492 511 495 515 503 508 524 513 528 514 534 502 513 496 540 519 517 520 510 500 514 525 514 533 537 505 525 482 516 480 486 526 494 570 475 487 0 0 0 0
0 0 0 0 0 0 0 0 0 0 0 0 0 0 0 0 0 0 0 0 0 0 0 0 485 466 472 469 470 473 471 477 478 476 475 481 480 475 477 481 486 481 481 486 482 485 494 488 491 493 489 493 491 491 490 491 491 493 496 489 494 491 492 498 494 494 492 493 493 494 498 494 494 495 493 486 497 492 495 492 494 496 480 519 493 509 484 515 480 493 507 516 496 506 503 523 503 529 513 474 478 480 466 481 481 449 437 466 478 468 494 501 462 482 477 0 0 0 0 0
0 0 0 0 0 0 0 0 0 0 0 0 0 0 0 0 0 0 0 0 0 0 0 0 0 473 467 470 467 469 471 474 474 474 473 476 479 475 478 477 482 482 483 483 487 483 491 485 488 484 494 489 489 485 484 490 490 486 484 489 494 493 493 494 490 491 491 495 490 491 493 489 498 494 489 484 485 495 488 490 492 486 484 489 500 490 486 482 494 500 496 486 517 489 523 490 478 506 493 490 509 491 460 473 481 460 485 488 440 455 482 509 480 466 478 0 0 0 0 0
0 0 0 0 0 0 0 0 0 0 0 0 0 0 0 0 0 0 0 0 0 0 0 0 0 550 473 470 471 471 470 472 476 475 476 475 478 478 480 477 480 478 478 487 483 486 482 488 484 488 488 485 485 491 487 495 491 491 490 493 487 496 491 487 488 495 492 492 493 490 497 490 498 491 490 489 488 485 497 478 501 486 494 484 493 500 494 500 502 487 500 491 492 504 504 513 520 499 530 506 500 512 513 501 492 487 491 460 490 483 487 463 474 450 538 0 0 0 0 0
0 0 0 0 0 0 0 0 0 0 0 0 0 0 0 0 0 0 0 0 0 0 0 0 0 0 467 467 467 473 469 471 473 469 470 476 472 473 476 481 475 474 481 479 485 481 483 478 485 484 488 486 490 489 483 487 488 489 490 491 487 487 490 490 494 486 492 490 496 491 493 494 490 488 483 478 487 489 484 480 487 482 483 487 478 493 487 481 472 479 487 484 483 476 478 490 475 477 488 471 487 508 478 463 443 482 454 457 436 465 445 446 430 436 0 0 0 0 0 0
0 0 0 0 0 0 0 0 0 0 0 0 0 0 0 0 0 0 0 0 0 0 0 0 0 0 0 467 474 466 474 469 476 474 478 472 478 480 475 479 480 477 476 483 479 482 482 483 485 482 486 481 488 484 483 484 489 491 487 491 490 491 492 490 489 487 489 485 489 491 492 485 487 487 496 485 493 487 496 492 484 481 483 479 488 508 495 485 476 494 499 489 502 495 504 499 478 506 502 496 497 488 510 523 484 512 483 514 471 480 461 456 496 481 478 0 0 0 0 0
0 0 0 0 0 0 0 0 0 0 0 0 0 0 0 0 0 0 0 0 0 0 0 0 0 0 0 525 468 468 466 467 474 473 473 472 478 478 472 479 477 478 478 482 482 475 483 486 483 487 485 485 486 491 484 488 485 486 484 493 492 489 487 487 495 488 491 487 491 487 495 491 486 482 495 482 482 505 494 506 491 499 486 506 490 504 498 502 504 503 512 492 498 498 498 491 482 520 513 504 510 506 491 472 476 494 525 504 515 461 474 515 516 519 510 0 0 0 0 0
0 0 0 0 0 0 0 0 0 0 0 0 0 0 0 0 0 0 0 0 0 0 0 0 0 0 0 0 499 472 460 466 469 467 476 474 473 477 474 473 478 477 477 475 479 481 479 478 477 480 481 480 481 481 485 486 480 485 485 488 484 486 489 490 486 483 481 487 488 486 484 479 480 483 491 481 476 480 486 466 493 472 491 481 471 489 493 483 476 488 476 499 482 500 476 478 475 457 502 480 492 483 479 468 449 463 478 458 450 441 470 463 412 479 433 0 0 0 0 0
0 0 0 0 0 262 246 264 374 0 0 0 0 0 0 0 0 0 0 0 0 2349 0 0 0 0 0 0 0 525 460 469 469 470 465 470 474 476 474 474 473 479 484 474 480 481 485 483 481 477 481 483 478 480 483 484 485 487 486 485 487 485 486 490 485 489 484 486 482 491 482 494 483 495 497 480 486 483 478 495 492 484 492 508 484 502 488 482 489 509 499 496 520 481 531 523 502 483 487 510 485 486 512 500 484 527 493 509 493 487 496 493 501 543 492 0 0 0 0 0
0 0 0 0 238 231 233 235 239 280 349 0 0 0 0 0 0 0 0 0 0 2393 0 0 0 0 0 0 0 0 469 462 466 469 472 471 472 474 472 475 472 477 475 471 480 472 479 476 481 478 480 479 483 482 482 484 481 482 485 484 484 480 482 485 483 487 486 480 483 481 476 478 476 483 489 486 486 484 473 472 480 472 478 480 480 496 481 472 473 473 480 494 485 453 474 478 477 486 490 483 484 476 477 478 450 450 482 483 471 454 475 446 427 0 0 0 0 0 0 0
0 0 0 242 222 224 222 231 236 240 334 0 0 0 0 0 0 0 0 0 0 0 0 0 0 0 0 0 0 0 0 456 464 468 460 466 465 469 463 470 470 469 474 473 474 474 475 476 475 480 475 477 484 479 481 485 482 477 476 478 479 487 481 477 480 477 482 476 465 478 474 468 475 483 480 465 484 471 471 474 481 473 477 472 472 458 489 479 488 487 468 474 469 465 472 469 468 483 475 476 477 470 452 464 481 435 458 455 434 438 435 432 520 420 423 0 0 0 0 0
219 227 278 282 277 292 296 234 240 242 319 0 431 426 421 406 421 417 430 429 469 472 449 440 454 450 455 462 466 463 454 458 468 467 471 461 465 467 466 471 467 475 474 465 476 470 474 477 477 478 477 481 477 478 484 480 484 472 481 475 478 485 479 479 486 477 476 488 476 474 483 477 478 479 475 469 474 474 467 464 478 472 490 466 464 474 467 503 489 476 473 475 475 488 485 479 461 467 474 478 476 486 494 478 455 478 444 459 479 452 449 469 476 469 483 0 0 0 0 0
159 174 172 178 176 221 247 232 228 250 373 378 379 398 392 388 396 403 395 400 394 402 399 419 419 425 421 431 437 443 451 456 447 453 454 456 454 464 458 458 455 461 460 463 459 464 465 462 472 471 464 471 473 473 471 469 471 471 467 469 466 470 466 469 470 467 472 469 472 473 468 466 466 468 456 458 461 449 449 469 456 456 464 451 444 453 432 455 447 450 439 451 429 436 458 448 460 441 428 439 447 441 442 425 436 431 419 425 428 411 418 415 420 413 425 408 410 0 0 0
203 209 220 215 223 243 235 228 231 293 388 365 378 367 381 368 383 386 387 382 394 384 387 401 418 410 420 430 432 445 437 446 443 445 444 447 443 444 448 449 447 449 450 452 453 451 452 457 456 453 456 457 460 458 459 454 458 458 463 471 463 470 459 464 465 455 459 456 463 452 462 455 450 450 439 439 433 436 422 431 437 432 435 427 424 435 429 434 429 432 438 440 438 418 434 431 426 437 431 433 423 414 420 415 414 433 412 408 429 408 440 429 415 430 413 441 416 456 418 0
269 305 242 226 229 230 231 233 266 336 340 335 346 333 341 351 327 342 346 354 351 367 365 373 372 395 393 411 419 422 426 425 420 438 428 427 434 427 432 435 435 436 434 437 433 440 436 437 445 441 444 444 448 444 447 444 446 445 448 447 450 448 447 445 442 439 442 442 440 440 431 435 428 424 422 420 415 418 410 402 406 401 395 403 406 403 401 394 413 398 404 398 409 405 413 386 418 414 385 394 387 398 402 404 399 404 385 375 393 393 381 375 399 390 415 396 401 426 442 0
297 271 292 233 233 229 233 241 287 311 308 321 315 297 310 309 319 304 320 326 324 326 331 343 353 357 377 377 390 394 400 401 406 411 410 407 417 418 411 410 414 410 418 415 416 419 415 423 414 421 415 414 419 414 422 420 421 427 420 425 420 421 415 420 421 417 421 419 416 419 411 410 408 403 399 396 383 364 364 360 368 364 355 370 358 346 365 367 368 362 362 358 352 373 354 366 359 374 359 357 366 367 356 359 359 362 350 369 353 351 358 364 365 349 363 336 350 383 350 371
292 305 282 281 261 255 281 286 301 295 285 281 298 296 297 297 294 297 300 289 308 315 315 324 335 362 363 372 364 382 389 394 398 395 389 388 393 399 397 397 400 399 397 396 395 402 403 396 400 395 396 405 406 399 393 397 398 402 402 402 398 402 400 399 399 390 397 393 400 400 395 393 391 393 377 368 359 357 353 334 349 323 331 341 338 332 343 340 337 341 328 341 338 340 347 344 326 326 329 340 340 330 342 349 351 348 349 363 349 336 328 354 347 344 376 341 362 335 356 366
246 245 249 248 247 252 261 249 262 263 248 265 267 253 249 255 259 259 271 270 269 278 292 298 303 318 330 343 347 365 368 360 367 363 356 363 374 368 368 365 370 365 375 371 376 371 371 366 370 377 377 379 373 380 378 375 377 380 375 380 378 371 379 371 368 379 371 375 371 369 368 367 355 359 347 343 335 321 308 315 301 301 300 299 301 299 302 299 292 294 295 306 304 298 296 302 292 296 296 306 297 311 310 314 309 302 298 298 312 294 315 294 327 315 280 301 310 340 294 315
233 224 222 228 235 237 236 238 240 238 231 241 240 249 238 243 241 240 254 246 257 264 265 280 297 292 315 329 326 324 333 338 337 337 339 343 340 348 335 350 344 349 350 355 350 345 353 351 348 344 348 351 351 353 352 352 343 350 350 346 350 355 351 341 349 346 352 346 349 347 351 340 338 336 335 324 312 298 291 295 281 276 280 277 282 272 281 282 278 278 281 271 276 278 278 265 274 281 280 276 276 280 268 280 273 271 278 280 282 276 275 290 280 278 276 278 276 281 267 250
225 222 227 233 234 217 220 224 224 232 229 230 225 240 230 231 234 223 233 237 244 241 255 261 277 288 292 298 299 304 309 318 321 315 321 325 326 322 323 337 322 321 322 317 326 323 325 329 325 327 323 330 330 332 334 328 327 323 334 323 327 326 325 327 332 325 332 323 327 320 322 326 322 318 301 304 282 281 279 269 272 268 267 264 267 259 259 260 256 254 255 265 262 263 272 253 263 254 261 256 258 262 255 263 259 261 268 266 268 266 272 266 264 269 276 270 269 280 284 250
202 204 197 211 220 207 214 218 212 217 207 214 211 212 216 208 215 216 223 222 225 233 249 241 253 263 267 273 279 285 289 289 297 292 291 303 296 303 303 302 298 298 300 298 303 299 303 299 305 308 308 298 300 304 303 302 307 307 304 304 305 308 307 305 302 304 300 310 301 299 297 297 304 287 280 278 266 261 256 252 248 245 247 250 246 245 242 241 238 243 245 240 240 248 230 238 237 237 234 246 246 240 241 240 235 244 238 237 250 236 240 245 254 241 228 242 228 236 223 260
198 207 197 203 201 202 208 208 202 191 205 183 206 207 204 206 209 212 213 217 217 226 237 230 244 249 247 259 271 269 274 266 272 274 277 281 279 283 285 287 283 284 289 290 285 281 282 286 283 283 284 281 280 284 285 285 291 287 284 292 283 286 284 289 290 284 283 285 283 289 282 282 273 272 268 259 256 243 245 240 228 231 234 232 229 232 226 225 230 232 229 234 223 230 232 222 230 222 229 232 222 229 225 229 226 217 229 226 232 229 240 235 239 240 252 247 247 225 221 258
181 173 194 174 181 184 190 190 189 178 184 181 187 183 190 180 186 185 192 190 211 214 219 232 229 230 245 247 250 253 253 255 257 259 259 260 257 263 267 263 266 267 267 267 263 264 268 270 264 266 267 267 265 265 262 268 265 275 266 273 269 271 264 269 267 270 274 270 268 265 267 262 258 256 255 244 240 233 222 223 225 226 222 216 220 218 202 217 215 218 212 221 218 194 215 211 210 209 214 216 217 225 216 214 208 210 221 212 214 223 228 238 236 236 219 216 233 245 234 243
173 178 171 176 172 172 182 179 180 180 186 180 181 182 187 184 186 188 179 189 185 190 189 200 217 221 223 223 231 230 234 244 245 248 239 244 244 245 248 244 243 245 247 249 255 252 249 249 245 254 247 251 247 248 247 246 248 254 251 252 249 246 254 247 246 249 250 251 245 250 245 245 243 242 235 229 224 223 199 201 194 198 186 188 195 197 193 188 193 186 194 189 194 183 187 187 191 190 192 195 190 206 191 190 194 190 187 216 203 204 207 215 215 198 212 205 181 219 212 212
174 171 176 174 174 177 180 175 178 178 181 176 178 177 181 180 180 184 183 184 191 186 189 196 214 196 217 220 219 226 224 227 227 226 230 227 233 231 230 228 232 229 238 235 239 233 228 229 235 236 238 240 237 234 234 233 237 240 238 240 233 242 238 233 240 236 237 231 233 236 238 233 233 223 218 220 214 200 191 192 192 187 196 190 195 194 186 191 194 192 194 183 185 186 187 185 190 188 188 185 176 184 181 178 191 189 187 176 180 181 185 189 198 209 210 206 214 224 223 220
165 164 167 172 176 171 169 168 165 171 169 168 168 166 168 174 174 178 179 180 175 182 180 182 185 185 189 190 193 210 199 215 212 211 215 215 215 200 217 194 215 220 224 217 217 221 220 220 223 221 219 223 221 220 222 221 221 225 218 223 218 224 223 217 220 218 219 218 220 220 226 217 216 195 194 193 187 197 193 185 187 184 187 185 185 183 184 184 186 185 185 185 185 185 185 180 181 180 182 182 180 186 183 183 183 183 185 178 179 177 182 174 176 177 180 178 172 172 167 212
147 153 159 156 161 165 161 164 164 163 159 162 160 160 163 161 161 168 172 173 172 175 183 182 184 186 184 189 183 193 183 185 195 189 186 194 189 189 186 191 192 192 193 195 198 197 195 198 195 193 197 196 199 197 200 195 194 194 191 196 202 199 201 190 192 196 191 190 198 194 197 195 195 192 199 195 198 190 186 182 176 177 177 174 175 172 176 180 175 178 177 179 173 170 173 175 169 169 169 174 168 170 170 170 172 170 173 168 165 170 174 167 172 180 178 174 177 167 168 183
148 148 155 153 156 159 156 160 160 158 159 161 155 155 156 157 160 164 157 170 169 168 175 173 176 181 179 183 185 188 189 190 190 191 187 188 191 194 192 191 196 196 192 196 194 197 194 199 197 193 197 188 198 199 200 196 198 198 198 198 201 199 201 200 193 196 198 199 200 197 197 195 192 193 190 188 187 184 178 173 175 175 170 166 170 170 171 172 171 167 169 166 176 163 171 167 164 164 165 169 167 166 174 168 171 167 162 165 167 168 168 165 169 172 174 170 171 174 172 162
146 143 143 147 148 150 146 148 151 152 147 154 152 153 150 149 153 150 156 159 159 162 166 176 172 168 174 175 177 182 177 179 180 182 179 181 185 178 184 184 182 184 189 185 183 183 186 187 189 188 185 189 190 187 189 186 186 189 0 190 190 189 187 189 188 188 186 187 186 184 183 183 181 180 176 178 174 173 173 166 158 158 163 160 160 161 163 160 162 165 160 162 158 160 162 163 158 158 164 161 160 162 159 155 157 153 153 161 157 156 152 163 152 160 155 172 159 154 159 166
141 141 137 146 142 150 152 145 147 147 147 148 142 148 146 149 144 147 148 155 160 159 165 164 170 169 169 169 170 172 170 174 176 174 172 175 175 174 175 176 177 179 178 177 177 182 178 179 176 179 180 179 180 181 183 182 186 0 0 181 180 177 183 179 181 180 178 178 179 177 175 175 178 177 176 171 169 167 163 163 162 157 156 159 155 159 157 158 155 155 155 156 157 154 157 154 152 154 158 153 154 154 150 157 150 150 147 152 163 158 154 156 148 154 150 157 152 150 142 157
136 136 133 137 145 142 149 140 142 141 143 143 140 144 144 142 145 150 147 147 149 156 155 159 161 160 162 164 165 166 164 166 168 168 165 166 167 173 167 170 172 0 175 167 175 174 170 171 173 173 175 175 174 178 177 0 176 174 0 175 0 0 175 174 174 170 172 169 172 172 171 167 171 170 166 163 165 156 159 152 150 154 155 149 151 152 151 151 152 157 148 150 151 152 149 150 153 152 157 151 153 145 148 150 149 148 144 144 147 146 144 147 145 161 152 153 143 154 156 171
130 125 126 117 136 132 140 141 136 121 133 131 135 133 138 137 135 138 138 140 140 147 149 153 148 160 156 158 160 164 160 156 160 162 161 160 164 160 0 0 0 0 0 0 0 0 0 169 167 163 167 165 166 167 0 0 171 168 0 0 0 0 0 0 163 164 168 0 161 162 162 161 161 158 153 157 157 158 149 152 149 147 146 148 144 150 146 145 145 148 145 146 144 147 141 141 141 147 146 142 139 139 144 138 138 129 139 131 135 140 140 146 143 151 140 144 141 142 150 129
125 127 127 126 131 133 137 133 140 132 132 137 126 127 135 127 123 139 140 139 141 143 146 148 146 150 156 155 155 156 153 156 157 159 155 154 157 0 0 0 0 0 0 0 0 0 0 0 0 160 165 164 0 0 0 0 0 0 0 0 0 0 0 0 0 0 0 0 0 0 0 159 163 156 157 151 153 152 151 145 140 143 144 144 139 142 145 140 146 141 138 141 143 144 138 140 145 141 142 142 139 138 139 135 132 134 139 139 144 146 140 144 143 152 138 149 145 135 140 166
114 110 119 122 126 128 130 132 128 128 133 124 121 120 122 130 134 124 132 139 126 126 135 145 140 142 144 144 147 150 154 151 152 154 148 150 0 0 0 0 0 0 0 0 0 0 0 0 152 153 156 0 0 0 0 0 0 0 0 0 0 0 0 0 0 0 0 0 0 0 0 0 149 149 150 147 148 147 143 146 140 139 137 131 128 126 139 139 130 141 138 140 130 129 119 127 141 137 133 134 129 143 136 124 128 135 136 134 132 132 131 134 135 139 136 139 140 129 112 153
107 110 112 114 105 113 120 117 116 123 116 115 118 115 128 120 123 122 120 121 120 124 127 122 134 141 139 140 144 144 144 145 145 146 146 143 0 0 0 0 0 0 0 0 0 0 0 0 145 0 0 0 0 0 0 0 0 0 0 0 0 0 0 0 0 0 0 0 0 0 0 0 147 139 141 142 139 131 129 140 127 120 124 120 127 121 125 127 125 130 124 125 115 129 125 129 128 134 121 119 119 130 133 118 119 120 117 123 131 136 126 132 116 129 111 134 114 111 120 128
110 111 119 115 115 114 117 118 121 118 116 118 116 116 118 125 122 130 124 112 115 117 122 119 132 128 139 140 0 141 0 0 0 139 142 0 0 0 0 0 0 0 0 0 0 0 0 0 0 0 0 0 0 0 0 0 0 0 0 0 0 0 0 0 0 0 0 0 0 0 0 0 0 145 128 128 129 125 123 127 122 117 123 124 118 121 120 123 122 120 118 129 117 117 116 123 121 119 123 124 119 124 131 122 123 117 118 125 112 130 131 115 126 117 133 122 118 137 143 142
102 102 109 111 106 103 105 109 105 105 109 107 104 105 105 110 108 112 116 110 115 114 110 117 120 123 126 120 121 127 0 0 0 0 127 0 0 0 0 0 0 0 0 0 0 0 0 0 0 0 0 0 0 0 0 0 0 0 0 0 0 0 0 0 0 0 0 0 0 0 0 0 130 0 0 122 121 120 124 115 116 116 107 115 114 119 111 115 110 113 117 114 110 113 109 106 112 113 115 112 116 113 110 117 108 116 105 110 111 111 105 110 106 118 114 104 102 117 123 129
99 102 91 96 101 102 104 101 101 103 104 102 108 109 111 105 107 112 119 103 112 109 109 110 117 111 114 120 121 121 0 128 0 0 0 0 0 0 0 0 0 0 0 0 0 0 0 0 0 0 0 0 0 0 0 0 0 0 0 0 0 0 0 0 0 0 0 0 0 0 0 0 0 0 0 117 123 117 114 107 111 112 104 104 114 109 112 118 104 111 113 113 112 113 110 122 106 110 99 116 110 110 114 101 107 115 109 110 114 118 108 105 110 103 105 114 126 98 126 130
99 101 97 103 98 100 105 93 93 99 96 99 102 95 97 96 107 103 114 113 112 109 100 110 114 107 114 114 114 124 119 118 122 0 0 0 0 0 0 0 0 0 0 0 0 0 0 0 0 0 0 0 0 0 0 0 0 0 0 0 0 0 0 0 0 0 0 0 0 0 0 0 126 122 110 123 114 120 122 121 105 112 106 116 110 107 105 104 103 106 105 107 116 96 102 102 110 104 114 105 106 108 113 109 106 109 106 97 99 107 100 104 107 109 122 103 138 124 135 120
87 85 82 86 82 84 83 93 89 83 90 91 98 98 93 88 94 94 91 89 92 89 102 104 99 100 116 109 0 116 108 109 118 0 109 0 0 0 0 0 0 0 0 0 0 0 0 0 0 0 0 0 0 0 0 0 0 0 0 0 0 0 0 0 0 0 0 0 0 0 0 115 110 109 106 110 109 108 104 98 101 107 97 91 101 94 93 98 105 103 90 98 104 84 86 98 92 103 87 93 90 95 90 90 86 90 95 93 91 90 92 91 80 98 105 92 95 85 92 101
96 85 91 93 96 99 100 107 92 96 96 98 94 95 97 94 100 94 103 97 97 108 108 104 103 106 114 108 0 106 113 112 118 111 120 110 0 0 113 0 0 119 0 0 0 0 0 0 0 0 0 0 0 0 0 0 0 0 0 0 117 0 0 0 114 0 0 0 112 0 110 113 115 112 115 112 110 114 103 96 109 105 108 90 98 104 106 106 101 103 106 107 111 101 101 104 101 96 105 114 106 98 97 100 98 106 100 94 89 83 95 94 88 102 109 112 117 126 146 160
82 90 90 90 96 100 91 92 87 96 85 90 90 95 90 89 96 97 97 94 101 93 96 113 90 102 104 101 105 107 97 0 106 104 98 102 0 115 116 0 0 0 0 0 0 0 0 0 0 0 0 0 0 0 0 0 0 109 0 0 109 105 107 112 113 113 103 103 113 106 110 104 101 105 115 107 101 92 105 98 94 94 101 86 94 94 94 104 109 97 99 106 109 84 86 84 88 92 94 89 95 86 92 98 93 87 98 93 95 86 96 90 85 99 97 93 125 128 135 120
84 87 82 87 92 94 103 88 89 82 89 88 84 93 88 94 90 90 92 89 82 91 97 87 88 95 90 92 102 91 94 98 97 98 93 110 101 101 103 103 104 96 100 111 107 89 0 0 97 0 0 109 105 91 102 109 107 103 108 102 102 108 110 101 102 106 104 97 98 107 100 109 105 99 105 93 95 97 100 91 93 91 92 96 97 92 89 91 97 97 101 88 93 92 94 91 87 85 96 85 87 92 93 94 89 92 94 86 81 100 88 95 104 105 79 100 99 95 94 134
86 80 86 84 86 89 100 105 84 85 89 84 83 91 86 94 90 94 92 97 84 96 95 95 83 93 97 91 99 100 98 91 98 95 98 96 99 98 96 108 100 97 99 108 100 96 105 0 102 103 97 105 98 103 105 104 102 108 99 108 103 94 96 103 101 103 94 104 95 106 97 105 102 93 107 86 93 95 96 97 98 98 86 89 97 98 90 86 94 89 89 99 88 94 96 81 95 92 99 94 93 97 85 91 88 100 95 101 89 89 88 102 108 106 101 117 117 92 125 134
82 73 70 68 79 84 86 89 87 80 85 79 87 77 90 86 88 87 85 85 92 87 93 88 88 86 95 93 96 95 91 93 82 92 96 93 95 84 89 97 93 98 84 88 96 94 92 101 92 89 95 96 98 92 89 85 101 89 99 98 99 99 81 99 97 99 96 90 99 98 93 89 94 93 85 95 94 94 92 95 89 92 86 87 85 93 91 85 83 88 95 81 87 83 86 89 83 76 83 91 82 86 81 70 84 82 83 81 77 73 81 89 84 90 92 64 133 78 95 53
73 74 81 88 74 87 91 88 87 84 83 90 80 83 86 88 88 90 85 90 84 92 85 91 89 95 94 85 88 90 84 96 91 101 89 95 87 96 96 98 96 82 93 91 89 98 92 96 101 91 93 88 98 85 101 93 93 85 91 98 99 87 96 96 90 95 89 98 106 96 96 95 83 86 96 84 97 97 94 97 91 92 88 88 82 90 90 77 95 95 80 90 79 81 91 84 92 86 82 83 88 84 83 77 81 86 84 85 82 98 84 90 90 104 116 85 92 131 119 166
