0 0 0 0 0 0 0 0 0 0 0 0 0 0 0 0 0 0 0 0 0 0 0 0 0 0 0 0 0 0 0 0 0 0 0 0 0 0 0 0 0 0 0 0 0 0 0 0 0 0 0 0 0 0 0 0 0 0 0 0 0 0 0 0 0 0 0 0 0 0 0 0 0 0 0 0 0 0 0 0 0 0 0 0 0 0 0 0 0 0 0 0 0 0 0 0 0 0 0 0 0 0 0 0 0 0 0 0 0 0 0 0 0 0 0 0 0 0 0 0
0 0 0 0 0 0 0 0 0 0 0 0 0 0 0 0 0 0 0 0 0 0 0 0 0 0 0 0 0 0 0 0 0 0 0 0 0 0 0 0 0 0 0 0 0 0 0 0 0 0 0 0 0 0 0 0 0 0 0 0 0 0 0 0 0 0 0 0 0 0 0 0 0 0 0 0 0 0 0 0 0 0 0 0 0 0 0 0 0 0 0 0 0 0 0 0 0 0 0 0 0 0 0 0 0 0 0 0 0 0 0 0 0 0 0 0 0 0 0 0
0 0 0 0 0 0 0 0 0 0 0 0 0 0 0 0 0 0 0 0 0 0 0 0 0 0 0 0 0 0 0 0 0 0 0 0 0 0 0 0 0 0 0 0 0 0 0 0 0 0 0 0 0 0 0 0 0 0 0 0 0 0 0 0 0 0 0 0 0 0 0 0 0 0 0 0 0 0 0 0 0 0 0 0 0 0 0 0 0 0 0 0 0 0 0 0 0 0 0 0 0 0 0 0 0 0 0 0 0 0 0 0 0 0 0 0 0 0 0 0
0 0 0 0 0 0 0 0 0 0 0 0 0 0 0 0 0 0 0 0 0 0 0 0 0 0 0 0 0 0 0 0 0 0 0 0 0 0 0 0 0 0 0 0 0 0 0 0 0 0 0 0 0 0 0 0 0 0 0 0 0 0 0 0 0 0 0 0 0 0 0 0 0 0 0 0 0 0 0 0 0 0 0 0 0 0 0 0 0 0 0 0 0 0 0 0 0 0 0 0 0 0 0 0 0 0 0 0 0 0 0 0 0 0 0 0 0 0 0 0
0 0 0 0 0 0 0 0 0 0 0 0 0 0 0 0 0 0 0 0 0 0 0 0 0 0 0 0 0 0 0 0 0 0 0 0 0 0 0 0 0 0 0 0 0 0 0 0 0 0 0 0 0 0 0 0 0 0 0 0 0 0 0 0 0 0 0 0 0 0 0 0 0 0 0 0 0 0 0 0 0 0 0 0 0 0 0 0 0 0 0 0 0 0 0 0 0 0 0 0 0 0 0 0 0 0 0 0 0 0 0 0 0 0 0 0 0 0 0 0
0 0 0 0 0 0 0 0 0 0 0 0 0 0 0 0 0 0 0 0 0 0 0 0 0 0 0 0 0 0 0 0 0 0 0 0 0 0 0 548 512 523 509 525 516 531 492 547 529 531 508 529 517 552 544 534 0 0 0 0 0 0 0 0 0 0 0 0 0 0 0 0 0 0 0 0 0 0 0 0 0 0 0 0 0 0 0 0 0 0 0 0 0 0 0 0 0 0 0 0 0 0 0 0 0 0 0 0 0 0 0 0 0 0 0 0 0 0 0 0
0 0 0 0 0 0 0 0 0 0 0 0 0 0 0 0 0 0 0 0 0 0 0 0 0 0 0 0 0 0 0 0 0 0 0 0 0 488 514 498 495 506 501 504 492 507 509 485 507 522 491 516 511 513 514 525 513 480 537 490 0 0 0 0 0 0 0 0 0 0 0 0 0 0 0 0 0 0 0 0 0 0 0 0 0 0 0 0 0 0 0 0 0 0 0 0 0 0 0 0 0 0 0 0 0 0 0 0 0 0 0 0 0 0 0 0 0 0 0 0
0 0 0 0 0 0 0 0 0 0 0 0 0 0 0 0 0 0 0 0 0 0 0 0 0 0 0 0 0 0 0 0 0 0 433 508 490 498 491 486 488 497 500 489 499 503 495 507 492 503 500 497 500 512 510 510 511 500 491 482 495 499 493 491 484 0 0 0 0 0 0 0 0 0 0 0 0 0 0 0 0 0 0 0 0 0 0 0 0 0 0 0 0 0 0 0 0 0 0 0 0 0 0 0 0 0 0 0 0 0 0 0 0 0 0 0 0 0 0 0
0 0 0 0 0 0 0 0 0 0 0 0 0 0 0 0 0 0 0 0 0 0 0 0 0 0 0 0 0 0 0 0 0 506 508 491 499 510 495 508 517 505 497 508 511 504 509 507 504 515 504 504 514 499 515 506 516 518 512 519 498 516 513 524 521 508 522 555 564 577 619 565 582 0 583 612 610 582 616 619 0 0 0 0 0 0 0 0 0 0 0 0 0 0 0 0 0 0 0 0 0 0 0 0 0 0 0 0 0 0 0 0 0 0 0 0 0 0 0 0
0 0 0 0 0 0 0 0 0 0 0 0 0 0 0 0 0 0 0 0 0 0 0 0 0 0 0 0 0 0 0 491 494 507 488 491 481 493 499 492 496 496 494 496 495 503 497 503 509 503 502 506 506 498 505 495 507 502 500 497 507 489 494 519 500 496 498 520 520 502 521 497 537 525 524 569 556 534 537 559 533 527 507 501 0 504 0 555 533 576 608 505 566 496 602 582 527 579 523 518 0 543 537 582 0 0 0 0 0 0 0 0 0 0 0 0 0 0 0 0
0 0 0 0 0 0 0 0 0 0 0 0 0 0 0 0 0 0 0 0 0 0 0 0 0 0 0 0 0 0 481 501 510 492 489 495 504 501 507 511 506 502 502 503 505 501 516 504 500 512 509 511 501 510 508 521 505 515 505 515 500 502 512 507 511 513 516 520 505 514 533 556 541 575 547 547 569 529 563 588 532 518 556 535 546 544 540 566 579 557 560 578 548 554 579 585 586 564 561 565 526 538 582 592 552 555 530 631 587 0 0 0 0 0 0 0 0 0 0 0
0 0 0 0 0 0 0 0 0 0 0 0 0 0 0 0 0 0 0 0 0 0 0 0 0 0 0 0 511 500 508 504 497 509 506 492 510 504 499 499 513 509 509 507 523 514 504 502 502 499 500 512 498 504 507 507 508 513 496 515 500 502 507 511 507 513 515 504 507 518 524 564 556 555 573 562 593 596 558 573 541 614 593 565 578 609 620 552 588 581 571 584 572 559 561 588 618 551 612 584 606 540 597 585 586 605 611 643 574 0 0 0 0 0 0 0 0 0 0 0
0 0 0 0 0 0 0 0 0 0 0 0 0 0 0 0 0 0 0 0 0 0 0 0 0 0 0 505 504 496 500 492 504 484 492 507 498 493 508 497 506 502 507 500 505 495 495 503 500 501 511 508 506 503 504 510 496 507 503 502 506 510 512 512 512 499 505 505 509 507 510 509 580 545 559 552 529 533 551 548 538 558 559 558 539 536 499 534 580 573 527 531 560 578 569 565 558 511 520 558 542 528 527 554 534 538 546 545 0 0 0 0 0 0 0 0 0 0 0 0
0 0 0 0 0 0 0 0 0 0 0 0 0 0 0 0 0 0 0 0 0 0 0 0 0 0 494 511 499 505 507 500 494 506 503 492 512 496 506 503 508 501 509 504 500 513 500 506 500 496 512 504 512 499 501 492 507 511 514 509 509 517 516 511 508 510 510 509 514 509 516 526 529 582 575 569 568 578 571 585 557 585 601 568 568 572 569 563 587 604 578 595 565 559 610 593 623 592 578 553 583 589 603 609 579 576 602 550 573 0 0 0 0 0 0 0 0 0 0 0
0 0 0 0 0 0 0 0 0 0 0 0 0 0 0 0 0 0 0 0 0 0 0 0 0 460 478 476 502 491 498 495 500 488 493 499 500 504 512 486 498 501 501 507 506 496 500 507 495 501 494 503 500 497 495 510 508 510 507 510 505 500 506 509 508 508 508 506 509 513 512 503 509 505 532 507 565 569 529 541 518 573 530 538 545 513 561 564 552 544 526 563 565 527 531 546 544 580 544 553 511 576 503 537 526 544 530 494 548 0 553 0 0 0 0 0 0 0 0 0
0 0 0 0 0 0 0 0 0 0 0 0 0 0 0 0 0 0 0 0 0 0 0 0 0 481 491 488 489 480 494 489 495 497 485 491 503 492 493 485 496 496 498 496 495 495 503 497 502 497 505 503 497 504 498 503 503 497 503 514 503 504 506 501 501 506 510 510 493 500 506 512 514 517 505 491 498 509 528 530 556 500 541 543 527 511 522 494 511 532 528 533 540 514 517 539 513 521 548 539 543 553 538 529 526 531 535 526 495 478 539 0 449 500 0 0 0 0 0 0
0 0 0 0 0 0 0 0 0 0 0 0 0 0 0 0 0 0 0 0 0 0 0 0 502 492 507 500 497 502 499 503 498 494 501 500 499 498 504 496 498 500 501 501 494 507 507 502 500 504 502 500 505 505 509 510 503 500 506 500 502 501 504 506 502 515 513 506 507 516 514 510 513 516 532 523 562 539 534 564 556 539 540 565 535 575 568 544 541 526 525 544 549 520 537 540 561 567 551 523 571 546 532 550 534 560 599 578 580 553 578 0 0 0 0 0 0 0 0 0
0 0 0 0 0 0 0 0 0 0 0 0 0 0 0 0 0 0 0 0 0 0 0 0 490 487 493 478 494 479 493 487 490 501 485 488 493 483 486 491 492 497 500 496 495 495 497 496 496 501 500 504 493 496 496 499 502 502 499 499 507 503 505 502 503 504 508 507 499 497 505 502 499 511 504 507 526 516 525 498 510 512 506 506 487 522 505 523 508 484 538 505 501 533 528 491 520 521 534 504 511 518 493 507 505 545 516 540 495 465 0 0 0 0 0 0 0 0 0 0
0 0 0 0 0 0 0 0 0 0 0 0 0 0 0 0 0 0 0 0 0 0 0 459 504 502 496 492 490 483 502 495 500 499 492 491 499 497 492 499 499 494 495 504 497 502 498 508 499 508 501 502 509 509 505 498 504 501 506 498 512 503 509 502 503 495 510 504 512 503 518 501 506 500 510 513 523 514 537 525 532 522 537 540 570 560 533 540 535 544 535 509 565 543 529 528 560 547 560 523 527 535 550 594 547 589 580 544 549 572 546 0 0 0 0 0 0 0 0 0
0 0 0 0 0 0 0 0 0 0 0 0 0 0 0 0 0 0 0 0 0 0 0 501 489 496 491 494 486 500 498 492 490 491 488 498 490 487 495 495 491 496 496 499 494 493 505 506 496 504 491 503 500 505 501 502 506 505 503 503 506 501 509 505 506 498 501 505 506 515 509 508 495 506 510 505 509 534 528 547 543 543 557 546 530 521 520 545 537 505 527 515 550 538 558 534 534 542 541 554 562 564 532 569 541 571 531 572 560 546 558 0 0 0 0 0 0 0 0 0
0 0 0 0 0 0 0 0 0 0 0 0 0 0 0 0 0 0 0 0 0 0 454 477 486 492 494 493 490 491 491 504 494 492 483 489 492 496 492 487 495 496 490 494 494 489 505 490 494 505 499 501 491 492 507 499 506 504 501 501 496 503 507 494 504 506 505 505 503 505 511 509 510 509 503 502 534 548 527 556 512 548 507 530 546 542 543 516 522 547 566 517 535 563 512 505 527 517 544 537 524 551 517 546 523 536 556 562 531 512 525 0 0 0 0 0 0 0 0 0
0 0 0 0 0 0 0 0 0 0 0 0 0 0 0 0 0 0 0 0 0 0 521 490 491 489 494 488 499 504 493 495 497 488 506 498 491 493 497 500 503 492 496 507 505 501 505 501 505 501 498 504 499 506 507 511 512 506 505 514 506 500 508 515 509 508 511 514 505 507 509 504 516 503 511 506 517 533 534 536 519 539 526 553 536 558 531 574 537 563 536 543 533 543 541 570 550 535 552 552 574 583 548 545 530 531 559 553 526 571 584 576 0 0 0 0 0 0 0 0
0 0 0 0 0 0 0 0 0 0 0 0 0 0 0 0 0 0 0 0 0 0 493 479 485 479 484 498 491 484 489 482 487 475 494 489 487 493 488 490 495 495 497 493 495 500 496 497 494 494 499 500 505 497 494 497 500 498 497 497 501 499 509 493 495 504 505 511 509 508 505 501 513 505 508 515 508 506 527 526 516 501 500 511 505 522 534 499 512 521 531 530 492 519 531 531 520 527 509 511 526 532 536 535 504 496 521 514 535 498 578 545 530 0 0 0 0 0 0 0
0 0 0 0 0 0 0 0 0 0 0 0 0 0 0 0 0 0 0 0 0 0 460 484 490 478 475 484 488 487 489 490 480 497 488 485 489 487 490 486 501 491 496 495 492 493 497 495 497 501 498 505 499 496 503 498 497 496 500 506 501 497 499 500 496 503 506 500 500 508 505 507 501 502 501 508 503 491 503 507 502 525 518 521 507 511 508 514 509 497 524 503 498 493 474 540 498 485 509 506 502 495 525 495 503 502 485 470 486 478 505 433 484 0 0 0 0 0 0 0
0 0 0 0 0 0 0 0 0 0 0 0 0 0 0 0 0 0 0 0 0 0 483 492 483 486 492 493 490 493 495 489 494 491 494 485 493 490 491 488 496 489 502 496 493 498 491 500 504 499 496 497 502 496 496 499 508 500 496 501 505 504 497 498 499 505 496 504 504 507 501 506 502 507 512 508 513 521 504 531 519 531 528 539 522 521 545 538 528 535 520 517 556 517 524 532 551 551 553 526 523 554 572 539 566 537 550 570 555 543 525 545 530 0 0 0 0 0 0 0
0 0 0 0 0 0 0 0 0 0 0 0 0 0 0 0 0 0 0 0 0 0 471 472 479 488 483 482 488 484 488 483 484 487 489 481 482 493 492 489 493 490 486 491 496 489 491 494 493 501 491 491 496 499 495 493 504 495 495 500 502 501 506 500 503 497 507 499 494 503 496 502 499 499 500 509 498 510 507 491 502 484 497 517 498 487 488 458 498 473 471 509 508 497 497 463 471 486 470 522 490 491 519 467 483 483 495 474 0 0 476 458 515 0 0 0 0 0 0 0
0 0 0 0 0 0 0 0 0 0 0 0 0 0 0 0 0 0 0 0 0 451 489 493 487 488 497 493 494 490 484 491 489 499 500 484 500 492 490 505 490 501 500 495 493 495 493 502 493 493 502 505 494 501 503 498 497 507 506 495 507 512 505 508 504 503 502 510 510 509 505 502 506 513 509 505 506 516 520 534 526 514 519 494 540 524 526 523 547 536 487 516 521 505 514 495 526 505 492 539 524 545 557 546 507 518 549 518 516 529 517 522 0 483 0 0 0 0 0 0
0 0 0 0 0 0 0 0 0 0 0 0 0 0 0 0 0 0 0 0 0 466 491 477 502 482 481 487 487 480 481 492 488 488 488 490 497 490 486 488 491 498 500 487 494 495 495 493 504 496 496 500 498 495 506 499 504 501 506 508 508 496 501 500 506 506 504 505 499 505 501 499 503 503 505 508 508 509 507 526 521 520 528 507 526 512 548 524 533 513 523 474 527 483 528 508 524 513 534 525 507 545 510 525 516 496 499 521 511 507 533 520 0 0 0 0 0 0 0 0
0 0 0 0 0 0 0 0 0 0 0 0 0 0 0 0 0 0 0 0 0 462 476 482 493 481 482 484 479 485 485 482 484 489 488 486 488 488 491 491 491 485 486 496 492 493 493 493 494 492 491 491 496 498 494 499 497 496 501 493 504 498 504 499 501 503 506 508 502 497 497 507 504 509 499 492 500 499 501 499 513 507 493 512 514 521 531 513 523 521 523 496 494 503 496 523 492 488 534 512 515 510 508 503 506 520 484 489 493 512 520 471 501 509 0 0 0 0 0 0
0 0 0 0 0 0 0 0 0 0 0 0 0 0 0 0 0 0 0 0 0 474 482 477 486 485 491 484 489 481 492 485 490 485 490 492 489 488 492 494 494 490 490 499 494 496 492 494 495 494 498 500 496 502 505 497 503 505 506 501 502 500 497 501 502 502 504 504 498 506 501 502 509 501 506 511 500 506 536 523 542 506 509 508 521 506 519 538 541 549 522 529 512 525 532 546 535 530 553 537 515 542 515 518 534 529 537 512 521 550 545 540 512 561 0 0 0 0 0 0
0 0 0 0 0 0 0 0 0 0 0 0 0 0 0 0 0 0 0 0 0 472 481 476 479 475 487 487 479 481 485 487 478 489 485 487 486 486 491 486 489 494 489 491 492 489 490 493 489 494 495 494 498 502 500 497 494 499 504 497 499 506 500 499 498 506 504 503 498 497 498 506 504 501 501 500 498 511 520 527 505 523 499 528 508 523 531 494 511 524 533 484 504 507 504 514 461 511 489 505 502 533 508 497 539 519 514 509 531 555 503 515 0 0 0 0 0 0 0 0
0 0 0 0 0 0 0 0 0 0 0 0 0 0 0 0 0 0 0 0 0 454 471 475 483 480 478 472 474 483 483 482 485 483 486 484 479 488 489 492 491 489 487 486 492 493 492 497 497 490 489 494 494 496 493 495 492 494 495 499 499 500 498 499 497 501 498 497 501 495 499 493 504 505 495 496 491 499 484 486 494 495 492 488 473 503 480 485 490 509 482 497 490 490 479 479 473 477 492 507 514 494 469 475 489 471 475 484 483 486 470 502 466 435 0 0 0 0 0 0
0 0 0 0 0 0 0 0 0 0 0 0 0 0 0 0 0 0 0 0 0 462 479 487 473 483 475 480 483 477 483 485 481 481 489 485 484 486 486 485 495 488 490 496 491 489 488 490 494 500 496 495 495 501 497 495 491 496 500 502 496 497 502 498 506 496 498 499 502 507 504 499 501 501 498 492 504 504 519 508 513 496 527 508 503 511 512 518 514 497 506 521 518 508 522 481 507 509 504 531 527 527 498 529 524 526 508 495 525 517 472 489 515 535 0 0 0 0 0 0
0 0 0 0 0 0 0 0 0 0 0 0 0 0 0 0 0 0 0 0 0 427 475 476 472 473 481 476 474 475 481 485 481 487 482 482 481 481 485 492 489 489 487 492 487 489 486 492 488 486 486 490 495 492 494 498 498 501 496 492 497 494 496 501 497 498 499 494 500 499 496 498 494 498 495 494 492 498 495 484 489 504 482 489 486 505 487 481 489 498 486 477 494 492 478 488 469 483 465 484 482 498 488 509 491 493 495 490 451 478 488 480 447 0 0 0 0 0 0 0
0 0 0 0 0 0 0 0 0 0 0 0 0 0 0 0 0 0 0 0 0 484 477 473 474 479 480 474 479 483 482 487 489 487 483 486 480 483 482 486 489 487 488 491 490 496 490 492 496 494 497 496 498 495 491 493 496 496 497 495 495 503 500 501 502 503 500 498 501 501 501 509 497 500 496 502 499 502 506 504 506 515 507 508 522 502 522 517 501 494 520 482 515 530 507 517 507 514 489 506 517 509 521 503 534 524 496 539 484 514 495 504 552 504 0 0 0 0 0 0
0 0 0 0 0 0 0 0 0 0 0 0 0 0 0 0 0 0 0 0 0 466 470 469 474 474 481 481 476 480 475 487 482 478 482 479 489 482 485 483 490 488 486 491 490 489 492 487 488 497 491 496 492 494 500 500 495 497 500 501 495 496 496 492 498 503 499 502 498 497 494 497 496 497 499 493 504 499 503 524 499 523 507 516 526 492 495 496 531 523 522 504 509 528 523 503 540 493 495 501 502 518 523 515 513 485 522 492 511 581 524 529 561 514 0 0 0 0 0 0
0 0 0 0 0 0 0 0 0 0 0 0 0 0 0 0 0 0 0 0 0 442 477 470 476 473 475 473 476 477 481 482 487 484 484 487 486 483 477 487 487 483 490 488 485 486 491 495 490 491 493 494 491 486 493 494 493 492 493 494 498 500 495 496 500 494 498 500 497 497 499 499 501 496 500 497 497 496 495 493 482 499 482 483 486 511 506 492 495 480 500 520 485 479 499 486 473 507 485 513 503 515 483 522 510 478 473 535 497 524 478 477 474 512 0 0 0 0 0 0
0 0 0 0 0 0 0 0 0 0 0 0 0 0 0 0 0 0 0 0 0 0 472 479 479 483 477 474 482 482 481 481 486 485 480 480 485 485 483 488 487 488 490 491 492 493 494 491 491 491 493 495 496 493 497 495 493 494 494 494 501 502 498 496 502 500 500 499 493 498 497 508 496 496 497 497 496 492 498 503 524 504 520 499 503 505 511 516 506 524 525 496 530 493 533 502 498 511 492 538 524 497 523 509 548 529 538 528 509 561 496 538 502 533 0 0 0 0 0 0
0 0 0 0 0 0 0 0 0 0 0 0 0 0 0 0 0 0 0 0 0 0 495 472 473 475 476 477 472 474 479 477 482 484 480 480 480 485 485 481 487 487 478 487 486 488 484 489 491 489 492 490 497 491 490 495 493 492 489 495 493 498 492 500 498 493 495 496 491 493 498 489 498 494 493 494 496 499 491 509 521 510 512 496 510 512 491 525 513 495 511 504 495 517 505 493 493 507 509 472 497 485 503 485 508 487 502 523 503 517 505 467 503 492 0 0 0 0 0 0
0 0 0 0 0 0 0 0 0 0 0 0 0 0 0 0 0 0 0 0 0 0 522 471 464 480 476 478 477 474 474 479 485 481 481 485 482 484 482 487 485 481 488 488 489 484 488 481 488 488 492 493 492 487 489 492 494 490 494 500 494 496 493 493 493 496 498 492 492 493 495 494 492 490 493 494 499 495 495 511 500 490 494 489 514 493 508 499 486 496 509 506 501 509 530 490 502 458 509 489 479 480 466 452 439 451 463 468 507 463 486 471 453 461 431 445 0 0 0 0
0 0 0 0 0 0 0 0 0 0 0 0 0 0 0 0 0 0 0 0 0 0 589 478 477 475 474 470 475 476 475 484 480 478 483 484 481 484 480 485 487 484 488 489 487 487 492 488 489 490 493 494 497 494 495 491 492 493 494 495 494 494 500 497 495 500 494 497 499 497 493 499 494 494 499 493 501 496 501 509 489 501 517 518 526 499 492 516 506 519 511 526 526 529 539 535 518 514 509 513 509 486 487 494 500 493 513 504 504 493 445 472 551 473 474 487 0 0 0 0
0 0 0 0 0 0 0 0 0 0 0 0 0 0 0 0 0 0 0 0 0 0 0 474 466 468 480 474 473 467 473 480 478 479 479 477 480 479 482 479 481 484 485 486 486 486 486 488 488 489 484 491 493 490 492 490 491 496 490 494 493 496 491 489 493 495 492 499 490 490 492 493 498 487 489 493 490 493 470 488 489 490 477 483 486 481 484 491 486 500 490 486 484 502 478 502 475 514 476 492 497 493 481 478 461 473 487 473 464 506 467 468 483 0 0 0 0 0 0 0
0 0 0 0 0 0 0 0 0 0 0 0 0 0 0 0 0 0 0 0 0 0 0 490 472 471 474 473 478 478 478 476 475 477 480 481 482 481 486 482 484 482 488 486 486 484 492 485 489 492 492 492 488 490 489 495 499 488 497 492 494 490 492 494 492 488 497 499 498 492 491 499 493 491 494 489 495 489 490 491 496 493 500 494 483 504 517 501 487 496 502 506 481 514 500 532 497 540 519 521 527 509 508 478 519 464 487 510 493 494 507 497 485 503 0 0 0 0 0 0
0 0 0 0 0 0 0 0 0 0 0 0 0 0 0 0 0 0 0 0 0 0 0 557 464 476 470 475 473 472 480 477 477 477 475 478 479 482 486 483 483 485 484 486 488 493 490 488 487 481 492 497 485 489 491 485 496 497 491 493 498 497 497 495 498 495 495 498 492 494 494 497 493 499 493 494 500 500 495 507 525 516 494 495 512 544 502 519 528 509 512 521 525 505 515 516 495 509 503 524 505 502 500 502 509 531 534 489 532 532 530 483 525 536 0 0 0 0 0 0
0 0 0 0 0 0 0 0 0 0 0 0 0 0 0 0 0 0 0 0 0 0 0 0 476 466 467 470 469 472 473 469 476 474 473 475 473 477 472 483 478 487 480 481 485 487 485 483 492 488 491 492 488 489 491 492 491 489 490 495 490 494 496 494 493 489 488 494 497 490 494 494 495 489 493 488 494 497 504 488 484 508 480 506 492 519 484 503 510 487 520 495 487 505 513 508 463 511 487 492 477 482 481 496 500 483 492 479 542 490 489 485 493 482 458 0 0 0 0 0
0 0 0 0 0 0 0 0 0 0 0 0 0 0 0 0 0 0 0 0 0 0 0 0 524 468 474 470 471 469 474 478 474 478 476 483 480 479 481 487 484 487 483 486 484 485 491 484 488 494 497 490 494 491 492 490 493 492 490 493 490 489 493 497 494 492 495 492 493 494 495 495 492 494 494 491 505 501 514 495 525 516 506 498 514 499 523 525 513 501 508 523 492 513 553 532 536 536 499 510 482 518 512 523 506 515 494 487 506 518 484 505 476 475 501 504 0 0 0 0
0 0 0 0 0 0 0 0 0 0 0 0 0 0 0 0 0 0 0 0 0 0 0 0 0 468 461 465 470 463 474 471 473 479 474 475 477 477 476 480 478 477 483 482 484 483 483 482 482 484 490 486 486 493 491 487 494 491 489 492 488 492 488 491 491 490 491 494 495 494 493 494 491 486 491 487 486 478 497 502 503 486 487 484 497 500 491 487 485 506 503 495 492 495 487 502 512 516 495 521 484 517 469 496 505 468 475 483 454 462 469 502 487 503 0 0 0 0 0 0
0 0 0 0 0 0 0 0 0 0 0 0 0 0 0 0 0 0 0 0 0 0 0 0 0 498 469 470 466 469 467 473 474 475 473 474 471 472 478 474 479 478 480 480 483 480 478 484 488 486 488 483 488 489 492 490 491 492 488 489 490 488 487 486 495 489 491 488 494 491 493 490 493 486 490 488 477 471 480 484 494 493 462 467 478 483 483 490 487 486 486 472 496 486 472 483 502 482 474 506 498 478 470 455 452 441 468 452 469 446 416 440 463 458 0 0 0 0 0 0
0 0 0 0 0 0 0 0 0 0 0 0 0 0 0 0 0 0 0 0 0 0 0 0 0 0 507 474 470 471 465 469 468 473 475 475 477 480 476 474 472 479 479 480 486 483 483 484 488 486 484 487 489 492 491 489 492 492 489 491 489 483 487 492 491 487 488 483 493 493 495 492 493 486 486 517 487 489 493 495 487 498 490 491 487 491 496 489 485 494 495 503 493 501 484 487 504 488 492 502 494 505 523 490 513 463 491 522 472 479 479 497 501 474 496 0 0 0 0 0
0 0 0 0 0 0 0 0 0 0 0 0 0 0 0 0 0 0 0 0 0 0 0 0 0 0 0 455 464 456 468 467 475 467 469 474 474 479 473 477 477 474 474 478 477 479 480 480 484 483 480 486 483 488 489 483 483 482 481 489 486 487 488 485 486 490 489 488 488 488 490 486 483 481 489 484 468 483 477 471 477 481 474 480 478 478 480 473 477 472 479 488 483 474 463 475 467 475 467 470 467 470 473 466 432 501 466 443 438 443 438 426 457 448 432 0 0 0 0 0
0 0 0 0 0 0 0 0 0 0 0 0 0 0 0 0 0 0 0 0 0 0 0 0 0 0 0 536 472 468 466 469 474 470 471 470 473 471 475 475 478 482 478 484 484 478 482 481 480 487 483 484 485 490 486 484 488 484 484 491 484 482 485 486 488 485 487 487 490 490 489 483 480 481 489 486 501 506 485 486 484 499 480 487 492 484 487 496 495 483 504 479 498 508 523 507 475 483 507 500 521 472 505 491 480 485 470 492 492 508 459 476 476 489 512 0 0 0 0 0
0 0 0 0 0 0 0 0 0 0 0 0 0 0 0 0 0 0 0 0 0 0 0 0 0 0 0 0 543 472 470 469 468 465 474 471 477 469 472 478 476 474 480 475 477 479 477 485 478 483 482 484 488 486 486 482 485 487 485 485 483 486 486 488 486 487 493 486 484 486 484 478 481 488 486 489 500 500 486 483 489 490 484 483 496 490 492 516 493 512 491 487 490 497 505 506 465 506 514 511 496 498 499 515 474 484 488 501 512 506 494 510 489 449 525 0 0 0 0 0
0 0 0 0 0 234 233 249 310 0 0 0 0 0 0 0 0 0 0 0 0 2378 0 0 0 0 0 0 0 486 463 459 469 469 463 467 468 469 472 470 475 472 483 474 474 480 477 479 479 480 482 476 475 480 484 475 483 485 490 484 487 484 489 484 487 486 480 482 485 484 479 482 480 474 479 490 482 491 482 490 493 478 490 477 494 485 485 489 499 483 468 488 504 460 472 477 495 472 478 493 494 511 486 451 489 492 455 469 467 461 445 453 449 544 453 0 0 0 0 0
0 0 0 0 242 231 236 242 234 296 384 0 0 0 0 0 0 0 0 0 0 2297 0 0 0 0 0 0 0 0 481 467 464 471 470 472 472 468 474 470 473 476 473 472 479 477 482 473 476 479 479 483 485 481 480 486 481 481 485 481 484 480 484 485 483 487 479 489 484 478 484 492 479 483 485 481 497 482 487 484 491 482 479 490 491 498 491 498 495 493 499 479 486 501 497 472 488 494 490 491 485 502 484 476 535 484 517 475 488 469 499 502 482 480 0 0 0 0 0 0
0 0 0 224 226 223 227 225 235 232 325 0 0 0 0 0 0 0 0 0 0 0 0 0 0 0 0 0 0 0 0 468 458 466 464 469 469 467 464 467 472 467 468 468 473 477 475 469 472 469 478 479 478 477 479 475 484 478 475 476 484 488 484 482 479 481 482 474 475 479 461 472 478 487 481 484 467 474 495 483 487 482 489 485 486 483 474 481 479 473 472 485 480 451 482 489 473 492 495 501 484 511 502 468 483 455 461 467 454 457 431 497 439 428 0 0 0 0 0 0
168 248 233 224 247 271 267 231 237 233 290 0 434 399 403 401 410 402 412 417 430 424 429 437 441 425 431 433 440 453 447 452 461 460 460 458 460 471 466 469 463 468 469 471 476 475 467 463 470 474 480 478 472 478 479 477 477 471 475 480 470 483 471 476 476 481 475 476 476 475 478 475 480 477 466 456 470 467 463 467 468 452 479 467 466 477 462 476 474 468 467 459 467 449 473 471 456 455 456 467 466 459 463 469 456 454 433 435 453 427 447 429 486 445 480 406 0 0 0 0
211 233 217 241 237 269 253 228 229 270 404 404 418 410 397 413 410 412 407 414 412 417 410 421 434 435 429 431 447 457 457 455 455 459 454 461 456 463 455 459 462 470 465 471 462 460 467 467 469 472 469 470 472 473 471 470 469 470 468 472 471 475 471 476 469 472 477 474 474 468 465 467 467 460 468 465 452 450 460 467 470 458 458 454 451 453 456 443 461 452 468 455 451 461 456 444 468 455 466 461 455 445 449 449 429 453 445 444 449 448 431 454 454 433 425 449 459 442 0 0
169 174 179 217 224 231 228 226 225 283 362 353 357 373 367 359 373 374 369 375 371 376 371 379 395 408 405 417 419 438 436 441 439 437 436 440 433 444 446 441 446 450 443 444 446 451 447 448 448 457 451 451 457 448 453 458 452 451 458 458 458 456 455 459 452 454 454 453 451 453 460 442 445 437 434 435 434 421 420 421 425 421 414 426 423 425 412 419 411 415 424 419 403 392 428 421 420 409 422 407 413 424 403 407 417 409 394 410 424 395 404 388 410 418 376 394 381 350 376 0
266 276 240 230 233 225 237 232 264 364 328 329 330 342 349 335 358 352 346 353 355 363 368 392 371 394 392 399 419 416 421 424 420 430 429 432 434 433 429 431 429 431 430 435 430 433 436 437 439 444 447 436 444 439 451 448 449 443 441 443 450 442 443 446 442 442 440 436 444 439 435 431 426 432 421 421 402 404 392 403 403 391 408 390 397 394 394 390 400 397 395 398 398 403 394 392 395 385 405 392 396 406 404 404 398 383 392 376 392 377 406 387 401 384 392 362 371 420 403 423
318 295 294 242 238 232 231 243 294 315 320 318 312 302 307 319 322 322 314 330 324 333 338 338 368 368 387 394 400 395 399 396 409 412 408 412 416 412 417 423 415 416 417 413 415 418 409 423 419 425 412 413 420 424 427 425 425 431 421 424 424 421 417 426 428 419 424 423 418 420 419 414 410 407 401 391 390 371 376 367 363 371 357 363 373 356 371 366 361 369 367 372 369 375 384 365 360 356 374 368 342 379 367 373 382 376 354 383 361 358 356 366 379 371 398 384 357 394 391 419
280 275 257 255 258 256 241 272 279 276 275 284 274 279 275 282 278 284 290 281 285 307 307 312 318 335 350 362 363 383 384 387 388 389 394 385 391 393 393 392 397 382 392 391 395 391 396 392 400 392 389 396 394 401 399 393 390 396 396 398 390 392 399 402 395 385 393 397 390 390 390 389 390 383 375 367 354 344 340 327 341 329 327 330 328 326 329 342 330 325 326 332 329 324 335 329 335 330 310 330 340 327 324 347 327 333 321 334 336 316 334 336 321 326 335 315 305 328 313 338
250 252 257 256 254 246 266 251 271 266 263 252 272 263 263 270 270 267 279 270 269 288 297 298 316 321 335 349 356 360 363 365 363 362 363 365 370 372 373 377 373 369 372 374 378 374 373 372 367 370 375 372 377 381 382 380 374 381 370 374 381 374 382 378 371 374 369 375 372 371 373 373 364 353 343 338 331 325 304 312 313 310 307 300 311 314 309 306 308 292 308 312 308 309 315 313 309 307 305 312 317 319 322 316 319 301 326 306 314 311 319 317 338 324 303 328 325 355 328 318
223 227 225 233 229 239 244 247 234 232 233 248 238 242 238 244 244 243 240 246 252 269 270 279 294 294 311 322 328 329 331 338 338 337 340 342 342 340 343 343 348 344 352 350 345 343 338 353 348 338 342 343 349 355 349 349 349 354 353 345 350 354 351 336 345 346 350 345 348 348 341 344 339 338 330 322 306 297 291 289 285 279 280 274 278 280 280 284 269 275 278 279 280 275 288 268 271 269 268 280 278 269 278 284 275 281 278 273 273 278 275 293 273 287 271 264 271 285 267 284
217 215 227 219 230 217 220 218 224 229 231 233 220 233 232 222 227 226 229 234 242 248 260 263 272 277 293 294 299 306 307 317 322 322 316 315 317 322 322 323 319 320 316 319 331 322 323 321 319 327 323 327 326 322 324 325 332 325 330 324 325 331 325 330 324 326 330 322 325 323 320 327 321 311 309 295 281 270 272 269 266 257 261 263 259 258 258 255 261 258 251 253 254 254 255 258 261 250 256 248 257 266 262 261 250 247 263 255 262 267 263 256 262 267 262 264 261 250 263 259
202 204 207 218 214 213 220 213 205 209 215 205 203 214 218 217 220 219 214 225 225 225 241 251 250 263 266 274 281 285 288 291 290 292 294 296 291 297 303 305 298 295 294 303 301 302 304 303 302 306 305 299 301 301 295 310 306 302 306 308 308 305 307 308 303 306 307 306 304 305 297 296 299 290 290 280 268 262 256 250 244 246 248 241 246 247 244 238 237 249 243 242 246 246 248 231 235 242 241 236 236 244 243 242 244 243 242 240 247 249 237 252 250 251 250 248 242 234 244 256
195 195 200 197 196 199 209 207 200 203 201 198 190 189 199 188 205 206 206 214 211 223 229 234 238 249 244 260 266 267 271 267 272 272 272 278 277 282 282 278 276 281 283 286 284 276 287 285 285 283 282 279 277 280 278 285 284 287 283 289 281 289 283 290 278 287 285 285 282 282 281 276 276 269 261 260 253 240 241 237 229 226 228 229 226 227 225 219 221 229 230 230 221 229 222 226 225 218 223 224 221 233 223 224 214 217 223 230 230 238 230 229 239 222 243 233 225 219 219 190
181 178 190 178 181 184 188 201 200 181 185 184 187 180 185 179 186 185 185 192 213 211 223 229 226 231 241 242 250 247 255 257 259 257 261 257 263 259 268 269 265 266 264 267 264 261 267 271 266 265 266 269 266 269 264 269 264 269 262 276 266 262 262 273 270 271 270 270 269 269 263 253 257 254 251 241 239 230 227 215 218 220 214 218 220 220 216 212 213 214 210 214 222 218 213 220 212 208 206 218 216 214 224 215 214 211 219 214 220 219 229 234 238 238 222 219 224 240 219 233
172 173 169 177 179 179 181 174 172 182 181 182 175 182 182 185 186 186 180 180 182 187 204 208 213 222 222 225 224 234 229 243 242 241 242 242 239 242 249 248 248 244 246 249 250 249 246 245 245 247 243 251 249 248 244 245 251 255 249 252 249 244 254 247 243 248 252 248 249 245 247 244 240 240 236 226 227 220 216 199 199 193 190 188 191 191 193 212 195 192 187 207 192 190 187 191 189 186 190 190 191 205 192 188 194 191 187 202 199 198 205 212 211 200 212 210 202 208 213 212
165 170 174 172 173 175 176 172 175 179 177 174 175 174 179 178 176 179 186 183 186 189 181 189 207 194 214 214 215 219 225 228 222 223 225 228 233 231 229 229 228 228 232 234 236 235 227 227 233 230 231 233 235 230 233 230 233 239 235 232 229 240 237 234 234 235 237 227 232 232 233 231 230 224 218 211 212 196 190 189 195 196 191 191 192 193 195 190 185 191 190 192 188 191 191 184 180 187 176 182 173 180 176 181 180 183 185 179 180 182 174 187 194 200 200 201 184 205 170 198
166 161 168 170 174 169 172 170 171 169 170 166 162 166 169 174 172 176 178 180 175 182 190 180 189 183 189 205 193 210 209 212 210 216 213 216 218 218 211 198 215 219 219 218 220 225 219 218 220 223 216 220 219 222 220 223 221 220 218 222 223 222 225 221 219 216 217 218 221 221 219 213 217 196 193 193 190 197 195 187 186 182 188 187 186 184 185 184 182 185 185 181 186 182 182 182 180 179 181 185 177 183 186 182 182 182 176 184 182 180 173 182 182 171 200 177 178 191 178 206
149 154 159 161 158 159 153 162 161 165 162 159 158 160 162 155 160 168 170 175 172 177 177 181 184 185 182 192 193 193 193 188 186 195 186 190 190 188 184 188 190 189 191 193 193 197 194 194 188 193 195 196 195 197 197 190 193 193 194 193 202 199 197 200 191 193 193 196 195 194 197 197 198 190 187 198 190 186 187 178 177 179 178 173 170 169 174 175 174 171 173 173 169 176 173 170 170 165 173 174 169 176 173 172 173 170 173 158 172 168 172 170 174 176 179 166 177 174 173 170
143 150 154 150 155 152 156 152 155 154 158 156 155 154 155 153 156 163 157 165 167 168 176 172 175 176 179 183 183 186 190 186 192 188 187 187 190 192 190 192 190 192 191 187 194 188 196 198 196 190 194 196 195 197 198 193 199 196 195 198 196 200 199 198 192 194 195 197 199 194 198 194 193 191 190 186 185 185 178 172 171 173 167 168 167 167 171 167 165 168 168 169 171 165 172 166 165 165 164 169 167 169 172 162 166 163 162 165 162 163 173 159 169 167 174 159 160 163 172 146
141 140 151 145 148 147 146 147 151 147 148 151 152 153 152 150 153 149 154 160 164 162 167 174 168 172 174 174 174 179 177 177 183 181 177 177 180 178 182 183 179 181 186 185 181 186 188 182 187 187 181 188 190 185 188 186 189 189 0 188 189 188 183 186 190 188 187 189 184 187 187 184 182 179 177 177 174 173 171 166 159 161 163 159 157 160 163 159 165 163 162 162 164 158 162 164 160 158 164 164 161 164 159 159 155 157 157 155 166 162 161 160 155 161 155 175 163 165 170 161
138 134 137 141 139 145 146 144 143 143 144 145 141 140 142 146 142 147 148 152 159 157 162 162 165 166 167 166 168 170 172 166 175 172 170 173 174 171 172 173 176 179 176 176 172 178 176 177 175 174 180 180 178 179 180 179 180 0 0 180 178 178 178 182 178 177 178 181 176 175 172 176 173 173 169 170 167 163 161 159 162 151 152 156 156 155 156 154 154 153 148 156 155 156 155 154 153 152 154 151 153 156 153 152 151 152 144 148 160 157 150 158 145 150 146 148 165 151 137 146
142 135 134 140 143 142 151 142 144 135 143 140 142 145 143 143 144 147 147 148 149 156 158 157 161 159 163 159 166 161 164 165 169 168 164 167 164 172 168 169 172 0 172 0 172 173 170 172 173 170 173 172 175 175 175 0 174 176 0 174 172 0 175 173 174 170 172 167 176 170 169 169 169 171 161 163 165 158 159 152 151 155 149 153 152 152 153 149 152 157 146 154 151 148 146 147 153 149 152 148 149 144 150 151 149 143 144 143 147 147 147 145 147 159 157 158 143 150 161 182
127 123 127 116 134 134 145 139 134 119 134 130 131 132 136 137 135 138 137 138 142 144 147 152 149 155 155 156 156 161 158 154 157 164 159 156 161 162 0 0 0 0 0 0 0 0 164 164 167 167 167 163 167 165 0 0 0 167 0 0 0 0 0 0 164 166 167 0 160 164 163 162 158 162 156 156 154 156 149 150 149 146 145 150 144 147 145 146 146 143 144 142 145 147 137 137 143 145 141 142 137 139 143 141 138 139 137 139 139 149 145 149 150 154 145 143 134 140 150 147
124 118 127 115 125 132 131 132 136 130 123 132 123 123 132 123 120 138 136 137 139 137 147 144 146 148 152 155 154 154 152 154 157 160 155 155 153 0 0 0 0 0 0 0 0 0 0 0 159 161 164 160 0 0 0 0 0 0 0 0 0 0 0 0 160 161 0 0 0 0 0 157 157 154 152 149 149 151 148 144 143 138 145 143 140 142 140 139 146 139 136 138 137 141 138 138 142 141 137 140 140 135 139 135 130 133 136 137 146 143 133 147 141 147 136 138 132 117 131 151
112 106 117 122 126 124 130 130 129 128 133 121 118 119 118 122 134 132 130 136 135 124 134 143 139 145 140 146 143 150 151 147 153 153 150 148 0 0 0 0 0 0 0 0 0 0 0 0 153 154 155 0 0 0 0 0 0 0 0 0 0 0 0 0 0 0 0 0 0 0 0 0 147 151 150 150 145 143 144 145 130 141 139 141 129 126 139 142 129 137 138 130 131 127 120 129 140 138 137 137 138 137 131 133 133 133 131 135 130 140 143 140 136 140 145 133 139 127 130 148
106 109 112 110 107 110 120 116 112 120 114 116 119 115 128 123 120 129 117 112 129 125 133 124 134 139 136 140 143 143 143 144 144 142 143 141 0 0 0 0 0 0 0 0 0 0 0 0 143 0 0 0 0 0 0 0 0 0 0 0 0 0 0 0 0 0 0 0 0 0 0 0 143 141 142 138 141 130 127 129 124 121 121 121 125 121 121 123 124 130 122 125 112 128 126 133 124 132 121 119 117 121 129 116 120 118 126 120 129 131 127 131 111 130 105 127 104 100 114 136
111 107 116 115 114 111 115 115 119 117 115 120 117 115 117 123 118 131 122 115 116 116 122 115 136 128 137 136 0 140 0 0 0 0 139 0 0 0 0 0 0 0 0 0 0 0 0 0 0 0 0 0 0 0 0 0 0 0 0 0 0 0 0 0 0 0 0 0 0 0 0 0 0 142 136 125 124 126 120 127 123 118 122 126 114 118 116 121 118 118 122 127 117 117 114 123 117 122 119 117 119 123 131 124 122 114 126 121 106 130 131 123 133 122 129 129 119 134 165 162
102 100 111 111 107 103 105 103 102 107 111 105 103 106 106 110 108 114 118 114 112 115 110 116 120 120 125 119 119 136 0 0 0 0 126 0 0 0 0 0 0 0 0 0 0 0 0 0 0 0 0 0 0 0 0 0 0 0 0 0 0 0 0 0 0 0 0 0 0 0 0 0 131 0 0 126 121 115 123 116 117 115 112 118 111 115 110 116 111 113 115 116 108 111 111 106 111 113 112 112 110 108 111 115 113 113 108 106 123 113 111 110 105 130 118 99 113 119 120 133
95 100 90 94 100 102 102 97 104 106 101 102 100 107 107 104 106 109 115 106 109 111 106 108 117 112 115 119 120 119 0 122 0 0 0 0 0 0 0 0 0 0 0 0 0 0 0 0 0 0 0 0 0 0 0 0 0 0 0 0 0 0 0 0 0 0 0 0 0 0 0 0 0 119 0 116 120 116 114 109 110 111 106 105 112 109 109 116 103 111 113 109 111 111 109 115 109 104 101 116 108 106 109 105 104 116 108 108 109 111 98 98 104 93 100 120 108 94 100 119
98 103 97 102 98 98 102 92 91 102 98 94 103 98 100 93 104 101 114 115 109 106 96 107 113 110 115 113 114 121 117 122 124 0 0 0 0 0 0 0 0 0 0 0 0 0 0 0 0 0 0 0 0 0 0 0 0 0 0 0 0 0 0 0 0 0 0 0 0 0 0 0 123 121 111 120 111 119 117 118 106 111 105 120 111 105 107 101 102 103 103 106 112 96 99 101 106 101 109 106 104 112 109 108 112 106 105 91 107 96 105 99 108 100 105 100 132 130 133 132
88 81 82 85 81 82 80 95 91 83 91 93 96 99 90 88 76 97 92 89 94 86 98 108 99 101 113 107 0 0 107 108 117 0 114 0 0 0 114 0 0 0 0 0 0 0 0 0 0 0 0 0 0 0 0 0 0 0 0 0 0 0 0 0 0 0 0 0 0 0 0 116 114 111 107 116 107 104 104 100 101 105 97 91 103 95 88 99 103 99 93 97 103 85 84 97 90 104 87 97 90 99 97 93 81 94 95 93 95 89 88 90 79 97 90 94 119 79 101 136
93 86 89 84 97 94 97 104 91 94 96 94 92 93 96 95 98 89 101 97 97 103 103 104 101 102 108 107 0 106 111 110 118 111 122 108 0 0 114 0 0 117 0 0 0 0 0 0 0 0 0 0 0 0 0 0 0 0 0 0 118 0 0 115 111 0 0 0 111 0 110 111 112 110 114 108 107 110 101 96 110 103 105 89 98 99 104 103 100 102 106 107 108 98 98 103 101 95 100 108 105 98 93 101 95 103 100 87 88 83 89 89 86 97 102 97 103 123 125 135
86 93 89 92 94 96 88 92 84 95 88 92 89 95 89 83 96 99 99 96 96 95 100 112 90 104 106 103 105 111 89 0 106 104 98 105 0 116 114 0 108 0 0 0 0 0 0 0 0 0 0 0 0 0 0 0 0 112 0 0 0 104 104 111 114 112 109 101 113 106 112 104 103 102 113 112 101 93 105 97 94 95 101 87 97 89 93 105 103 95 96 103 111 88 83 84 90 90 94 87 95 92 93 100 89 92 95 96 100 89 96 97 93 99 89 101 112 139 151 124
86 85 80 85 87 92 101 88 88 82 89 87 84 90 89 87 90 90 92 88 77 90 97 84 84 91 91 91 104 90 94 97 100 95 92 108 99 101 103 100 103 98 100 108 106 90 0 0 94 0 0 107 103 93 102 106 108 103 107 105 99 105 108 101 101 109 102 96 98 107 96 108 104 100 108 91 91 97 96 86 94 91 92 96 95 96 86 92 96 92 99 88 92 94 92 92 86 94 89 83 85 89 91 92 87 92 85 85 82 90 83 88 91 96 77 86 88 73 112 122
82 78 86 87 82 89 101 101 86 83 85 84 83 85 86 90 89 92 90 98 87 99 96 86 91 95 92 88 97 101 94 86 94 96 96 96 98 98 97 107 104 98 98 105 104 92 106 0 104 102 100 105 102 97 102 102 102 105 98 104 105 94 94 104 99 97 95 98 94 104 97 106 103 92 104 88 93 97 96 84 94 96 94 92 97 97 89 86 95 90 88 100 88 92 94 80 90 92 101 88 84 98 81 94 90 105 94 94 93 82 82 97 90 85 110 118 110 85 123 91
82 74 69 69 79 83 87 86 72 82 87 81 87 77 91 83 87 87 87 85 93 84 91 88 85 83 92 93 87 95 89 92 80 93 97 94 98 83 89 95 90 97 85 92 97 94 90 103 96 89 94 85 96 89 89 84 103 90 96 97 96 81 81 98 96 97 88 90 95 97 92 88 97 94 83 95 93 94 91 95 89 93 82 89 87 95 91 90 87 86 95 80 86 81 89 87 83 77 78 86 80 89 82 67 83 80 85 84 83 84 71 89 86 85 91 103 132 118 143 85
72 73 84 86 71 84 80 85 79 80 82 89 79 81 82 89 87 89 84 87 86 93 83 91 89 83 90 85 86 88 84 98 90 95 95 91 84 93 96 94 96 96 93 88 87 102 89 87 97 89 91 96 94 85 98 91 89 83 90 98 97 97 93 94 92 93 88 96 105 94 96 94 85 84 94 84 97 96 95 93 91 87 85 89 76 86 90 79 92 93 77 84 75 81 91 81 89 84 80 77 91 80 79 73 72 78 79 81 81 88 82 88 77 91 84 90 84 85 78 130
