0 0 0 0 0 0 0 0 0 0 0 0 0 0 0 0 0 0 0 0 0 0 0 0 0 0 0 0 0 0 0 0 0 0 0 0 0 0 0 0 0 0 0 0 0 0 0 0 0 0 0 0 0 0 0 0 0 0 0 0 0 0 0 0 0 0 0 0 0 0 0 0 0 0 0 0 0 0 0 0 0 0 0 0 0 0 0 0 0 0 0 0 0 0 0 0 0 0 0 0 0 0 0 0 0 0 0 0 0 0 0 0 0 0 0 0 0 0 0 0
0 0 0 0 0 0 0 0 0 0 0 0 0 0 0 0 0 0 0 0 0 0 0 0 0 0 0 0 0 0 0 0 0 0 0 0 0 0 0 0 0 0 0 0 0 0 0 0 0 0 0 0 0 0 0 0 0 0 0 0 0 0 0 0 0 0 0 0 0 0 0 0 0 0 0 0 0 0 0 0 0 0 0 0 0 0 0 0 0 0 0 0 0 0 0 0 0 0 0 0 0 0 0 0 0 0 0 0 0 0 0 0 0 0 0 0 0 0 0 0
0 0 0 0 0 0 0 0 0 0 0 0 0 0 0 0 0 0 0 0 0 0 0 0 0 0 0 0 0 0 0 0 0 0 0 0 0 0 0 0 0 0 0 0 0 0 0 0 0 0 0 0 0 0 0 0 0 0 0 0 0 0 0 0 0 0 0 0 0 0 0 0 0 0 0 0 0 0 0 0 0 0 0 0 0 0 0 0 0 0 0 0 0 0 0 0 0 0 0 0 0 0 0 0 0 0 0 0 0 0 0 0 0 0 0 0 0 0 0 0
0 0 0 0 0 0 0 0 0 0 0 0 0 0 0 0 0 0 0 0 0 0 0 0 0 0 0 0 0 0 0 0 0 0 0 0 0 0 0 0 0 0 0 0 0 0 0 0 0 0 0 0 0 0 0 0 0 0 0 0 0 0 0 0 0 0 0 0 0 0 0 0 0 0 0 0 0 0 0 0 0 0 0 0 0 0 0 0 0 0 0 0 0 0 0 0 0 0 0 0 0 0 0 0 0 0 0 0 0 0 0 0 0 0 0 0 0 0 0 0
0 0 0 0 0 0 0 0 0 0 0 0 0 0 0 0 0 0 0 0 0 0 0 0 0 0 0 0 0 0 0 0 0 0 0 0 0 0 0 0 0 0 0 0 0 0 0 0 0 0 0 0 0 0 0 0 0 0 0 0 0 0 0 0 0 0 0 0 0 0 0 0 0 0 0 0 0 0 0 0 0 0 0 0 0 0 0 0 0 0 0 0 0 0 0 0 0 0 0 0 0 0 0 0 0 0 0 0 0 0 0 0 0 0 0 0 0 0 0 0
0 0 0 0 0 0 0 0 0 0 0 0 0 0 0 0 0 0 0 0 0 0 0 0 0 0 0 0 0 0 0 0 0 0 0 0 0 0 0 524 493 522 506 489 493 517 518 529 493 510 512 499 531 488 508 508 0 0 0 0 0 0 0 0 0 0 0 0 0 0 0 0 0 0 0 0 0 0 0 0 0 0 0 0 0 0 0 0 0 0 0 0 0 0 0 0 0 0 0 0 0 0 0 0 0 0 0 0 0 0 0 0 0 0 0 0 0 0 0 0
0 0 0 0 0 0 0 0 0 0 0 0 0 0 0 0 0 0 0 0 0 0 0 0 0 0 0 0 0 0 0 0 0 0 0 0 0 529 513 518 488 512 508 513 521 530 518 513 522 525 509 514 508 517 517 532 530 514 530 494 0 0 0 0 0 0 0 0 0 0 0 0 0 0 0 0 0 0 0 0 0 0 0 0 0 0 0 0 0 0 0 0 0 0 0 0 0 0 0 0 0 0 0 0 0 0 0 0 0 0 0 0 0 0 0 0 0 0 0 0
0 0 0 0 0 0 0 0 0 0 0 0 0 0 0 0 0 0 0 0 0 0 0 0 0 0 0 0 0 0 0 0 0 0 0 477 501 508 505 491 510 491 502 510 495 514 499 501 515 498 511 505 504 496 514 501 520 509 497 500 513 519 498 495 473 0 0 0 0 0 0 0 0 0 0 0 0 0 0 0 0 0 0 0 0 0 0 0 0 0 0 0 0 0 0 0 0 0 0 0 0 0 0 0 0 0 0 0 0 0 0 0 0 0 0 0 0 0 0 0
0 0 0 0 0 0 0 0 0 0 0 0 0 0 0 0 0 0 0 0 0 0 0 0 0 0 0 0 0 0 0 0 0 498 522 526 505 508 509 506 514 526 516 509 509 508 514 512 515 514 509 502 513 499 504 515 507 517 528 518 511 501 506 504 528 517 520 554 595 612 623 585 622 569 653 581 591 631 630 622 0 0 0 0 0 0 0 0 0 0 0 0 0 0 0 0 0 0 0 0 0 0 0 0 0 0 0 0 0 0 0 0 0 0 0 0 0 0 0 0
0 0 0 0 0 0 0 0 0 0 0 0 0 0 0 0 0 0 0 0 0 0 0 0 0 0 0 0 0 0 0 512 500 498 494 496 504 502 509 499 509 501 496 512 493 499 498 508 502 495 521 510 512 509 506 501 511 502 499 509 509 495 505 515 509 509 501 525 528 532 544 579 593 571 575 565 611 569 602 547 572 614 618 540 523 551 0 600 594 590 614 592 545 614 576 610 572 559 614 561 0 570 576 579 0 0 0 0 0 0 0 0 0 0 0 0 0 0 0 0
0 0 0 0 0 0 0 0 0 0 0 0 0 0 0 0 0 0 0 0 0 0 0 0 0 0 0 0 0 0 497 501 497 498 489 495 504 501 496 507 506 495 498 493 496 507 503 499 501 506 504 504 510 514 512 519 507 510 494 505 511 506 510 503 498 510 517 509 513 519 549 541 570 551 584 568 556 532 579 554 531 558 560 525 530 558 601 567 518 527 563 515 573 530 551 529 533 547 542 600 547 510 557 538 538 505 512 510 526 0 0 0 0 0 0 0 0 0 0 0
0 0 0 0 0 0 0 0 0 0 0 0 0 0 0 0 0 0 0 0 0 0 0 0 0 0 0 0 479 520 522 512 501 510 504 502 495 504 511 502 502 506 507 505 498 505 510 496 501 508 505 501 497 503 507 506 506 508 502 515 502 500 510 507 510 494 503 498 517 521 527 520 617 556 571 591 578 531 590 574 586 563 563 564 608 591 654 570 571 597 595 559 581 593 570 582 616 583 573 583 575 585 601 616 608 618 602 556 610 0 0 0 0 0 0 0 0 0 0 0
0 0 0 0 0 0 0 0 0 0 0 0 0 0 0 0 0 0 0 0 0 0 0 0 0 0 0 477 502 498 491 490 505 504 483 483 489 495 502 498 500 506 495 501 507 502 504 505 502 500 498 499 504 496 505 506 504 495 497 507 513 506 505 517 506 497 510 511 513 500 515 518 510 559 548 530 557 556 567 545 541 508 546 542 520 569 521 539 511 543 548 507 556 570 528 554 530 540 461 502 504 546 514 565 553 510 521 517 0 0 0 0 0 0 0 0 0 0 0 0
0 0 0 0 0 0 0 0 0 0 0 0 0 0 0 0 0 0 0 0 0 0 0 0 0 0 480 515 499 508 501 498 492 489 498 500 494 503 511 499 506 497 498 512 504 508 498 507 494 504 505 500 503 514 511 499 506 506 518 511 510 509 511 506 511 510 507 501 516 507 512 520 523 527 549 556 554 556 541 542 565 547 566 550 524 574 550 569 542 569 562 510 561 561 570 533 552 553 526 548 533 529 594 500 558 521 551 562 524 0 0 0 0 0 0 0 0 0 0 0
0 0 0 0 0 0 0 0 0 0 0 0 0 0 0 0 0 0 0 0 0 0 0 0 0 469 495 500 498 503 501 504 500 499 493 488 507 508 504 506 501 504 501 508 497 505 503 506 502 508 500 507 506 493 505 503 514 509 515 505 506 504 512 514 512 507 512 508 513 513 515 515 492 532 573 513 567 559 575 554 546 554 559 573 564 525 575 543 564 564 557 572 559 569 586 562 588 632 557 556 554 579 545 562 588 580 577 566 611 0 0 0 0 0 0 0 0 0 0 0
0 0 0 0 0 0 0 0 0 0 0 0 0 0 0 0 0 0 0 0 0 0 0 0 0 485 514 492 497 483 490 489 501 501 483 492 497 493 495 494 503 505 499 498 490 499 508 506 498 499 498 503 505 504 511 502 510 507 512 506 505 507 503 502 505 508 513 514 502 504 512 513 508 508 555 556 559 538 549 539 535 553 537 554 546 527 542 565 536 544 526 557 538 537 554 578 531 545 535 528 540 537 562 538 551 555 518 534 536 0 0 0 559 535 0 0 0 0 0 0
0 0 0 0 0 0 0 0 0 0 0 0 0 0 0 0 0 0 0 0 0 0 0 0 518 478 500 486 494 489 504 508 494 497 500 502 506 499 500 507 505 500 493 504 494 515 502 505 495 508 504 501 500 505 509 504 508 510 505 504 502 505 503 505 505 512 509 510 511 513 507 509 513 509 522 531 572 545 578 571 560 543 578 524 552 557 538 565 557 546 553 550 592 583 546 567 563 531 586 581 569 582 610 566 549 564 552 555 494 581 491 0 583 0 0 0 0 0 0 0
0 0 0 0 0 0 0 0 0 0 0 0 0 0 0 0 0 0 0 0 0 0 0 0 487 495 497 485 490 490 488 488 493 486 496 498 498 496 492 500 501 492 497 494 495 500 503 498 499 493 500 505 499 505 500 505 509 506 505 508 510 507 508 503 505 506 505 502 501 508 502 511 505 518 508 527 510 530 559 502 548 543 562 522 532 556 493 515 535 559 544 543 544 551 564 545 582 550 528 522 566 534 559 570 572 531 579 556 568 539 0 0 0 0 0 0 0 0 0 0
0 0 0 0 0 0 0 0 0 0 0 0 0 0 0 0 0 0 0 0 0 0 0 477 491 493 487 492 483 485 492 501 488 491 489 485 495 495 492 488 489 486 498 498 500 507 492 506 499 493 497 499 501 497 501 494 505 508 495 503 509 498 505 500 503 506 513 505 508 496 505 503 505 500 508 516 519 528 518 533 516 500 514 511 538 510 546 515 510 500 540 487 515 502 523 489 508 486 483 507 538 537 498 481 514 507 465 486 509 454 465 0 0 0 0 0 0 0 0 0
0 0 0 0 0 0 0 0 0 0 0 0 0 0 0 0 0 0 0 0 0 0 0 504 486 499 498 490 479 489 501 499 495 498 498 490 488 489 493 495 491 505 500 497 502 503 496 507 497 496 496 503 503 502 501 507 512 514 505 501 506 503 509 502 501 505 503 501 502 516 507 507 510 508 508 517 533 523 554 558 539 550 531 527 528 536 582 515 529 531 529 528 534 573 551 506 551 527 513 558 562 520 538 529 517 560 529 529 540 541 515 0 0 0 0 0 0 0 0 0
0 0 0 0 0 0 0 0 0 0 0 0 0 0 0 0 0 0 0 0 0 0 423 495 491 481 487 485 487 486 481 490 491 490 483 486 487 485 490 491 494 501 490 491 493 498 503 491 494 504 495 498 494 490 505 496 497 496 498 503 507 496 501 498 495 498 495 501 498 502 503 498 502 503 498 502 522 512 486 495 498 512 512 499 485 490 509 468 506 473 491 488 505 501 520 527 487 507 525 496 501 549 502 513 513 503 528 504 499 503 452 0 503 0 0 0 0 0 0 0
0 0 0 0 0 0 0 0 0 0 0 0 0 0 0 0 0 0 0 0 0 0 480 486 499 490 494 482 497 495 485 488 489 489 491 496 494 489 498 493 499 500 498 492 499 496 502 500 498 498 494 502 500 497 498 504 501 504 506 508 502 499 502 511 508 507 509 520 514 497 503 506 513 510 509 514 510 507 528 524 530 522 533 527 533 549 532 525 549 543 517 537 509 547 533 504 527 529 528 526 533 489 556 534 562 524 551 528 533 517 554 560 0 0 0 0 0 0 0 0
0 0 0 0 0 0 0 0 0 0 0 0 0 0 0 0 0 0 0 0 0 0 487 477 487 489 488 492 494 490 489 483 493 489 493 485 489 498 497 500 495 500 499 493 497 503 498 497 492 492 498 510 501 502 502 497 505 506 501 507 505 505 509 508 501 505 509 505 498 497 505 503 504 502 507 503 511 536 533 529 540 515 520 539 540 534 539 525 570 575 541 559 530 535 547 526 550 564 547 522 549 536 542 565 516 539 565 593 558 616 561 528 536 0 0 0 0 0 0 0
0 0 0 0 0 0 0 0 0 0 0 0 0 0 0 0 0 0 0 0 0 0 498 492 495 491 488 496 493 488 487 491 493 485 483 489 481 490 492 491 491 494 493 487 498 493 495 498 496 500 495 504 497 498 500 499 508 502 498 498 506 507 501 505 499 499 506 500 502 499 511 506 499 505 506 513 509 510 511 511 509 514 529 539 486 532 512 519 484 498 533 511 522 524 512 538 517 523 498 533 544 517 506 492 509 504 552 487 568 530 535 570 482 0 0 0 0 0 0 0
0 0 0 0 0 0 0 0 0 0 0 0 0 0 0 0 0 0 0 0 0 0 494 490 488 483 486 493 496 500 492 487 490 488 487 489 489 490 495 497 496 490 505 496 494 494 493 494 501 503 503 507 500 501 500 508 507 504 501 500 508 499 499 512 499 509 502 508 506 500 507 501 508 509 514 508 510 517 517 536 519 510 506 515 533 539 540 553 531 525 528 507 543 510 529 539 530 504 512 525 517 527 522 541 555 558 533 519 574 520 543 551 525 0 0 0 0 0 0 0
0 0 0 0 0 0 0 0 0 0 0 0 0 0 0 0 0 0 0 0 0 0 472 472 488 490 487 491 482 484 492 489 484 484 496 484 493 488 497 497 495 495 490 495 494 493 491 497 506 497 495 494 497 497 501 507 497 502 499 498 501 496 503 504 501 503 504 502 495 504 502 499 507 504 494 496 510 495 518 523 503 485 535 508 522 514 503 533 510 520 511 503 542 502 517 555 508 523 496 522 505 498 516 530 494 500 560 528 0 535 534 530 621 0 0 0 0 0 0 0
0 0 0 0 0 0 0 0 0 0 0 0 0 0 0 0 0 0 0 0 0 440 478 481 472 477 490 485 490 484 483 491 479 495 480 484 496 489 493 490 490 503 493 492 491 493 493 493 492 494 497 498 497 497 500 499 498 502 502 496 501 492 495 498 499 500 506 506 508 505 503 500 505 509 505 515 497 506 510 503 489 488 514 518 504 502 505 481 509 520 504 478 498 499 520 507 534 503 483 512 510 480 501 534 476 511 522 497 500 472 440 0 468 0 0 0 0 0 0 0
0 0 0 0 0 0 0 0 0 0 0 0 0 0 0 0 0 0 0 0 0 472 488 482 482 485 478 485 479 484 486 489 486 497 488 492 491 489 494 486 503 492 487 487 497 498 493 495 495 500 499 502 496 498 499 497 497 499 503 514 501 499 502 497 502 502 505 495 504 500 501 500 502 514 508 515 501 510 511 524 552 519 524 537 502 523 538 524 525 527 506 491 513 529 511 521 526 507 495 542 506 532 544 538 498 551 520 508 531 512 521 541 525 0 0 0 0 0 0 0
0 0 0 0 0 0 0 0 0 0 0 0 0 0 0 0 0 0 0 0 0 449 465 478 482 477 485 482 477 481 492 486 488 480 478 484 486 485 491 484 491 488 490 487 492 490 497 500 495 489 493 495 497 494 493 499 494 494 499 496 499 498 506 500 502 502 509 498 504 499 499 497 496 505 505 499 502 500 505 504 482 501 487 511 504 518 489 489 477 491 492 494 484 504 522 494 503 508 492 496 500 501 484 529 492 533 504 476 512 486 475 0 442 0 523 0 0 0 0 0
0 0 0 0 0 0 0 0 0 0 0 0 0 0 0 0 0 0 0 0 0 458 483 476 485 481 482 477 489 482 484 486 491 487 490 482 487 486 488 491 487 490 492 493 492 488 492 499 495 496 494 501 498 496 502 497 498 498 504 502 493 499 500 499 507 498 505 500 500 508 502 502 503 506 500 507 498 508 499 476 534 508 507 504 520 501 489 528 493 493 496 512 491 511 493 512 485 526 524 540 482 530 523 544 520 502 518 536 522 488 503 514 560 0 0 0 0 0 0 0
0 0 0 0 0 0 0 0 0 0 0 0 0 0 0 0 0 0 0 0 0 467 491 484 486 481 490 479 483 483 482 486 485 483 496 482 490 488 490 493 498 496 493 493 493 491 497 493 495 491 496 498 500 499 499 497 496 495 500 496 501 501 500 500 503 500 497 507 503 506 504 501 502 516 501 500 503 515 536 512 504 532 536 527 529 520 525 540 505 533 529 513 508 521 528 548 529 524 546 520 522 546 527 507 567 527 563 553 565 529 520 595 0 0 0 0 0 0 0 0
0 0 0 0 0 0 0 0 0 0 0 0 0 0 0 0 0 0 0 0 0 455 477 479 483 477 476 479 479 482 486 485 484 485 488 489 485 481 490 490 491 490 490 489 491 496 494 495 494 490 491 493 496 491 492 495 496 493 496 495 495 497 496 502 496 499 499 500 500 503 496 497 504 509 497 499 505 488 504 501 512 503 495 505 508 496 494 503 525 477 508 517 508 508 496 505 495 508 496 516 500 506 496 503 463 467 480 505 528 532 493 475 490 0 0 0 0 0 0 0
0 0 0 0 0 0 0 0 0 0 0 0 0 0 0 0 0 0 0 0 0 473 486 490 480 479 478 483 484 483 490 484 482 482 488 490 483 492 487 493 492 492 491 491 495 491 490 493 493 494 491 498 494 495 491 501 494 500 502 499 503 496 499 501 501 500 501 500 498 508 510 494 503 511 500 507 503 504 507 520 508 511 524 537 512 534 509 530 518 510 530 551 521 514 523 519 538 482 533 534 488 569 538 548 546 533 521 524 501 528 515 520 489 539 0 0 0 0 0 0
0 0 0 0 0 0 0 0 0 0 0 0 0 0 0 0 0 0 0 0 0 422 471 475 477 479 473 479 478 474 479 485 478 488 486 486 483 486 483 488 486 483 486 494 488 489 490 489 496 495 495 496 495 495 492 495 492 495 492 495 497 498 499 497 497 503 501 500 501 502 499 497 493 497 498 500 501 498 509 487 501 498 490 493 500 505 499 490 513 496 501 512 501 505 486 521 496 471 516 510 495 517 521 478 487 510 525 460 490 491 502 451 480 0 0 0 0 0 0 0
0 0 0 0 0 0 0 0 0 0 0 0 0 0 0 0 0 0 0 0 0 416 477 469 472 480 473 476 477 477 478 488 482 481 481 486 486 483 485 485 486 480 483 491 497 491 484 496 493 494 493 492 494 494 493 494 496 493 498 498 494 499 501 494 497 493 498 497 497 495 498 498 497 503 493 495 496 499 503 506 505 486 482 499 508 485 492 499 488 504 514 478 488 488 479 497 458 502 496 488 476 492 466 514 489 478 523 514 490 485 458 498 493 514 0 0 0 0 0 0
0 0 0 0 0 0 0 0 0 0 0 0 0 0 0 0 0 0 0 0 0 447 468 475 467 480 478 480 482 485 477 476 481 478 480 483 485 486 486 483 484 487 488 486 490 486 490 485 488 493 494 489 490 492 499 491 492 501 500 495 499 498 497 503 499 502 503 500 495 496 501 495 495 500 496 494 501 498 511 498 497 492 493 499 487 511 509 523 497 494 516 510 487 502 505 513 536 510 488 500 489 518 514 497 493 497 501 466 492 521 481 498 534 484 0 0 0 0 0 0
0 0 0 0 0 0 0 0 0 0 0 0 0 0 0 0 0 0 0 0 0 446 475 468 473 468 477 478 481 474 476 484 484 483 485 482 483 478 484 488 481 485 482 488 481 491 487 493 488 494 490 491 490 491 495 492 491 494 487 493 494 495 498 501 498 501 500 498 496 495 502 492 493 496 494 497 494 488 490 496 504 486 485 472 483 485 484 489 486 476 462 490 482 486 496 493 455 481 480 493 501 479 492 464 481 489 455 478 457 453 465 473 455 490 0 0 0 0 0 0
0 0 0 0 0 0 0 0 0 0 0 0 0 0 0 0 0 0 0 0 0 0 476 475 475 479 475 477 478 476 473 485 484 478 480 482 489 485 486 486 483 487 489 487 485 488 491 493 498 491 497 496 492 495 494 494 491 499 497 491 500 500 502 497 499 497 498 495 494 497 499 503 497 492 496 494 490 497 495 481 496 506 496 485 513 506 483 488 507 497 507 493 502 516 495 499 501 525 504 500 525 520 513 503 538 495 522 514 490 528 520 457 484 493 473 0 0 0 0 0
0 0 0 0 0 0 0 0 0 0 0 0 0 0 0 0 0 0 0 0 0 0 506 476 474 476 476 477 476 476 483 480 483 486 485 484 481 488 491 484 490 486 485 485 487 489 489 493 493 490 493 495 498 494 494 494 499 493 492 497 497 494 497 500 496 499 497 501 494 500 498 498 499 495 488 494 497 497 495 507 504 514 507 509 537 545 522 494 527 514 534 517 527 552 526 511 512 532 509 525 510 490 507 525 511 513 532 501 508 559 504 503 529 0 0 0 0 0 0 0
0 0 0 0 0 0 0 0 0 0 0 0 0 0 0 0 0 0 0 0 0 0 531 476 470 480 480 479 474 472 479 479 480 481 481 482 482 484 480 487 478 486 488 481 489 487 490 482 493 495 488 492 494 494 497 497 492 489 496 497 499 495 497 496 497 498 497 495 500 495 498 496 500 496 486 494 496 508 495 493 498 501 494 501 503 507 513 518 516 494 520 531 519 510 515 491 515 500 521 514 502 511 499 530 517 478 515 530 466 482 530 506 479 482 499 497 0 0 0 0
0 0 0 0 0 0 0 0 0 0 0 0 0 0 0 0 0 0 0 0 0 0 611 473 475 470 478 477 473 481 475 479 486 481 483 483 486 483 486 489 486 487 487 488 486 489 489 488 495 492 494 494 496 493 495 499 493 491 493 495 495 497 495 498 499 496 497 499 501 495 496 495 494 494 491 499 496 505 504 502 521 511 529 509 509 522 538 518 535 519 533 547 514 534 532 545 544 515 539 533 519 503 507 535 487 508 506 516 497 547 531 501 531 554 498 0 0 0 0 0
0 0 0 0 0 0 0 0 0 0 0 0 0 0 0 0 0 0 0 0 0 0 0 476 471 473 474 472 475 475 475 477 478 485 478 475 480 480 482 486 484 489 488 484 489 486 489 488 494 488 493 488 496 491 486 495 494 493 490 493 495 493 493 493 495 494 492 500 493 496 497 494 498 496 491 492 490 485 493 509 492 491 471 510 497 513 494 502 500 509 484 501 498 488 495 513 479 497 481 511 503 515 506 478 509 473 482 464 493 489 506 518 472 0 0 0 0 0 0 0
0 0 0 0 0 0 0 0 0 0 0 0 0 0 0 0 0 0 0 0 0 0 0 482 474 469 470 470 473 479 473 473 476 479 478 476 478 479 489 479 477 486 486 484 485 485 492 491 492 489 486 485 486 490 489 493 495 489 496 493 489 489 493 490 491 492 494 493 490 494 496 489 493 494 489 490 491 491 489 490 490 501 492 484 503 500 488 486 486 504 482 502 509 505 478 511 482 515 481 475 475 482 453 484 493 463 475 477 491 475 489 474 442 471 0 0 0 0 0 0
0 0 0 0 0 0 0 0 0 0 0 0 0 0 0 0 0 0 0 0 0 0 0 514 470 470 474 468 473 470 481 473 477 473 482 480 477 477 483 484 481 481 487 482 482 488 489 486 490 489 494 491 488 490 491 490 492 492 489 487 500 492 491 496 498 496 494 492 494 492 495 493 493 499 496 493 493 491 514 506 496 515 494 511 486 535 499 516 530 491 503 509 514 499 501 517 507 503 498 483 514 521 497 510 465 483 493 496 479 475 497 502 482 501 0 0 0 0 0 0
0 0 0 0 0 0 0 0 0 0 0 0 0 0 0 0 0 0 0 0 0 0 0 0 474 467 469 473 470 475 471 468 471 476 477 473 471 481 477 476 478 478 479 486 486 489 484 487 490 485 488 489 492 492 489 488 486 492 484 493 484 496 495 490 500 491 488 492 498 491 493 490 490 494 488 491 499 483 482 497 481 482 474 489 496 497 489 492 478 488 470 494 491 485 506 481 475 487 472 473 488 478 472 494 481 449 444 468 458 453 432 459 460 453 443 430 0 0 0 0
0 0 0 0 0 0 0 0 0 0 0 0 0 0 0 0 0 0 0 0 0 0 0 0 504 470 466 470 469 472 479 474 474 475 475 480 475 481 475 481 487 485 478 487 488 484 485 488 485 493 493 487 490 497 489 487 496 493 492 495 492 489 496 490 495 496 489 490 491 494 498 489 494 493 494 493 495 488 496 488 491 486 499 485 500 543 490 515 515 516 497 496 542 513 520 528 521 510 523 512 501 510 509 475 472 469 468 487 493 467 489 500 514 495 483 0 0 0 0 0
0 0 0 0 0 0 0 0 0 0 0 0 0 0 0 0 0 0 0 0 0 0 0 0 0 477 469 467 468 464 472 474 477 473 478 475 480 477 479 479 478 480 478 480 486 486 486 489 484 488 492 487 488 491 486 488 491 484 489 494 489 492 492 489 491 492 490 493 496 493 488 493 492 489 493 483 486 485 490 496 487 484 500 510 486 499 501 498 506 511 516 498 499 496 516 515 510 530 506 518 521 521 530 505 475 476 489 514 484 505 521 509 505 534 0 0 0 0 0 0
0 0 0 0 0 0 0 0 0 0 0 0 0 0 0 0 0 0 0 0 0 0 0 0 0 517 469 471 471 473 466 470 476 473 477 477 474 475 478 475 480 475 481 479 484 483 478 483 487 488 484 484 483 487 484 486 492 485 486 493 493 489 490 485 492 490 492 487 490 489 492 491 494 489 488 485 486 481 500 482 486 514 505 483 483 492 493 487 497 479 486 487 495 487 487 502 509 504 496 497 499 498 482 468 479 465 478 480 478 464 485 501 474 448 0 0 0 0 0 0
0 0 0 0 0 0 0 0 0 0 0 0 0 0 0 0 0 0 0 0 0 0 0 0 0 0 489 472 468 468 471 471 473 473 478 473 473 475 478 478 476 477 477 486 479 484 481 482 479 489 483 486 486 486 486 490 487 487 493 488 488 485 489 489 496 487 493 494 493 490 493 485 495 492 487 487 490 489 489 511 511 498 512 507 504 492 502 496 487 494 493 496 488 506 484 515 502 494 498 519 517 526 505 545 524 488 539 501 492 499 510 511 518 466 571 0 0 0 0 0
0 0 0 0 0 0 0 0 0 0 0 0 0 0 0 0 0 0 0 0 0 0 0 0 0 0 0 475 473 465 468 470 472 474 469 471 472 478 476 478 478 478 476 479 481 479 481 478 482 480 480 481 481 483 484 481 480 491 478 487 482 485 486 485 491 489 486 489 493 486 490 489 490 481 493 481 482 477 488 484 481 505 487 476 509 495 481 488 475 479 486 480 484 495 492 502 480 506 491 481 473 500 493 454 474 490 452 483 452 488 442 436 456 449 0 0 0 0 0 0
0 0 0 0 0 0 0 0 0 0 0 0 0 0 0 0 0 0 0 0 0 0 0 0 0 0 0 482 464 461 466 469 474 467 470 469 473 471 474 474 478 476 474 478 479 476 481 480 482 483 481 485 484 482 478 480 481 484 484 480 485 485 485 488 485 489 486 487 484 486 481 487 482 477 484 478 476 480 476 483 492 495 468 487 493 478 482 465 482 484 464 468 469 477 471 486 485 462 498 477 477 485 493 468 453 452 440 438 434 431 441 445 436 478 425 0 0 0 0 0
0 0 0 0 0 0 0 0 0 0 0 0 0 0 0 0 0 0 0 0 0 0 0 0 0 0 0 0 513 471 463 470 468 469 473 472 472 470 474 475 476 481 479 478 480 478 475 481 482 481 482 480 480 484 479 477 482 482 486 487 489 482 478 493 483 487 490 488 489 486 485 481 486 490 479 481 489 495 499 482 488 501 494 485 483 510 506 516 494 496 496 504 498 499 489 492 478 487 473 502 502 501 497 512 481 498 457 483 458 458 461 514 536 508 521 0 0 0 0 0
0 0 0 0 0 233 234 243 264 0 0 0 0 0 0 0 0 0 0 0 0 0 0 0 0 0 0 0 0 480 455 466 466 466 465 468 470 471 467 475 470 476 475 475 477 477 472 479 475 479 479 477 473 477 477 478 483 481 481 483 486 483 485 484 483 486 481 480 481 485 474 480 478 477 476 471 487 459 486 480 487 481 476 485 477 474 481 466 465 470 469 463 475 470 459 467 499 478 466 469 459 470 484 471 461 443 442 451 454 475 438 445 432 453 419 0 0 0 0 0
0 0 0 0 255 227 238 235 236 295 377 0 0 0 0 0 0 0 0 0 0 2305 0 0 0 0 0 0 0 0 465 465 468 470 466 469 471 467 472 470 474 476 474 473 477 478 479 471 484 476 478 482 480 479 477 480 484 479 484 482 488 485 486 489 481 483 480 483 477 479 482 478 483 480 479 482 488 489 473 478 494 474 482 484 487 470 490 471 477 483 494 491 481 476 480 505 483 495 490 500 464 506 506 508 483 479 493 476 487 475 489 472 467 507 0 0 0 0 0 0
0 0 0 231 219 227 223 224 232 235 354 0 0 0 0 0 0 0 0 0 0 0 0 0 0 0 0 0 0 0 0 471 466 464 470 464 467 470 467 472 473 468 471 466 470 476 473 473 478 477 475 476 482 475 476 481 483 477 479 477 484 483 477 482 479 478 484 477 482 485 476 470 473 495 482 487 483 483 470 487 492 477 480 471 481 483 481 487 484 487 496 502 485 499 490 495 508 488 483 514 511 521 491 522 501 536 507 479 504 479 468 461 420 528 528 0 0 0 0 0
227 257 226 226 221 265 260 232 233 233 308 0 376 403 394 410 424 407 419 429 442 452 417 441 426 442 449 450 456 450 449 456 469 465 463 461 470 466 462 464 463 468 464 463 475 475 471 474 477 476 481 477 477 477 478 477 481 474 481 476 475 484 465 478 481 477 480 477 479 472 475 468 476 468 476 462 476 470 463 463 470 457 463 467 465 459 473 478 472 461 459 470 469 461 477 470 464 466 462 454 452 500 473 465 455 464 461 465 448 454 473 434 439 437 461 0 0 0 0 0
224 234 255 259 274 252 251 230 228 267 425 432 413 421 403 399 426 422 423 433 420 431 423 424 428 440 442 444 449 458 455 460 471 459 461 463 463 464 459 462 463 466 465 468 461 471 470 469 475 476 471 470 472 479 472 470 472 471 474 472 476 470 480 477 467 475 475 475 475 469 477 470 467 471 461 461 464 470 460 472 482 473 465 470 457 465 454 463 456 460 464 476 455 460 482 480 465 464 480 455 464 466 479 462 468 465 453 454 449 445 448 463 474 506 477 514 510 536 0 0
203 191 208 203 210 225 232 230 229 273 386 344 368 370 358 377 353 373 368 370 365 374 378 389 409 396 414 424 430 437 431 441 436 440 443 442 431 448 440 442 444 451 443 444 448 449 446 458 460 456 451 453 454 453 450 455 453 454 457 460 461 456 454 459 459 452 457 454 455 458 453 455 450 442 439 438 428 431 425 433 443 432 422 423 425 427 417 429 421 428 432 438 433 430 435 410 424 423 419 414 430 405 413 412 400 432 418 410 414 413 405 427 413 415 422 408 417 408 420 0
243 276 255 226 231 228 234 225 258 329 331 333 340 323 336 327 348 342 341 339 340 348 360 365 365 380 388 404 407 423 415 416 420 423 424 428 429 433 427 425 424 433 425 427 430 436 438 442 441 444 439 436 439 438 441 438 435 441 442 443 441 440 433 436 439 433 435 434 437 432 434 432 432 424 421 412 409 392 393 390 389 395 394 380 393 399 390 384 391 381 392 390 389 393 385 396 407 389 384 386 382 375 397 386 377 379 376 376 369 383 373 395 375 376 372 377 384 361 359 286
318 305 290 245 234 234 235 252 298 304 316 308 310 316 311 324 325 314 312 319 337 318 332 342 359 377 388 389 398 395 396 399 407 412 405 408 412 409 412 416 420 415 410 409 416 416 421 423 418 416 411 419 412 426 422 422 418 428 421 429 423 423 420 424 417 416 424 416 418 418 413 414 407 405 404 396 378 381 363 380 374 373 360 366 359 363 371 361 367 363 358 355 363 369 373 370 364 374 371 375 364 371 351 364 365 378 374 353 367 361 361 362 376 363 380 380 358 379 383 370
260 264 268 265 255 239 252 257 260 271 269 271 276 281 270 277 287 278 273 284 284 307 310 313 315 344 354 354 353 373 381 381 386 382 377 382 386 388 387 391 389 386 390 388 391 390 392 388 389 390 382 392 391 400 392 385 394 390 394 399 392 395 398 393 394 386 392 391 389 392 386 391 377 380 367 362 354 341 333 328 322 325 327 325 320 319 320 335 319 324 316 319 322 315 332 330 325 312 324 327 314 316 318 312 324 312 335 326 319 313 306 339 314 324 304 318 327 311 292 285
259 234 236 256 250 247 254 254 258 263 249 269 256 258 249 261 256 264 266 270 276 284 296 295 312 311 332 351 348 362 361 366 363 367 362 367 367 360 373 370 364 371 368 376 370 371 369 365 365 373 376 376 375 377 377 377 374 382 378 375 381 378 375 380 364 373 373 373 364 370 369 364 366 361 346 337 334 319 319 316 309 299 304 302 298 311 295 303 308 301 303 311 314 299 297 298 299 304 298 311 319 313 304 307 304 315 321 310 302 305 315 308 308 309 302 328 309 312 301 305
227 218 216 237 236 242 238 239 247 244 241 245 248 253 242 236 242 252 247 257 253 263 276 281 294 302 316 326 323 332 328 340 337 341 340 348 345 343 342 343 354 348 346 350 348 346 348 349 349 340 344 347 346 355 352 353 353 353 351 345 348 350 351 341 349 352 349 355 355 345 348 343 343 335 327 325 314 299 287 283 286 279 284 278 284 277 280 285 274 282 279 281 285 283 275 272 270 288 278 294 289 276 274 282 276 284 282 276 287 277 274 288 284 303 285 282 296 292 293 296
207 218 221 222 229 217 224 215 225 230 221 225 216 232 232 225 228 235 231 235 242 246 250 259 282 284 291 296 296 312 310 313 318 315 312 317 320 324 323 329 323 318 321 323 326 319 333 330 322 325 322 323 327 326 325 323 323 322 330 319 331 327 331 328 325 327 330 326 324 320 321 320 320 308 302 296 286 276 271 268 263 266 262 266 263 255 264 249 254 251 258 267 265 255 261 261 256 244 261 250 258 256 267 260 259 260 260 264 260 270 270 253 267 262 245 253 267 258 300 290
216 210 209 216 222 211 221 220 218 218 221 213 211 213 212 222 216 219 220 229 227 238 249 250 254 265 272 276 284 287 291 301 295 288 297 298 293 304 305 307 296 298 299 304 303 295 306 303 307 311 305 301 300 305 298 304 309 310 308 300 304 305 310 307 306 309 306 310 304 302 296 304 300 290 294 278 267 258 256 252 251 247 251 248 254 244 250 244 242 248 248 250 244 243 252 242 244 247 248 243 243 244 250 250 245 241 247 248 251 251 253 250 250 266 267 262 258 268 251 278
175 202 194 200 193 200 206 204 182 201 200 200 188 192 200 191 202 204 210 209 210 223 228 229 241 244 252 257 262 263 271 267 272 265 274 280 279 279 280 276 279 280 285 292 280 283 277 285 284 288 282 281 279 280 281 284 285 284 280 279 282 286 287 284 288 288 281 282 281 281 283 277 277 271 265 259 250 242 245 241 233 232 227 232 228 229 226 222 232 229 228 230 226 224 224 230 220 224 226 219 221 233 226 235 225 220 233 226 237 229 236 239 234 231 234 236 216 226 219 240
196 173 176 176 197 179 185 199 181 187 184 177 177 179 180 185 181 184 185 192 190 215 218 226 225 233 239 242 242 247 255 253 258 254 254 257 259 260 264 267 262 262 265 261 267 259 266 269 264 265 262 264 267 267 266 270 266 268 263 276 266 263 262 277 267 267 270 269 267 264 268 257 257 253 254 245 236 229 221 219 223 217 214 218 215 220 213 214 214 219 215 217 215 194 220 214 216 208 209 215 215 211 215 209 206 217 210 210 223 211 213 226 221 219 213 212 226 224 218 229
173 170 165 175 177 178 174 182 180 177 181 180 182 183 182 175 183 185 179 181 185 187 207 211 197 216 226 225 222 233 235 246 242 241 237 242 237 242 248 245 245 244 249 249 253 252 246 243 244 253 246 249 246 242 240 246 249 250 254 250 251 246 250 250 245 248 250 250 249 247 241 243 239 244 240 223 222 221 212 201 194 198 195 187 186 192 195 197 195 191 189 207 196 186 190 188 191 187 183 186 188 206 187 192 187 186 179 202 198 183 201 206 218 194 206 216 213 201 215 211
168 174 173 172 178 175 172 168 176 176 173 170 172 175 175 173 176 174 182 184 184 179 184 191 191 192 210 212 219 221 219 224 220 221 223 228 229 234 227 231 226 230 235 230 231 231 223 229 233 235 232 233 233 232 233 230 234 232 235 238 233 240 234 234 235 234 230 229 230 231 231 232 228 222 217 212 195 194 185 190 196 192 187 194 191 192 187 190 188 188 191 192 187 189 191 189 187 188 185 188 174 179 177 187 186 184 187 180 185 182 179 184 201 176 193 177 185 183 190 200
165 165 172 170 174 166 171 167 169 167 168 165 170 166 171 175 176 177 178 180 176 182 176 180 187 188 190 189 189 211 211 211 208 212 214 214 213 215 212 198 215 216 219 219 221 223 220 220 220 219 217 223 218 218 220 223 221 223 224 221 217 224 221 222 218 218 219 220 222 220 219 215 216 211 192 188 187 197 192 191 190 179 185 184 187 184 185 184 184 184 184 182 182 184 181 180 183 179 182 179 182 180 180 185 176 179 180 174 177 179 179 180 170 177 183 189 179 178 178 204
150 152 161 161 160 160 159 165 160 166 163 157 160 158 166 163 160 168 171 177 175 173 178 183 184 184 185 185 191 185 193 187 184 187 186 187 186 189 184 189 194 189 194 194 196 195 194 194 190 193 195 197 196 198 196 192 195 192 195 196 200 197 197 189 189 192 193 198 190 197 196 196 194 191 197 194 195 189 189 179 175 175 174 175 176 171 174 173 177 172 176 175 177 169 171 172 169 169 169 165 172 175 173 175 178 170 171 168 169 170 170 175 169 166 178 167 174 188 174 187
147 148 150 154 156 154 152 153 159 158 160 159 158 151 158 161 158 163 156 164 166 167 178 173 181 179 180 182 184 189 186 188 188 190 188 189 190 194 191 194 195 196 189 195 191 198 194 198 196 191 194 197 199 198 198 192 199 199 196 199 188 200 198 196 192 194 194 196 193 194 193 197 192 196 188 181 186 182 176 170 169 169 165 166 163 170 169 169 170 170 172 167 176 170 170 164 165 168 164 170 166 168 170 165 167 161 158 165 165 166 169 161 175 180 175 175 165 169 181 170
145 142 146 148 148 151 148 154 151 152 149 151 149 153 149 150 154 149 156 158 157 164 167 174 175 172 173 176 174 178 180 180 185 180 178 177 183 181 185 188 182 182 189 187 183 186 184 186 189 185 186 187 189 187 189 186 187 191 0 190 190 188 185 187 189 186 186 188 187 188 187 184 182 179 176 177 175 173 172 165 160 159 160 159 159 162 163 157 164 162 161 161 159 158 163 164 161 159 164 163 163 166 163 157 156 158 157 155 165 165 156 167 162 165 169 175 167 160 175 174
133 141 138 136 144 155 146 145 145 147 145 146 141 146 141 146 143 149 148 150 157 157 160 159 163 166 169 165 166 170 171 171 178 176 170 172 177 171 175 177 175 179 178 175 176 178 173 177 173 176 179 178 180 178 178 178 182 0 0 179 177 176 181 182 179 177 175 177 178 174 174 176 174 178 169 168 169 163 162 158 161 155 155 155 156 157 157 153 155 152 151 156 155 153 156 152 150 154 152 152 153 153 151 159 150 150 148 152 159 150 154 151 146 149 151 152 161 158 158 156
136 133 132 137 142 142 149 139 143 136 139 142 141 144 143 140 141 146 147 147 147 154 156 153 158 159 163 161 166 163 163 163 167 166 164 163 165 170 165 168 172 0 169 166 170 170 171 171 172 172 173 171 171 171 175 0 174 172 0 173 174 0 173 174 172 171 173 167 173 172 165 165 171 171 165 164 162 159 157 152 150 155 151 149 153 150 152 149 150 155 147 153 150 147 147 145 153 150 154 149 149 144 144 147 145 142 145 142 147 141 148 142 148 158 144 147 149 154 160 164
128 123 127 124 136 133 141 138 132 122 134 133 132 125 136 134 135 134 137 142 136 146 148 149 149 158 157 152 158 162 158 157 158 158 157 155 164 164 0 0 0 0 0 0 0 0 0 165 165 163 167 162 167 165 0 0 168 169 0 0 0 0 0 0 169 166 164 0 164 162 163 162 161 160 155 156 154 156 149 151 149 144 143 148 140 148 143 142 144 142 141 145 145 148 140 139 142 147 142 140 141 138 139 138 137 134 142 131 138 146 143 144 141 151 138 141 140 144 137 141
116 129 124 114 126 131 134 132 135 130 126 131 124 126 131 126 120 136 134 135 143 139 144 144 148 147 149 153 154 153 154 153 156 157 154 153 152 0 0 0 0 0 0 0 0 0 0 0 0 160 163 161 0 0 0 0 0 0 0 0 0 0 0 0 0 0 0 0 0 0 0 155 162 156 151 151 150 151 147 143 140 137 143 141 141 142 142 137 146 137 137 139 138 139 139 136 145 139 136 136 137 136 137 134 129 127 136 133 134 142 133 150 134 138 132 131 138 117 127 146
114 104 117 120 125 123 131 128 126 128 132 123 121 119 116 130 130 132 131 134 135 133 134 143 141 141 141 145 145 147 149 147 151 153 151 149 0 0 0 0 0 0 0 0 0 0 0 0 153 151 156 0 0 0 0 0 0 0 0 0 0 0 0 0 0 0 0 0 0 0 0 0 150 148 150 147 146 141 143 141 138 130 125 136 126 126 136 137 136 137 137 138 131 126 121 130 140 138 134 132 124 138 132 132 126 128 127 121 136 137 134 136 138 136 139 131 136 124 111 138
101 107 122 110 109 112 118 118 118 119 115 111 115 112 128 123 124 121 116 115 122 122 127 121 137 139 139 142 144 143 141 141 142 145 148 141 0 0 0 0 0 0 0 0 0 0 0 0 0 0 0 0 0 0 0 0 0 0 0 0 0 0 0 0 0 0 0 0 0 0 0 0 145 143 140 140 138 139 127 130 124 121 122 125 135 121 124 126 124 126 125 125 115 127 127 125 125 133 121 120 119 129 132 116 131 131 118 128 132 134 126 129 116 130 124 126 119 108 123 126
107 110 114 113 115 112 117 124 119 118 117 118 114 115 117 121 117 128 122 114 119 117 121 111 131 135 136 130 0 133 0 0 0 137 134 0 0 0 0 0 0 0 0 0 0 0 0 0 0 0 0 0 0 0 0 0 0 0 0 0 0 0 0 0 0 0 0 0 0 0 0 0 0 141 136 126 125 122 116 126 119 116 124 125 114 119 118 121 121 116 117 123 118 115 115 121 117 118 119 121 120 124 119 121 118 112 118 124 112 123 119 112 126 118 133 117 109 133 130 134
106 102 108 113 103 101 107 106 104 105 111 107 104 107 102 110 111 112 117 109 114 113 111 114 118 120 126 119 121 127 0 0 0 0 127 0 0 0 0 0 0 0 0 0 0 0 0 0 0 0 0 0 0 0 0 0 0 0 0 0 0 0 0 0 0 0 0 0 0 0 0 0 130 0 0 124 121 118 120 115 116 114 110 118 112 114 110 115 112 113 113 117 109 110 110 107 112 114 114 112 117 110 114 115 111 116 104 123 123 103 107 110 107 124 130 119 123 138 120 151
95 103 91 97 102 103 102 99 102 104 100 101 104 104 105 103 103 106 115 105 110 108 109 108 117 109 113 119 119 121 0 124 0 0 0 0 0 0 0 0 0 0 0 0 0 0 0 0 0 0 0 0 0 0 0 0 0 0 0 0 0 0 0 0 0 0 0 0 0 0 0 0 0 121 0 117 122 117 116 106 112 111 106 102 110 109 108 116 107 112 115 110 108 111 106 113 109 101 100 118 111 105 108 105 110 117 107 110 109 106 101 101 115 101 111 119 122 98 107 132
99 103 99 104 99 99 103 91 95 98 102 98 103 97 96 96 103 102 111 117 111 103 96 111 114 107 113 113 114 120 118 120 123 0 0 0 0 0 0 0 0 0 0 0 0 0 0 0 0 0 0 0 0 0 0 0 0 0 0 0 0 0 0 0 0 0 0 0 0 0 0 0 122 121 0 118 111 119 115 117 107 110 102 119 108 104 103 102 101 100 104 108 110 95 99 99 105 102 113 106 106 110 105 105 106 112 104 101 110 99 102 106 108 95 101 93 141 103 94 122
88 85 81 86 82 82 83 94 91 83 92 94 95 93 91 88 80 94 89 88 92 86 98 105 99 103 114 106 0 112 107 103 118 0 0 0 0 0 113 0 0 0 0 0 0 0 0 0 0 0 0 0 0 0 0 0 0 0 0 0 0 0 0 0 0 0 0 0 0 0 0 115 111 110 103 111 104 108 101 99 101 103 93 90 101 95 89 97 105 101 90 98 102 85 81 97 94 101 86 94 90 96 90 88 78 87 96 86 93 86 91 88 87 100 90 104 88 88 97 111
91 84 90 93 96 94 99 107 92 92 96 94 91 92 93 95 97 92 102 95 95 104 110 101 102 104 109 106 0 102 108 108 115 111 119 107 0 0 0 0 0 117 0 0 0 0 0 0 0 0 0 0 0 0 0 0 0 0 0 0 115 0 0 114 112 0 0 0 108 0 106 109 112 111 112 107 106 112 104 97 110 103 104 85 94 100 102 99 101 102 106 105 108 98 100 104 99 92 99 108 103 92 91 101 91 99 92 83 85 81 91 92 89 93 97 96 85 107 112 146
84 93 90 92 94 94 92 89 86 97 86 91 85 95 87 86 95 96 97 93 100 91 96 111 90 98 107 100 105 103 93 102 106 102 101 102 0 113 116 0 105 0 0 0 0 0 0 0 0 0 0 0 0 0 0 0 0 107 0 0 105 103 104 111 113 111 105 100 113 106 109 103 102 101 109 107 97 91 103 96 94 95 101 85 98 90 93 103 104 92 99 104 109 94 84 83 90 90 94 86 90 83 88 94 93 92 103 89 97 87 90 93 90 87 97 88 115 137 115 133
83 87 84 89 88 91 101 93 90 79 87 89 85 93 88 91 91 91 91 89 78 92 96 85 89 93 90 90 103 87 96 96 96 97 94 109 99 100 104 101 102 96 98 107 110 92 0 0 98 100 0 108 105 96 101 109 108 100 108 106 100 106 110 103 101 112 103 96 101 107 97 103 105 99 106 96 91 94 99 90 97 91 90 97 89 95 89 88 95 93 101 86 91 90 91 89 84 90 91 84 87 90 92 89 92 81 97 86 77 96 83 99 90 109 92 105 121 94 98 137
84 80 87 85 84 84 99 101 85 83 85 81 81 88 84 90 90 92 91 99 83 99 92 94 91 96 93 88 98 101 94 84 98 95 98 94 96 101 93 108 103 94 100 105 101 96 108 0 105 99 97 105 96 99 99 101 100 108 98 104 100 95 92 100 103 102 96 101 93 106 97 103 99 94 103 89 93 96 96 97 97 96 96 89 94 94 87 87 99 89 89 97 87 90 93 93 92 91 96 90 81 94 86 89 87 99 100 88 92 88 82 90 103 97 108 110 102 101 140 80
82 74 69 68 79 83 85 89 87 81 88 82 89 78 90 84 87 83 85 86 85 86 92 87 87 87 89 93 85 86 87 92 79 92 93 85 94 86 90 94 95 91 83 91 95 90 87 102 94 88 94 86 97 86 89 80 103 90 98 96 98 97 81 96 96 81 88 91 95 96 91 90 97 93 86 94 91 81 92 96 85 93 85 90 84 92 91 88 88 87 92 76 87 82 88 86 82 81 75 89 84 88 84 76 86 83 85 85 86 82 72 83 80 92 117 117 127 73 118 68
73 73 79 85 72 84 81 87 84 81 82 90 80 82 82 86 86 88 84 85 84 92 82 92 89 94 91 85 94 87 82 98 91 99 86 90 84 93 90 95 95 96 96 87 86 93 91 95 100 89 92 85 97 86 102 98 96 98 87 96 97 83 88 91 92 97 87 87 104 94 95 97 84 83 95 96 92 82 93 95 93 88 91 89 78 87 91 82 93 91 73 91 77 80 86 82 89 85 79 84 86 82 82 80 75 85 83 89 83 88 87 90 85 105 107 88 86 86 80 196
