0 0 0 0 0 0 0 0 0 0 0 0 0 0 0 0 0 0 0 0 0 0 0 0 0 0 0 0 0 0 0 0 0 0 0 0 0 0 0 0 0 0 0 0 0 0 0 0 0 0 0 0 0 0 0 0 0 0 0 0 0 0 0 0 0 0 0 0 0 0 0 0 0 0 0 0 0 0 0 0 0 0 0 0 0 0 0 0 0 0 0 0 0 0 0 0 0 0 0 0 0 0 0 0 0 0 0 0 0 0 0 0 0 0 0 0 0 0 0 0
0 0 0 0 0 0 0 0 0 0 0 0 0 0 0 0 0 0 0 0 0 0 0 0 0 0 0 0 0 0 0 0 0 0 0 0 0 0 0 0 0 0 0 0 0 0 0 0 0 0 0 0 0 0 0 0 0 0 0 0 0 0 0 0 0 0 0 0 0 0 0 0 0 0 0 0 0 0 0 0 0 0 0 0 0 0 0 0 0 0 0 0 0 0 0 0 0 0 0 0 0 0 0 0 0 0 0 0 0 0 0 0 0 0 0 0 0 0 0 0
0 0 0 0 0 0 0 0 0 0 0 0 0 0 0 0 0 0 0 0 0 0 0 0 0 0 0 0 0 0 0 0 0 0 0 0 0 0 0 0 0 0 0 0 0 0 0 0 0 0 0 0 0 0 0 0 0 0 0 0 0 0 0 0 0 0 0 0 0 0 0 0 0 0 0 0 0 0 0 0 0 0 0 0 0 0 0 0 0 0 0 0 0 0 0 0 0 0 0 0 0 0 0 0 0 0 0 0 0 0 0 0 0 0 0 0 0 0 0 0
0 0 0 0 0 0 0 0 0 0 0 0 0 0 0 0 0 0 0 0 0 0 0 0 0 0 0 0 0 0 0 0 0 0 0 0 0 0 0 0 0 0 0 0 0 0 0 0 0 0 0 0 0 0 0 0 0 0 0 0 0 0 0 0 0 0 0 0 0 0 0 0 0 0 0 0 0 0 0 0 0 0 0 0 0 0 0 0 0 0 0 0 0 0 0 0 0 0 0 0 0 0 0 0 0 0 0 0 0 0 0 0 0 0 0 0 0 0 0 0
0 0 0 0 0 0 0 0 0 0 0 0 0 0 0 0 0 0 0 0 0 0 0 0 0 0 0 0 0 0 0 0 0 0 0 0 0 0 0 0 0 0 0 0 0 0 0 0 0 0 0 0 0 0 0 0 0 0 0 0 0 0 0 0 0 0 0 0 0 0 0 0 0 0 0 0 0 0 0 0 0 0 0 0 0 0 0 0 0 0 0 0 0 0 0 0 0 0 0 0 0 0 0 0 0 0 0 0 0 0 0 0 0 0 0 0 0 0 0 0
0 0 0 0 0 0 0 0 0 0 0 0 0 0 0 0 0 0 0 0 0 0 0 0 0 0 0 0 0 0 0 0 0 0 0 0 0 0 0 516 488 495 499 498 514 517 532 505 504 527 525 500 506 535 508 506 0 0 0 0 0 0 0 0 0 0 0 0 0 0 0 0 0 0 0 0 0 0 0 0 0 0 0 0 0 0 0 0 0 0 0 0 0 0 0 0 0 0 0 0 0 0 0 0 0 0 0 0 0 0 0 0 0 0 0 0 0 0 0 0
0 0 0 0 0 0 0 0 0 0 0 0 0 0 0 0 0 0 0 0 0 0 0 0 0 0 0 0 0 0 0 0 0 0 0 0 0 500 519 523 513 522 505 518 523 520 529 518 516 516 508 510 506 511 516 521 514 517 553 518 0 0 0 0 0 0 0 0 0 0 0 0 0 0 0 0 0 0 0 0 0 0 0 0 0 0 0 0 0 0 0 0 0 0 0 0 0 0 0 0 0 0 0 0 0 0 0 0 0 0 0 0 0 0 0 0 0 0 0 0
0 0 0 0 0 0 0 0 0 0 0 0 0 0 0 0 0 0 0 0 0 0 0 0 0 0 0 0 0 0 0 0 0 0 0 474 493 512 493 488 512 489 484 499 489 492 493 514 500 499 521 497 495 504 523 513 507 498 491 498 509 526 508 501 493 0 0 0 0 0 0 0 0 0 0 0 0 0 0 0 0 0 0 0 0 0 0 0 0 0 0 0 0 0 0 0 0 0 0 0 0 0 0 0 0 0 0 0 0 0 0 0 0 0 0 0 0 0 0 0
0 0 0 0 0 0 0 0 0 0 0 0 0 0 0 0 0 0 0 0 0 0 0 0 0 0 0 0 0 0 0 0 0 501 517 509 521 514 507 500 512 513 515 526 514 514 509 501 517 514 500 504 512 499 509 512 513 505 517 520 521 504 530 523 516 512 524 584 577 548 641 623 574 629 603 627 628 639 669 604 0 0 0 0 0 0 0 0 0 0 0 0 0 0 0 0 0 0 0 0 0 0 0 0 0 0 0 0 0 0 0 0 0 0 0 0 0 0 0 0
0 0 0 0 0 0 0 0 0 0 0 0 0 0 0 0 0 0 0 0 0 0 0 0 0 0 0 0 0 0 0 565 530 505 502 492 484 501 503 499 505 506 492 501 495 500 502 507 502 501 515 504 500 497 493 497 501 516 502 500 506 492 507 512 497 505 508 501 528 546 549 569 538 583 570 558 575 567 591 565 586 558 602 556 0 580 0 527 589 586 548 541 544 617 579 575 556 533 553 557 0 550 546 630 0 0 0 0 0 0 0 0 0 0 0 0 0 0 0 0
0 0 0 0 0 0 0 0 0 0 0 0 0 0 0 0 0 0 0 0 0 0 0 0 0 0 0 0 0 0 498 488 505 495 485 495 503 498 496 497 493 506 512 497 498 502 507 509 501 497 500 505 507 508 504 508 512 506 500 509 513 499 497 507 504 511 508 498 503 523 514 519 534 514 554 550 568 536 537 547 534 570 567 555 575 556 502 495 541 576 557 582 571 505 541 556 571 548 516 499 554 554 531 591 548 547 543 0 0 0 0 0 0 0 0 0 0 0 0 0
0 0 0 0 0 0 0 0 0 0 0 0 0 0 0 0 0 0 0 0 0 0 0 0 0 0 0 0 507 512 513 504 492 489 511 503 491 501 504 497 510 505 497 496 507 513 505 501 513 505 505 502 513 501 506 505 511 505 503 505 509 508 506 507 512 509 506 511 508 506 520 588 557 564 548 574 585 562 580 558 574 589 550 613 560 602 591 560 568 611 566 602 573 555 560 551 533 521 595 597 567 573 592 541 602 579 632 611 593 0 0 0 0 0 0 0 0 0 0 0
0 0 0 0 0 0 0 0 0 0 0 0 0 0 0 0 0 0 0 0 0 0 0 0 0 0 0 480 487 490 504 491 497 490 497 485 496 494 507 494 502 499 489 504 503 498 497 498 510 512 504 497 510 501 502 505 503 507 501 507 503 505 512 515 516 505 512 512 509 502 511 518 544 537 533 545 521 570 596 511 534 509 525 580 528 533 534 527 501 519 566 513 564 547 538 534 542 562 559 540 535 515 520 550 560 516 564 555 532 0 0 0 0 0 0 0 0 0 0 0
0 0 0 0 0 0 0 0 0 0 0 0 0 0 0 0 0 0 0 0 0 0 0 0 0 0 506 504 504 489 493 493 486 493 513 493 496 502 502 496 491 513 498 506 506 510 503 507 502 509 503 499 499 508 506 501 505 512 510 508 511 512 506 508 511 511 513 501 515 513 509 517 540 547 538 574 531 591 538 559 556 574 541 528 551 538 549 565 545 549 557 575 529 536 520 573 570 556 542 567 556 550 604 550 523 570 552 563 578 489 0 0 0 0 0 0 0 0 0 0
0 0 0 0 0 0 0 0 0 0 0 0 0 0 0 0 0 0 0 0 0 0 0 0 0 521 505 494 517 499 503 493 502 490 501 499 506 503 507 507 507 506 502 506 502 502 507 514 500 512 509 504 509 500 505 512 509 506 506 509 516 507 503 517 507 506 499 507 514 512 507 517 516 548 553 609 547 558 560 565 559 571 575 568 571 573 544 590 572 559 592 585 593 579 565 573 543 583 571 568 573 590 545 616 558 564 562 610 583 608 581 0 0 0 0 0 0 0 0 0
0 0 0 0 0 0 0 0 0 0 0 0 0 0 0 0 0 0 0 0 0 0 0 0 0 489 495 480 497 491 500 497 502 511 498 497 494 496 502 504 505 499 511 495 495 503 502 499 505 505 501 507 505 504 504 503 514 497 507 506 507 507 505 498 505 506 509 514 502 507 507 510 504 518 547 513 536 524 551 550 530 548 533 519 529 548 544 537 548 530 560 546 551 526 520 539 544 585 548 541 528 559 577 512 558 518 526 570 536 538 0 541 490 509 0 0 0 0 0 0
0 0 0 0 0 0 0 0 0 0 0 0 0 0 0 0 0 0 0 0 0 0 0 0 493 498 494 496 489 489 495 505 503 495 495 498 504 501 507 503 506 503 487 498 497 510 502 497 498 503 491 510 501 505 504 518 504 506 504 507 504 502 508 515 503 510 508 509 504 518 511 508 514 507 518 564 578 561 556 540 565 557 543 532 548 568 565 554 566 542 566 555 590 570 555 592 589 574 529 562 578 536 535 614 546 567 594 554 585 571 548 580 0 0 0 0 0 0 0 0
0 0 0 0 0 0 0 0 0 0 0 0 0 0 0 0 0 0 0 0 0 0 0 0 480 488 485 491 498 490 490 495 495 483 493 499 501 496 491 499 496 490 505 494 495 501 498 500 499 500 501 499 498 500 500 503 510 506 497 507 502 501 509 512 499 504 501 503 506 515 499 511 502 508 493 521 544 516 543 524 536 546 523 537 522 551 528 532 536 551 515 515 533 505 512 492 541 548 550 529 531 544 552 544 534 542 555 551 487 560 0 0 0 0 0 0 0 0 0 0
0 0 0 0 0 0 0 0 0 0 0 0 0 0 0 0 0 0 0 0 0 0 0 466 482 487 496 495 481 491 498 493 494 492 492 487 497 496 488 497 493 498 504 495 499 499 504 495 492 500 498 495 504 500 502 500 510 502 500 508 506 495 503 504 505 504 509 506 507 503 511 499 503 499 503 517 517 519 523 548 540 514 540 525 528 548 523 521 532 531 539 501 534 538 518 506 506 523 508 537 552 531 516 524 563 528 513 521 520 547 540 0 0 0 0 0 0 0 0 0
0 0 0 0 0 0 0 0 0 0 0 0 0 0 0 0 0 0 0 0 0 0 0 497 489 492 492 489 481 492 495 490 492 499 496 492 486 490 492 499 490 501 499 507 508 499 493 503 496 499 498 497 506 494 503 504 510 507 505 496 500 501 506 506 508 501 506 513 496 509 506 513 510 509 517 514 522 529 523 535 531 550 558 555 533 553 556 510 539 532 546 544 542 538 532 536 559 539 554 558 554 545 556 545 566 548 536 548 562 569 560 0 0 0 0 0 0 0 0 0
0 0 0 0 0 0 0 0 0 0 0 0 0 0 0 0 0 0 0 0 0 0 457 490 491 490 477 489 488 494 500 497 497 490 489 494 480 489 491 490 489 496 486 487 490 490 501 493 499 499 495 490 502 490 504 504 508 494 494 497 503 513 503 502 498 501 507 506 496 504 505 498 504 505 513 508 518 525 497 502 519 477 499 514 511 501 492 512 483 521 518 504 508 519 509 525 515 526 511 549 519 523 491 532 532 510 513 472 506 474 483 0 501 0 0 0 0 0 0 0
0 0 0 0 0 0 0 0 0 0 0 0 0 0 0 0 0 0 0 0 0 0 506 489 492 489 495 490 495 498 493 493 497 482 499 493 489 488 496 497 507 499 495 500 501 505 506 503 508 496 508 508 503 507 501 506 500 507 510 502 500 512 507 509 508 510 503 512 514 508 512 508 512 506 511 509 515 538 545 532 529 551 530 516 521 522 544 529 543 526 555 515 542 495 533 547 545 525 534 525 537 531 512 545 555 518 503 547 528 555 506 532 0 0 0 0 0 0 0 0
0 0 0 0 0 0 0 0 0 0 0 0 0 0 0 0 0 0 0 0 0 0 501 488 489 486 490 498 481 491 501 485 485 487 492 478 497 495 490 499 495 498 497 496 497 505 500 500 500 501 503 506 501 498 503 502 510 508 509 502 503 505 509 502 502 506 510 508 501 509 509 503 507 506 517 510 513 527 511 529 533 543 568 522 560 557 570 545 553 512 551 552 547 519 537 512 532 507 526 518 544 534 555 530 528 522 517 526 541 564 587 617 531 0 0 0 0 0 0 0
0 0 0 0 0 0 0 0 0 0 0 0 0 0 0 0 0 0 0 0 0 0 480 487 487 483 487 494 487 490 484 484 486 485 484 488 482 491 497 493 499 489 495 498 497 498 495 500 500 500 502 500 494 500 505 500 500 495 502 497 501 500 497 502 503 501 500 502 502 501 515 499 503 505 501 505 506 495 518 543 511 512 524 532 512 527 506 501 518 544 499 532 529 531 516 501 557 500 517 529 539 517 531 532 525 524 489 533 496 503 543 513 484 0 0 0 0 0 0 0
0 0 0 0 0 0 0 0 0 0 0 0 0 0 0 0 0 0 0 0 0 0 483 491 484 499 501 499 495 490 495 487 495 482 489 492 484 491 488 495 499 490 504 495 502 503 499 497 499 501 503 498 498 497 507 506 509 507 500 499 501 505 497 510 500 503 498 502 507 497 499 506 513 504 510 506 502 528 537 522 514 493 541 510 518 546 579 526 511 544 526 508 527 516 530 519 506 534 526 525 503 527 541 532 513 526 550 536 521 533 543 589 532 0 0 0 0 0 0 0
0 0 0 0 0 0 0 0 0 0 0 0 0 0 0 0 0 0 0 0 0 0 485 478 489 487 485 483 486 481 492 480 482 488 494 482 494 487 494 491 486 493 494 490 493 490 491 502 493 493 496 488 494 499 495 498 504 494 499 502 501 495 497 503 503 497 501 499 498 502 498 499 505 501 506 503 501 494 507 520 514 504 513 541 505 518 518 509 532 509 529 506 492 486 514 523 507 510 507 507 525 506 516 549 522 488 524 468 0 521 522 517 562 0 0 0 0 0 0 0
0 0 0 0 0 0 0 0 0 0 0 0 0 0 0 0 0 0 0 0 0 443 477 481 482 487 485 489 490 476 483 490 488 488 487 481 493 495 489 488 487 498 494 495 489 498 497 496 489 492 494 498 500 496 500 494 497 503 503 498 502 503 507 505 503 493 498 505 502 506 505 499 504 503 500 506 504 507 502 494 516 499 524 531 498 497 508 510 486 531 508 524 504 490 484 498 523 493 508 542 511 527 529 522 500 513 511 489 485 523 476 481 0 0 0 0 0 0 0 0
0 0 0 0 0 0 0 0 0 0 0 0 0 0 0 0 0 0 0 0 0 470 483 480 488 481 485 479 480 479 476 484 493 486 490 492 487 487 490 487 493 497 490 493 492 494 496 495 491 496 497 500 496 498 493 501 504 503 504 502 496 498 500 498 500 504 502 502 499 499 507 502 498 503 508 507 499 510 534 496 505 524 494 507 511 507 517 522 510 523 505 502 505 477 516 476 493 499 536 510 505 513 510 548 495 478 505 540 528 501 540 480 512 0 0 0 0 0 0 0
0 0 0 0 0 0 0 0 0 0 0 0 0 0 0 0 0 0 0 0 0 428 466 480 479 468 477 481 470 488 485 484 483 485 481 488 487 488 487 491 495 489 491 491 489 495 496 487 493 489 492 495 493 495 496 500 492 494 500 495 502 499 501 500 499 506 503 506 500 501 497 498 499 503 506 493 492 499 501 491 498 487 484 513 510 500 492 505 504 518 506 499 491 492 486 477 499 484 506 529 471 499 505 459 480 452 467 446 510 450 524 484 471 0 0 0 0 0 0 0
0 0 0 0 0 0 0 0 0 0 0 0 0 0 0 0 0 0 0 0 0 463 481 472 487 477 482 476 482 491 483 482 488 487 493 485 484 488 487 492 491 488 494 491 492 498 495 498 495 496 496 497 499 495 501 497 499 498 502 502 499 497 495 496 501 499 509 509 500 498 501 505 503 496 507 499 507 508 514 508 533 514 493 493 502 519 506 517 478 506 513 516 506 543 538 515 503 539 539 528 514 504 517 517 543 486 532 507 533 496 532 471 509 592 0 0 0 0 0 0
0 0 0 0 0 0 0 0 0 0 0 0 0 0 0 0 0 0 0 0 0 442 478 474 483 480 483 487 481 479 488 478 482 482 484 485 486 488 488 488 489 494 487 493 493 488 491 490 494 495 496 496 498 496 499 498 500 500 499 496 500 500 502 496 501 502 498 498 499 499 504 505 502 502 502 495 499 514 513 513 495 515 542 530 529 522 508 539 516 501 504 534 506 521 528 519 500 514 526 516 540 529 510 532 509 539 521 521 534 545 532 511 0 0 0 0 0 0 0 0
0 0 0 0 0 0 0 0 0 0 0 0 0 0 0 0 0 0 0 0 0 457 472 477 486 479 476 476 481 480 482 486 483 479 488 482 482 489 489 489 490 485 487 492 493 490 492 494 491 492 492 494 494 494 493 498 492 497 496 495 499 500 497 498 504 502 500 505 494 506 497 502 501 500 498 501 504 496 486 510 506 501 506 510 501 494 518 489 516 499 503 514 528 509 510 537 473 496 500 532 511 538 518 511 535 497 514 504 513 498 508 468 504 501 0 0 0 0 0 0
0 0 0 0 0 0 0 0 0 0 0 0 0 0 0 0 0 0 0 0 0 478 484 491 480 482 477 482 485 483 486 487 489 480 487 489 486 489 487 491 492 485 489 494 488 495 498 493 492 493 495 497 489 493 496 502 495 498 499 494 502 497 500 494 502 501 503 500 499 510 506 501 507 508 498 502 504 502 517 508 516 506 500 520 527 513 517 509 537 533 513 516 507 526 522 540 523 513 530 535 533 545 534 540 550 549 529 528 530 560 541 542 551 530 0 0 0 0 0 0
0 0 0 0 0 0 0 0 0 0 0 0 0 0 0 0 0 0 0 0 0 453 470 483 475 475 478 482 475 474 477 480 482 479 485 481 483 481 486 490 484 493 486 490 490 488 488 487 498 490 487 497 492 492 497 497 494 499 494 494 497 497 497 495 498 496 497 499 494 497 492 492 496 496 490 493 497 495 496 491 504 502 512 497 505 522 510 505 496 504 497 509 484 511 502 498 497 466 521 475 518 522 503 524 485 497 484 522 515 469 537 458 455 0 0 0 0 0 0 0
0 0 0 0 0 0 0 0 0 0 0 0 0 0 0 0 0 0 0 0 0 450 472 472 472 481 475 473 480 480 479 488 481 485 481 481 482 486 486 488 490 485 488 484 492 497 489 495 494 493 491 496 497 494 501 493 496 494 496 494 494 497 495 494 498 497 496 495 493 501 498 501 497 498 494 498 499 496 507 494 491 494 498 495 489 514 511 490 492 517 471 475 471 497 490 497 474 495 519 488 491 508 481 527 487 527 493 504 479 449 434 480 479 458 0 0 0 0 0 0
0 0 0 0 0 0 0 0 0 0 0 0 0 0 0 0 0 0 0 0 0 436 477 470 478 479 476 482 478 481 481 479 481 479 490 480 490 484 484 486 483 485 486 491 492 487 493 486 489 492 497 494 495 491 497 496 494 500 493 496 496 493 493 498 499 501 499 505 498 502 494 496 497 495 508 497 493 500 482 517 504 513 496 496 505 496 495 512 491 521 500 507 502 522 497 514 527 506 512 511 512 509 500 516 495 505 541 509 489 510 540 503 508 479 0 0 0 0 0 0
0 0 0 0 0 0 0 0 0 0 0 0 0 0 0 0 0 0 0 0 0 449 467 470 481 477 481 472 475 473 478 482 481 481 483 486 482 481 481 483 483 492 495 490 489 485 485 497 487 490 491 493 490 492 494 494 496 491 491 491 499 500 493 496 498 499 497 501 494 497 498 492 495 494 496 493 500 491 494 499 474 484 483 486 487 474 486 479 482 472 476 490 479 485 466 472 461 502 477 491 501 491 502 493 477 481 450 485 478 498 498 401 457 479 0 0 0 0 0 0
0 0 0 0 0 0 0 0 0 0 0 0 0 0 0 0 0 0 0 0 0 0 476 474 477 482 476 478 481 479 474 481 484 480 479 489 480 487 482 490 488 483 487 489 485 491 488 489 499 497 492 495 491 493 495 494 490 490 495 493 498 499 500 498 498 500 496 491 496 495 495 498 492 497 498 494 495 496 494 487 497 507 518 506 489 501 500 509 505 515 512 514 512 505 498 524 509 500 513 494 535 527 511 521 490 520 524 488 516 537 454 483 505 548 0 0 0 0 0 0
0 0 0 0 0 0 0 0 0 0 0 0 0 0 0 0 0 0 0 0 0 0 495 482 471 476 479 472 481 480 481 480 483 483 484 481 483 488 490 481 490 484 487 490 489 489 489 492 493 490 491 494 493 497 495 488 496 493 493 497 496 495 496 500 496 499 495 500 496 492 499 498 498 497 495 502 501 502 519 507 508 515 509 513 544 518 528 543 536 499 518 506 532 520 529 509 514 512 520 506 505 530 522 510 520 533 511 504 515 525 551 496 478 546 0 0 0 0 0 0
0 0 0 0 0 0 0 0 0 0 0 0 0 0 0 0 0 0 0 0 0 0 509 474 472 479 475 476 483 474 476 476 479 483 483 483 479 483 477 481 488 487 490 487 491 484 487 488 493 491 497 496 489 489 493 495 494 491 496 494 496 494 498 494 493 496 491 494 489 494 495 493 496 493 493 490 489 500 497 497 499 503 500 514 527 531 518 488 503 522 526 507 515 494 508 527 501 485 521 526 497 482 466 498 485 495 479 487 506 514 458 484 541 504 461 433 0 0 0 0
0 0 0 0 0 0 0 0 0 0 0 0 0 0 0 0 0 0 0 0 0 0 648 477 477 478 477 475 479 481 482 475 474 476 486 482 483 484 484 484 487 487 482 487 487 486 494 490 492 489 487 489 493 492 492 493 495 493 501 492 495 493 503 502 498 498 495 495 498 496 497 494 492 498 495 497 501 502 501 521 506 513 513 526 535 520 526 530 526 522 516 530 538 515 506 539 526 536 530 498 529 516 526 521 545 510 503 508 520 545 509 535 492 539 507 524 0 0 0 0
0 0 0 0 0 0 0 0 0 0 0 0 0 0 0 0 0 0 0 0 0 0 0 470 469 468 472 471 476 469 476 481 480 485 478 482 481 478 479 482 487 487 485 490 489 485 484 487 487 484 487 491 493 492 490 492 497 492 497 499 492 494 494 494 493 493 493 499 496 494 498 490 494 494 493 490 489 494 498 491 486 485 487 484 489 496 494 505 496 483 490 494 508 499 485 506 490 479 505 524 519 493 465 499 500 477 474 474 499 471 472 498 0 0 0 0 0 0 0 0
0 0 0 0 0 0 0 0 0 0 0 0 0 0 0 0 0 0 0 0 0 0 0 480 472 468 470 470 470 472 474 471 479 482 478 481 475 482 479 479 485 479 483 491 483 483 489 487 488 488 489 487 488 491 494 493 493 491 494 493 487 493 489 493 490 495 495 497 493 496 498 490 495 491 491 491 491 486 476 492 501 482 493 491 491 500 489 486 494 482 493 490 483 488 482 506 499 504 499 481 497 487 477 489 468 462 470 500 464 474 475 442 479 450 0 0 0 0 0 0
0 0 0 0 0 0 0 0 0 0 0 0 0 0 0 0 0 0 0 0 0 0 0 515 472 477 476 474 472 472 477 478 481 475 478 481 475 477 479 486 483 481 482 488 486 488 490 482 490 486 490 484 491 491 496 485 496 494 485 491 498 493 492 500 495 487 488 492 491 495 494 494 495 497 491 491 493 489 498 492 494 510 497 516 515 521 493 500 504 499 502 493 494 496 498 505 505 506 511 489 507 482 505 489 473 461 496 461 455 505 500 488 464 447 0 0 0 0 0 0
0 0 0 0 0 0 0 0 0 0 0 0 0 0 0 0 0 0 0 0 0 0 0 0 474 469 469 475 472 469 472 477 476 478 477 476 474 478 479 484 473 480 485 481 485 488 485 484 489 489 486 488 489 493 488 490 493 491 487 495 491 493 490 493 499 493 495 495 494 492 495 493 490 488 489 485 491 495 492 498 492 490 487 503 478 495 487 489 475 490 486 509 506 487 483 471 491 496 487 483 484 494 459 465 484 468 465 471 460 506 428 460 439 481 467 432 0 0 0 0
0 0 0 0 0 0 0 0 0 0 0 0 0 0 0 0 0 0 0 0 0 0 0 0 515 468 473 476 468 480 477 472 476 476 478 476 478 480 480 481 483 481 479 486 482 481 487 488 485 488 490 491 491 494 490 493 491 490 493 489 490 488 491 496 491 490 496 493 494 493 495 495 494 493 496 493 491 499 495 499 482 520 492 498 499 513 506 506 509 513 494 520 525 526 522 508 495 509 523 513 506 537 515 501 509 468 461 488 505 458 493 507 493 518 487 489 0 0 0 0
0 0 0 0 0 0 0 0 0 0 0 0 0 0 0 0 0 0 0 0 0 0 0 0 0 473 465 472 471 470 469 470 475 473 472 475 477 477 481 483 476 481 479 485 484 488 485 486 483 486 490 487 490 492 488 493 490 485 489 490 493 496 492 495 494 493 491 496 495 494 494 492 487 494 490 487 485 486 489 493 492 498 501 490 489 490 511 503 491 490 511 487 503 502 515 505 497 488 501 521 509 508 495 522 472 488 482 514 479 490 511 493 479 483 0 0 0 0 0 0
0 0 0 0 0 0 0 0 0 0 0 0 0 0 0 0 0 0 0 0 0 0 0 0 0 539 466 467 471 472 466 471 473 473 477 477 478 473 482 476 480 483 485 485 481 479 479 482 484 486 483 483 484 491 491 489 492 489 493 495 488 493 489 490 490 489 491 491 488 488 494 492 496 490 486 479 491 489 497 472 492 490 485 486 484 494 482 498 492 486 490 502 501 495 505 495 489 513 506 471 530 492 488 494 487 461 467 483 483 466 496 456 464 517 0 0 0 0 0 0
0 0 0 0 0 0 0 0 0 0 0 0 0 0 0 0 0 0 0 0 0 0 0 0 0 0 490 474 461 471 469 471 469 473 480 471 476 473 478 478 477 482 480 482 483 484 482 486 485 484 489 488 489 489 488 491 490 487 489 485 489 487 491 491 491 492 489 488 491 491 490 491 496 488 491 492 480 492 497 522 501 504 504 496 486 492 500 487 506 504 494 516 511 492 485 515 511 512 529 503 498 524 557 462 488 490 509 483 494 470 468 499 498 468 0 0 0 0 0 0
0 0 0 0 0 0 0 0 0 0 0 0 0 0 0 0 0 0 0 0 0 0 0 0 0 0 0 468 470 462 466 468 470 471 470 469 476 476 474 476 479 479 474 478 477 483 480 477 485 484 482 484 484 487 486 488 489 491 483 490 485 484 489 491 489 494 489 487 488 487 491 483 486 482 486 476 479 482 482 485 495 488 483 467 478 485 489 480 483 482 486 476 480 496 474 511 506 531 493 512 510 467 481 465 495 480 456 496 492 455 469 431 449 461 0 0 0 0 0 0
0 0 0 0 0 0 0 0 0 0 0 0 0 0 0 0 0 0 0 0 0 0 0 0 0 0 0 455 468 466 467 469 467 471 470 470 474 470 471 475 475 478 475 478 479 477 481 486 478 483 484 482 484 483 477 485 488 486 483 483 488 484 485 486 486 485 487 488 485 489 486 484 477 471 484 478 473 484 484 467 473 478 472 469 476 478 481 471 483 471 484 474 472 481 474 489 468 482 471 471 468 468 491 472 451 474 470 464 454 464 423 434 459 446 448 0 0 0 0 0
0 0 0 0 0 0 0 0 0 0 0 0 0 0 0 0 0 0 0 0 0 0 0 0 0 0 0 0 500 463 462 465 470 467 474 470 471 470 476 477 476 481 479 475 474 483 476 477 481 482 483 480 481 488 485 482 488 486 485 488 483 487 489 490 483 487 485 481 494 487 488 484 480 479 488 494 487 494 477 478 481 481 482 481 480 495 498 499 506 484 486 479 491 479 485 494 473 487 488 485 509 497 474 463 456 470 512 460 470 469 442 482 486 502 471 0 0 0 0 0
0 0 0 0 0 250 228 246 305 0 0 0 0 0 0 0 0 0 0 0 0 2399 0 0 0 0 0 0 0 491 457 463 467 468 465 467 471 468 467 467 468 468 475 474 474 474 476 475 481 476 477 476 479 478 481 480 483 483 484 484 482 481 484 484 483 487 480 479 478 482 474 475 477 465 477 480 471 465 481 461 474 474 482 478 464 469 464 459 464 458 458 471 480 451 472 448 464 465 449 460 469 479 451 456 422 448 437 437 459 423 433 440 422 413 452 0 0 0 0 0
0 0 0 0 254 226 235 238 241 287 358 0 0 0 0 0 0 0 0 0 0 2312 0 0 0 0 0 0 0 0 462 468 463 467 468 474 469 469 473 473 475 478 476 474 475 480 481 475 476 477 482 483 482 481 479 482 482 482 485 483 483 484 487 488 487 485 483 486 480 483 475 478 477 487 470 481 485 473 483 475 499 480 485 474 507 497 483 488 495 472 469 495 503 492 482 505 490 496 485 517 493 502 483 460 462 486 454 458 465 463 456 484 536 0 0 0 0 0 0 0
0 0 0 270 230 226 232 223 235 238 331 0 0 0 0 0 0 0 0 0 0 0 0 0 0 0 0 0 0 0 0 466 454 472 464 462 467 466 463 474 470 469 471 472 475 479 469 476 473 477 470 472 480 480 479 475 482 476 477 479 480 484 478 486 479 480 483 477 478 488 477 477 470 489 486 493 477 486 491 478 489 482 485 482 505 486 479 488 489 505 486 510 505 463 480 492 500 492 508 489 487 498 541 496 474 472 460 468 483 474 471 504 485 494 0 0 0 0 0 0
227 237 248 226 228 302 261 228 237 235 308 0 412 419 419 402 411 421 399 414 468 481 419 430 460 430 425 454 444 446 438 462 464 470 461 462 460 468 463 463 471 469 469 471 472 472 473 469 473 475 473 476 475 480 481 477 472 474 481 480 478 475 474 484 480 476 478 478 471 470 482 465 473 481 470 466 476 467 483 463 481 461 472 473 463 488 473 474 479 467 476 461 473 486 479 471 456 489 465 490 483 465 467 486 460 449 443 448 455 445 456 490 468 467 465 0 0 0 0 0
239 249 223 236 266 263 273 225 230 273 402 438 415 425 394 401 410 403 417 413 426 422 426 431 432 437 431 437 446 459 442 452 459 459 449 451 457 460 466 455 462 465 464 468 465 464 477 464 476 475 471 476 476 473 471 469 473 479 477 473 474 472 474 477 467 471 475 479 477 474 472 467 472 472 472 469 461 457 458 460 463 460 471 457 454 465 438 465 450 456 478 457 448 465 465 440 445 459 457 471 449 454 474 462 463 449 455 454 468 447 422 464 443 464 445 463 502 0 0 0
177 180 227 209 217 215 230 221 219 282 390 354 346 337 363 373 366 374 359 380 378 378 382 392 411 404 409 427 421 437 442 445 437 438 438 442 443 447 444 448 443 447 444 449 452 453 454 451 460 458 459 456 455 457 458 458 455 451 459 461 458 464 456 463 458 457 456 456 454 456 459 446 445 448 432 438 433 435 426 434 434 427 416 434 433 421 429 430 439 437 436 435 443 416 427 420 428 409 429 420 412 430 425 410 409 420 414 430 423 436 414 419 427 422 416 395 401 398 480 0
288 276 247 224 221 228 229 236 257 304 333 325 332 338 341 338 335 328 350 335 351 353 359 360 372 376 392 399 409 418 412 422 417 428 425 422 430 431 428 428 430 429 424 426 434 432 432 438 443 435 440 433 441 437 441 444 443 439 445 434 446 444 439 446 434 452 442 437 428 436 432 430 430 422 408 407 401 398 390 388 399 390 386 388 398 393 383 394 396 391 393 380 383 379 395 384 398 380 390 375 374 389 396 400 377 391 359 374 387 367 360 402 357 366 372 384 375 368 360 396
304 285 284 251 234 232 230 253 290 307 303 310 301 311 315 315 322 316 315 324 330 325 329 343 356 368 380 386 402 395 394 396 415 408 410 403 415 417 414 414 415 416 417 417 418 419 415 419 420 422 419 420 420 423 429 424 422 426 423 423 427 422 416 420 423 418 421 418 420 416 408 409 406 402 398 390 380 377 374 368 360 372 365 368 367 349 358 365 372 364 357 362 369 379 369 362 369 365 361 371 373 371 352 365 361 387 357 371 363 358 370 362 383 368 381 363 377 362 371 383
281 269 277 251 261 247 248 250 260 275 275 273 265 288 275 271 286 284 288 284 290 291 308 317 327 347 354 364 360 376 379 389 390 383 382 387 389 387 395 396 393 389 389 386 383 392 391 391 389 390 387 399 397 398 402 392 391 397 402 395 400 396 394 395 392 383 399 403 392 390 388 390 390 379 375 354 350 347 343 328 335 323 325 335 325 321 321 328 324 315 319 328 321 327 337 342 318 318 328 319 333 307 328 343 320 331 332 319 321 320 320 310 330 329 341 324 307 294 293 296
258 252 247 257 249 249 252 255 266 265 257 255 265 258 261 262 267 269 272 273 271 290 285 301 308 317 324 345 353 355 363 370 372 364 361 365 372 373 373 368 378 367 374 373 371 372 370 373 366 375 379 377 381 379 386 386 374 382 376 374 374 377 378 373 367 371 371 379 378 367 367 366 362 356 342 346 326 318 316 316 298 307 310 295 296 310 304 309 305 301 302 309 309 304 310 305 295 310 302 312 311 304 313 316 315 329 330 294 312 312 312 317 318 313 308 318 318 318 311 292
224 231 222 239 230 243 239 239 244 230 238 246 251 247 248 243 241 245 247 245 254 262 274 274 293 302 309 318 337 328 338 340 342 344 343 343 344 348 346 347 348 348 351 347 346 344 338 343 349 343 346 344 351 358 346 355 349 356 351 350 352 349 354 341 350 350 351 350 351 340 350 343 341 332 324 320 316 304 292 295 285 276 284 276 285 280 280 275 279 283 282 278 286 281 281 274 276 265 287 280 286 289 285 284 283 273 293 277 283 280 286 289 303 286 291 294 265 295 310 305
211 209 228 226 228 219 222 209 220 228 225 233 225 230 222 218 220 232 232 242 244 243 256 263 266 284 290 293 308 304 309 311 316 313 315 320 314 323 322 321 320 324 314 325 322 329 324 325 321 324 325 328 328 319 325 330 328 325 330 323 331 328 320 328 326 323 328 328 327 322 321 320 319 308 303 296 284 276 275 267 261 270 256 265 263 261 262 260 254 253 253 255 257 256 252 261 260 255 262 261 261 254 257 263 257 255 253 261 263 261 261 257 264 258 254 261 248 251 258 269
205 214 209 224 214 211 213 214 215 216 212 215 217 214 213 215 215 227 221 225 234 233 246 251 258 261 271 276 277 288 292 294 298 298 298 298 299 304 305 305 300 299 297 302 302 298 307 300 306 310 304 296 297 306 305 303 306 307 300 304 304 308 307 302 308 304 305 302 306 307 296 301 300 290 290 282 271 267 259 255 244 244 248 249 249 254 248 246 247 246 245 248 243 248 242 237 240 243 245 240 237 248 252 246 237 243 245 239 253 257 253 246 258 277 251 254 251 259 256 291
177 199 200 193 197 198 203 210 181 206 202 181 189 192 199 191 208 204 212 192 222 221 232 230 241 245 256 260 268 265 269 264 271 277 273 273 281 279 284 279 279 282 287 290 282 277 280 281 281 281 281 279 277 284 279 282 285 281 285 286 281 293 289 285 284 286 283 283 284 284 281 280 281 268 261 258 256 242 237 231 232 226 232 230 229 229 225 225 228 227 230 232 226 228 227 223 220 216 225 229 221 232 222 219 228 222 225 227 222 229 230 231 240 231 232 241 230 207 228 220
176 180 175 193 184 196 178 202 178 181 182 176 186 177 182 181 186 187 191 188 211 211 219 224 225 236 241 239 247 247 253 254 255 259 260 256 256 256 266 262 263 260 264 262 261 263 265 268 262 267 264 261 262 267 265 266 265 273 263 273 261 265 264 272 262 272 267 268 267 263 269 256 257 258 247 240 238 230 229 222 223 222 217 218 215 220 216 209 210 216 214 213 212 197 210 214 190 209 216 211 211 210 214 208 207 211 209 204 216 221 219 224 220 224 223 202 224 221 218 233
175 171 170 170 179 179 181 174 172 178 181 181 182 175 183 185 180 185 181 178 178 195 208 217 213 221 226 225 225 230 227 244 243 244 242 237 240 244 248 243 243 242 252 246 250 252 246 249 251 250 246 251 250 250 243 248 248 250 250 251 248 241 252 248 242 252 252 250 245 247 247 247 243 234 233 224 221 219 212 211 191 191 188 192 198 192 195 215 194 190 211 192 198 179 184 186 188 186 183 193 189 204 188 183 193 188 187 202 202 206 209 214 205 208 206 217 222 195 202 220
165 167 175 169 174 168 168 168 173 173 179 173 177 176 174 178 178 176 185 182 183 182 183 189 194 191 213 215 216 222 227 224 220 225 225 227 229 231 227 228 224 228 231 232 234 234 228 225 237 229 234 233 232 233 232 233 232 236 235 235 230 235 237 228 233 229 234 230 229 231 229 231 226 224 218 217 193 198 197 197 186 191 191 190 191 193 184 195 190 190 190 189 183 185 190 189 184 187 187 188 185 187 175 185 179 180 177 175 183 177 174 176 179 178 190 196 186 176 173 198
166 165 169 169 169 172 167 168 167 166 167 165 169 171 171 172 170 175 175 180 176 182 177 182 187 186 188 192 190 207 210 213 211 209 212 212 216 217 212 196 215 221 220 215 220 222 218 218 222 221 218 221 219 222 219 220 218 224 226 221 221 222 220 217 219 216 218 220 216 217 222 218 216 213 192 191 186 195 196 188 186 181 187 182 185 182 183 185 182 184 181 182 186 179 182 180 178 180 182 187 179 177 183 184 181 181 182 182 181 176 181 181 183 169 182 190 180 173 197 206
154 159 157 160 163 164 160 164 163 160 159 158 160 163 163 161 162 170 171 177 172 177 180 183 185 185 186 183 190 185 181 185 183 185 182 189 189 189 185 192 191 190 192 192 195 195 194 194 193 195 194 196 192 195 196 198 193 195 193 195 202 197 201 189 194 197 194 198 195 192 197 195 197 192 188 195 197 188 188 181 176 176 177 175 173 170 174 175 176 175 180 177 173 172 173 175 169 169 168 169 170 174 173 172 170 171 168 163 171 174 170 177 171 174 177 168 176 176 172 173
147 152 155 154 155 155 157 156 157 154 155 159 155 151 158 156 156 161 155 167 170 173 172 172 177 179 178 182 181 185 190 188 190 190 190 190 190 193 191 190 194 192 191 194 193 197 194 196 199 193 192 188 196 193 195 197 198 200 196 198 197 194 191 198 193 194 196 197 189 192 194 194 191 190 188 186 184 180 176 172 174 174 166 163 168 169 168 168 170 169 169 168 170 169 169 166 163 167 165 168 168 168 172 166 164 162 160 165 168 166 167 168 179 175 170 167 163 165 176 170
147 143 149 144 146 151 147 155 151 151 149 149 152 150 151 151 153 148 154 160 161 162 167 175 171 173 174 175 175 179 178 179 182 178 177 181 183 180 182 182 182 182 186 188 184 185 184 184 189 185 182 188 187 188 188 185 188 189 0 188 187 188 183 188 192 186 189 190 186 188 185 183 181 181 179 175 177 173 172 165 160 157 160 161 158 161 164 160 164 162 160 160 161 163 158 159 155 158 161 166 163 159 159 160 159 156 153 160 158 168 157 159 162 163 163 171 162 172 173 168
135 138 137 140 141 147 142 146 146 146 143 145 141 146 143 146 145 147 146 149 159 161 162 160 166 166 169 167 170 169 170 170 172 174 172 174 176 176 173 175 178 179 178 176 173 179 173 181 178 176 178 176 179 180 179 182 180 0 0 177 178 180 177 179 178 177 178 178 176 173 174 177 173 173 174 170 170 163 163 157 159 157 156 156 157 154 156 157 152 156 148 149 156 158 151 154 152 152 153 153 152 153 150 154 149 147 144 150 162 153 153 144 146 149 144 152 156 160 148 158
132 134 130 134 139 143 151 140 137 137 140 142 140 143 141 136 142 151 147 143 148 151 155 157 159 159 160 159 166 164 163 166 170 168 165 164 164 169 167 166 171 0 170 169 169 172 174 171 171 170 173 171 174 174 173 0 174 172 0 175 174 0 174 172 172 171 172 164 170 167 169 165 171 170 167 164 165 159 157 152 149 156 150 146 151 151 151 147 150 153 145 151 149 145 149 144 150 148 154 143 154 147 145 150 146 143 143 142 146 148 144 144 145 148 142 154 143 159 155 165
124 123 128 114 134 134 142 137 136 120 132 132 125 132 139 133 135 136 135 141 140 147 149 151 147 154 156 161 157 160 157 152 156 162 157 155 163 161 0 0 0 0 0 0 0 0 0 165 168 167 167 163 168 165 0 0 170 167 0 0 0 0 0 0 167 165 166 0 163 165 165 160 161 159 155 158 154 155 149 150 152 141 146 148 144 150 143 146 144 145 146 145 143 149 139 137 142 145 141 141 137 140 144 139 135 135 133 137 138 145 142 147 143 147 146 141 141 140 149 146
113 118 127 114 127 131 133 131 134 118 126 131 134 124 124 134 119 136 136 136 139 141 145 148 145 149 151 152 152 152 154 154 156 154 152 154 156 0 0 0 0 0 0 0 0 0 0 0 155 161 162 160 0 0 0 0 0 0 0 0 0 0 0 0 157 0 0 0 0 0 0 157 159 152 154 148 144 151 148 144 143 140 142 140 138 142 141 137 146 140 135 137 136 140 136 135 140 138 137 137 136 135 139 132 120 132 135 134 135 139 130 143 139 134 129 138 142 135 135 139
112 108 121 123 125 126 126 127 129 130 129 122 117 119 117 132 133 131 131 137 135 133 132 144 141 141 147 143 145 151 152 148 152 150 150 147 0 0 0 0 0 0 0 0 0 0 0 0 153 152 154 0 0 0 0 0 0 0 0 0 0 0 0 0 0 0 0 0 0 0 0 0 149 147 150 146 146 141 145 144 129 129 127 127 126 126 138 137 128 130 141 136 130 134 118 130 141 136 134 136 135 137 129 131 126 132 130 126 134 141 136 138 138 138 137 133 131 127 121 143
104 108 113 111 110 112 117 120 113 119 115 114 118 116 127 120 122 120 118 115 129 123 128 124 133 138 140 140 142 142 144 142 142 144 145 141 0 0 0 0 0 0 0 0 0 0 0 0 0 0 0 0 0 0 0 0 0 0 0 0 0 0 0 0 0 0 0 0 0 0 0 0 142 138 136 138 138 129 127 130 127 120 120 121 127 119 124 127 122 127 123 123 115 128 125 126 126 131 121 118 120 129 132 120 128 128 112 123 135 132 135 132 128 128 123 126 113 108 122 131
110 105 114 119 112 112 114 115 119 116 117 115 117 114 116 121 118 117 120 115 118 115 122 118 135 135 135 130 0 134 0 0 0 137 133 0 0 0 0 0 0 0 0 0 0 0 0 0 0 0 0 0 0 0 0 0 0 0 0 0 0 0 0 0 0 0 0 0 0 0 0 0 0 141 126 125 126 120 121 125 120 117 126 124 114 118 117 119 117 116 118 121 115 115 112 119 115 119 119 115 120 121 120 123 121 118 126 126 109 123 127 123 132 122 126 129 104 129 147 136
103 100 107 114 108 104 109 103 99 103 109 107 103 106 104 111 111 112 118 111 114 116 115 117 122 121 121 120 121 126 0 0 0 0 0 0 0 0 0 0 0 0 0 0 0 0 0 0 0 0 0 0 0 0 0 0 0 0 0 0 0 0 0 0 0 0 0 0 0 0 0 0 128 0 0 126 118 118 122 117 116 120 108 114 110 117 110 113 111 114 114 114 109 112 110 109 112 117 111 111 112 114 107 117 113 111 111 112 107 101 115 121 113 119 118 95 107 133 119 159
97 100 90 94 96 99 104 97 102 102 104 102 103 107 105 102 103 106 112 107 111 110 109 107 115 110 115 116 119 119 0 122 0 0 0 0 0 0 0 0 0 0 0 0 0 0 0 0 0 0 0 0 0 0 0 0 0 0 0 0 0 0 0 0 0 0 0 0 0 0 0 0 0 121 0 116 119 114 115 112 111 111 103 102 110 108 105 115 106 110 112 111 110 111 107 114 103 109 101 111 107 108 107 102 105 116 106 106 110 105 106 101 106 99 104 120 128 122 113 115
95 101 99 100 97 97 102 93 91 96 99 96 101 95 96 92 102 101 114 114 114 106 97 105 109 106 111 114 111 119 121 117 123 0 0 0 0 0 0 0 0 0 0 0 0 0 0 0 0 0 0 0 0 0 0 0 0 0 0 0 0 0 0 0 0 0 0 0 0 0 0 0 122 120 108 122 110 115 116 120 100 109 99 120 106 106 99 100 99 103 106 104 107 95 98 100 104 103 113 104 103 106 104 101 109 112 111 96 100 97 102 98 106 95 120 95 129 129 114 111
87 81 79 86 81 82 84 92 89 83 86 91 96 93 94 88 76 93 92 84 89 85 104 104 98 99 116 107 0 111 107 107 116 0 110 0 0 0 0 0 0 0 0 0 0 0 0 0 0 0 0 0 0 0 0 0 0 0 0 0 0 0 0 0 0 0 0 0 0 0 0 114 110 106 105 112 106 104 103 98 100 101 97 92 102 94 88 99 101 97 90 92 105 83 81 96 93 101 88 95 90 96 97 92 84 89 97 93 91 89 88 75 82 95 93 94 86 84 105 116
92 83 87 88 95 93 95 107 92 91 96 92 92 90 96 93 96 91 100 95 93 103 104 100 101 102 108 109 0 102 110 108 114 111 121 106 0 0 111 0 0 117 0 0 0 0 0 0 0 0 0 0 0 0 0 0 0 0 0 0 114 0 0 113 112 0 0 0 110 0 108 108 115 110 114 106 108 109 103 99 110 103 105 89 100 101 98 102 99 102 105 105 106 96 99 103 100 90 97 111 100 92 94 100 93 99 97 87 89 89 90 84 93 107 94 97 85 108 121 124
86 93 91 89 97 96 93 94 85 97 88 91 86 90 87 86 92 98 99 93 95 94 96 111 87 101 106 100 105 107 93 0 107 101 96 104 0 116 114 0 108 0 0 0 0 0 0 0 0 0 0 0 0 0 0 0 0 111 0 0 109 105 103 108 114 112 108 99 113 104 109 100 100 100 110 110 98 87 102 100 95 98 101 86 92 87 92 103 105 93 101 101 110 85 94 82 91 91 94 84 93 85 97 97 90 84 102 91 94 85 96 92 85 97 88 100 115 130 127 107
83 85 82 89 88 94 100 87 89 81 87 87 84 91 92 90 90 91 90 87 78 92 92 86 85 92 89 91 104 89 92 96 98 95 93 108 99 99 103 98 103 98 99 107 106 93 0 0 94 0 0 106 102 94 101 110 104 102 107 104 99 105 108 99 102 112 101 96 100 107 95 105 104 100 105 91 92 92 96 88 91 89 95 94 90 91 90 94 95 92 98 90 95 94 88 90 85 93 88 84 86 84 88 89 86 91 97 86 78 102 89 98 101 100 79 93 114 78 124 96
84 80 87 81 82 88 95 99 86 84 86 81 88 86 85 89 92 97 90 96 85 101 93 85 91 99 95 91 96 101 96 83 95 94 96 94 96 101 94 106 100 96 99 107 102 95 102 0 102 104 94 106 99 95 100 101 100 106 99 108 102 97 93 107 104 101 99 101 96 102 99 104 100 89 101 87 98 100 97 84 98 93 94 89 97 96 88 85 93 89 84 97 87 92 94 82 92 91 98 90 93 96 80 92 91 97 94 94 87 85 85 92 111 100 99 146 122 127 136 160
81 76 71 70 80 80 87 85 89 78 87 82 84 80 90 85 88 88 86 86 86 88 91 87 86 87 91 95 86 92 88 93 81 96 92 96 92 89 89 83 92 89 86 92 85 94 90 100 96 89 94 84 84 91 89 82 102 88 98 92 97 81 85 96 97 96 98 92 98 86 95 87 92 91 84 93 91 96 91 94 84 94 82 86 82 94 90 87 84 89 91 81 88 81 88 86 83 75 83 86 82 87 84 69 81 76 89 89 77 81 69 88 87 80 86 118 142 123 152 70
75 72 80 84 72 84 80 86 84 80 80 89 79 84 82 86 86 87 83 86 84 90 83 92 93 85 92 84 93 95 83 95 92 96 86 91 95 93 88 94 95 96 93 88 87 98 90 97 102 91 90 85 96 84 98 98 89 98 91 97 97 82 89 95 87 95 86 96 107 91 94 94 82 97 92 93 85 93 96 93 91 87 87 87 78 85 87 79 92 89 73 89 78 78 90 82 91 87 76 83 82 82 78 78 72 82 81 89 84 88 87 87 75 106 90 83 87 77 79 193
