0 0 0 0 0 0 0 0 0 0 0 0 0 0 0 0 0 0 0 0 0 0 0 0 0 0 0 0 0 0 0 0 0 0 0 0 0 0 0 0 0 0 0 0 0 0 0 0 0 0 0 0 0 0 0 0 0 0 0 0 0 0 0 0 0 0 0 0 0 0 0 0 0 0 0 0 0 0 0 0 0 0 0 0 0 0 0 0 0 0 0 0 0 0 0 0 0 0 0 0 0 0 0 0 0 0 0 0 0 0 0 0 0 0 0 0 0 0 0 0
0 0 0 0 0 0 0 0 0 0 0 0 0 0 0 0 0 0 0 0 0 0 0 0 0 0 0 0 0 0 0 0 0 0 0 0 0 0 0 0 0 0 0 0 0 0 0 0 0 0 0 0 0 0 0 0 0 0 0 0 0 0 0 0 0 0 0 0 0 0 0 0 0 0 0 0 0 0 0 0 0 0 0 0 0 0 0 0 0 0 0 0 0 0 0 0 0 0 0 0 0 0 0 0 0 0 0 0 0 0 0 0 0 0 0 0 0 0 0 0
0 0 0 0 0 0 0 0 0 0 0 0 0 0 0 0 0 0 0 0 0 0 0 0 0 0 0 0 0 0 0 0 0 0 0 0 0 0 0 0 0 0 0 0 0 0 0 0 0 0 0 0 0 0 0 0 0 0 0 0 0 0 0 0 0 0 0 0 0 0 0 0 0 0 0 0 0 0 0 0 0 0 0 0 0 0 0 0 0 0 0 0 0 0 0 0 0 0 0 0 0 0 0 0 0 0 0 0 0 0 0 0 0 0 0 0 0 0 0 0
0 0 0 0 0 0 0 0 0 0 0 0 0 0 0 0 0 0 0 0 0 0 0 0 0 0 0 0 0 0 0 0 0 0 0 0 0 0 0 0 0 0 0 0 0 0 0 0 0 0 0 0 0 0 0 0 0 0 0 0 0 0 0 0 0 0 0 0 0 0 0 0 0 0 0 0 0 0 0 0 0 0 0 0 0 0 0 0 0 0 0 0 0 0 0 0 0 0 0 0 0 0 0 0 0 0 0 0 0 0 0 0 0 0 0 0 0 0 0 0
0 0 0 0 0 0 0 0 0 0 0 0 0 0 0 0 0 0 0 0 0 0 0 0 0 0 0 0 0 0 0 0 0 0 0 0 0 0 0 0 0 0 0 0 0 0 0 0 0 0 0 0 0 0 0 0 0 0 0 0 0 0 0 0 0 0 0 0 0 0 0 0 0 0 0 0 0 0 0 0 0 0 0 0 0 0 0 0 0 0 0 0 0 0 0 0 0 0 0 0 0 0 0 0 0 0 0 0 0 0 0 0 0 0 0 0 0 0 0 0
0 0 0 0 0 0 0 0 0 0 0 0 0 0 0 0 0 0 0 0 0 0 0 0 0 0 0 0 0 0 0 0 0 0 0 0 0 0 0 524 535 516 519 530 542 534 498 526 508 516 527 534 527 504 508 559 0 0 0 0 0 0 0 0 0 0 0 0 0 0 0 0 0 0 0 0 0 0 0 0 0 0 0 0 0 0 0 0 0 0 0 0 0 0 0 0 0 0 0 0 0 0 0 0 0 0 0 0 0 0 0 0 0 0 0 0 0 0 0 0
0 0 0 0 0 0 0 0 0 0 0 0 0 0 0 0 0 0 0 0 0 0 0 0 0 0 0 0 0 0 0 0 0 0 0 0 0 496 497 510 509 500 514 489 504 512 517 502 511 522 512 506 501 524 516 497 483 502 535 533 0 0 0 0 0 0 0 0 0 0 0 0 0 0 0 0 0 0 0 0 0 0 0 0 0 0 0 0 0 0 0 0 0 0 0 0 0 0 0 0 0 0 0 0 0 0 0 0 0 0 0 0 0 0 0 0 0 0 0 0
0 0 0 0 0 0 0 0 0 0 0 0 0 0 0 0 0 0 0 0 0 0 0 0 0 0 0 0 0 0 0 0 0 0 0 499 496 498 500 492 508 503 484 502 496 499 504 506 508 492 505 515 524 499 506 509 497 507 509 503 513 511 515 493 461 0 0 0 0 0 0 0 0 0 0 0 0 0 0 0 0 0 0 0 0 0 0 0 0 0 0 0 0 0 0 0 0 0 0 0 0 0 0 0 0 0 0 0 0 0 0 0 0 0 0 0 0 0 0 0
0 0 0 0 0 0 0 0 0 0 0 0 0 0 0 0 0 0 0 0 0 0 0 0 0 0 0 0 0 0 0 0 0 521 512 508 519 504 507 515 514 509 505 521 508 512 512 508 503 515 508 500 516 505 502 509 505 502 509 507 509 513 514 518 521 511 515 553 580 632 600 601 624 614 622 618 633 629 612 614 0 0 0 0 0 0 0 0 0 0 0 0 0 0 0 0 0 0 0 0 0 0 0 0 0 0 0 0 0 0 0 0 0 0 0 0 0 0 0 0
0 0 0 0 0 0 0 0 0 0 0 0 0 0 0 0 0 0 0 0 0 0 0 0 0 0 0 0 0 0 0 499 500 506 490 506 483 495 495 489 499 492 506 503 501 496 500 505 513 506 503 499 506 504 498 494 501 494 497 505 501 507 513 509 506 517 506 532 516 557 545 512 513 556 551 584 579 550 566 527 545 586 581 494 527 585 0 594 576 546 584 602 582 584 535 569 549 560 545 618 527 558 575 582 0 0 0 0 0 0 0 0 0 0 0 0 0 0 0 0
0 0 0 0 0 0 0 0 0 0 0 0 0 0 0 0 0 0 0 0 0 0 0 0 0 0 0 0 0 0 520 495 513 496 497 497 498 508 501 509 490 500 503 514 497 511 501 497 502 507 496 508 505 511 513 512 506 507 497 499 507 499 504 513 508 506 503 503 523 518 546 557 518 583 573 598 582 539 538 517 548 561 541 595 568 613 555 516 554 539 495 567 587 522 566 537 568 537 575 572 543 558 544 582 578 592 556 0 548 0 0 0 0 0 0 0 0 0 0 0
0 0 0 0 0 0 0 0 0 0 0 0 0 0 0 0 0 0 0 0 0 0 0 0 0 0 0 0 488 507 505 499 503 508 508 512 506 502 509 501 512 501 505 500 515 505 506 507 498 510 509 501 510 503 508 506 507 510 501 507 503 510 508 516 510 501 501 506 504 515 516 570 593 558 583 624 563 581 574 565 605 592 597 598 595 574 577 563 583 588 588 569 599 582 606 596 624 608 599 619 566 608 574 569 597 570 631 556 592 0 0 0 0 0 0 0 0 0 0 0
0 0 0 0 0 0 0 0 0 0 0 0 0 0 0 0 0 0 0 0 0 0 0 0 0 0 0 462 516 495 501 478 503 501 494 485 494 506 499 504 509 502 490 508 503 506 502 505 495 505 497 497 507 499 505 502 501 503 509 507 505 512 507 504 502 504 502 510 511 507 509 509 514 549 567 536 559 552 539 548 512 537 558 535 550 535 512 561 514 543 548 508 514 577 523 520 535 582 522 502 519 489 574 507 528 584 555 571 0 0 0 0 0 0 0 0 0 0 0 0
0 0 0 0 0 0 0 0 0 0 0 0 0 0 0 0 0 0 0 0 0 0 0 0 0 0 522 501 506 498 501 495 497 505 501 493 491 498 502 492 493 506 502 502 505 501 511 500 498 501 513 512 511 509 496 506 509 514 515 510 505 516 507 503 515 509 509 509 510 504 511 511 543 579 531 562 564 562 586 572 559 615 566 561 588 526 583 592 587 576 571 582 575 560 584 574 575 591 575 576 574 533 592 562 574 604 572 565 607 598 0 0 0 0 0 0 0 0 0 0
0 0 0 0 0 0 0 0 0 0 0 0 0 0 0 0 0 0 0 0 0 0 0 0 0 534 512 506 500 492 500 495 498 490 493 499 507 489 508 495 501 506 505 510 505 510 496 512 505 514 505 502 501 510 503 505 500 512 507 509 509 516 511 510 514 504 510 501 511 513 506 505 495 533 523 577 521 550 557 566 544 543 568 562 545 558 549 551 552 529 585 546 570 563 574 545 531 536 573 532 543 604 518 531 567 593 572 568 566 0 554 0 0 0 0 0 0 0 0 0
0 0 0 0 0 0 0 0 0 0 0 0 0 0 0 0 0 0 0 0 0 0 0 0 0 482 487 487 495 494 483 492 502 489 481 490 504 494 497 503 495 503 500 494 503 502 500 494 493 491 505 497 506 502 500 498 502 499 513 511 506 498 509 511 500 512 512 508 505 498 510 513 506 513 513 534 517 504 529 531 502 524 557 521 518 535 545 517 518 551 510 525 535 507 525 524 501 539 527 540 534 563 496 521 504 547 566 540 488 512 446 0 542 553 0 0 0 0 0 0
0 0 0 0 0 0 0 0 0 0 0 0 0 0 0 0 0 0 0 0 0 0 0 0 480 485 494 495 501 495 498 504 505 487 504 498 502 498 496 504 499 505 492 501 504 499 510 502 497 500 503 504 508 510 505 516 506 505 504 503 504 508 509 511 504 513 507 505 503 507 501 504 517 512 532 545 567 582 562 543 559 567 526 544 568 550 536 548 560 553 562 557 575 561 588 555 547 548 542 538 517 591 592 530 520 570 552 566 587 536 534 0 0 0 0 0 0 0 0 0
0 0 0 0 0 0 0 0 0 0 0 0 0 0 0 0 0 0 0 0 0 0 0 0 475 488 489 486 502 491 485 487 492 486 484 495 499 493 489 505 495 491 502 493 489 500 505 500 506 495 510 495 508 504 497 502 500 505 497 503 503 498 500 505 507 502 498 501 508 501 507 511 507 511 493 511 529 495 502 533 502 517 506 523 521 502 529 522 472 542 526 509 516 516 544 561 481 529 546 529 529 529 489 521 530 502 529 458 482 489 0 0 0 0 0 0 0 0 0 0
0 0 0 0 0 0 0 0 0 0 0 0 0 0 0 0 0 0 0 0 0 0 0 468 496 492 493 492 484 492 485 488 490 497 491 499 497 494 499 501 491 487 497 497 507 505 504 497 501 499 503 497 499 499 501 500 499 502 502 507 501 496 499 501 507 498 505 508 503 507 507 500 504 502 498 506 508 534 506 556 502 487 532 510 530 546 544 539 530 504 535 526 522 519 531 528 518 519 498 512 534 547 499 557 535 527 502 535 517 483 520 0 0 0 0 0 0 0 0 0
0 0 0 0 0 0 0 0 0 0 0 0 0 0 0 0 0 0 0 0 0 0 0 500 484 502 496 491 487 493 492 496 490 495 487 496 493 491 483 491 492 501 496 503 506 506 507 504 493 508 495 501 501 499 499 503 502 510 507 500 503 502 502 502 503 504 502 507 508 509 507 506 511 508 502 512 544 518 521 514 530 547 538 529 523 535 547 544 538 524 528 548 538 559 516 560 527 517 509 549 524 531 562 544 520 548 517 538 543 542 537 0 0 0 0 0 0 0 0 0
0 0 0 0 0 0 0 0 0 0 0 0 0 0 0 0 0 0 0 0 0 0 408 491 487 486 492 485 492 493 492 495 497 493 487 489 489 488 496 484 494 499 500 497 489 489 504 492 501 496 493 495 501 504 500 501 506 498 498 500 500 508 497 495 494 510 500 501 501 502 506 508 507 501 498 501 507 512 526 498 497 488 533 523 478 487 517 489 499 519 508 526 522 506 479 534 502 510 497 529 488 532 486 531 490 536 534 519 514 488 522 504 489 0 0 0 0 0 0 0
0 0 0 0 0 0 0 0 0 0 0 0 0 0 0 0 0 0 0 0 0 0 487 490 493 495 495 486 496 496 494 487 496 493 496 495 488 494 495 496 503 495 501 500 513 505 497 504 504 495 503 497 501 504 494 499 500 507 501 505 511 507 501 517 509 510 507 519 509 501 509 513 516 507 516 514 517 528 530 532 555 542 542 533 533 548 522 548 550 545 524 541 545 527 539 542 558 566 558 505 565 539 546 544 561 558 546 548 556 507 608 576 0 0 0 0 0 0 0 0
0 0 0 0 0 0 0 0 0 0 0 0 0 0 0 0 0 0 0 0 0 0 502 488 491 484 493 484 494 490 489 486 498 482 492 487 482 497 495 496 494 495 502 496 487 501 504 500 499 497 490 493 495 492 495 499 502 505 507 501 502 505 502 501 497 501 505 502 502 509 509 505 507 503 512 506 503 535 522 506 515 537 504 505 488 534 543 514 536 555 523 522 480 516 526 526 488 517 525 524 543 538 534 536 519 550 500 544 499 587 536 540 551 523 0 0 0 0 0 0
0 0 0 0 0 0 0 0 0 0 0 0 0 0 0 0 0 0 0 0 0 0 479 481 491 496 485 491 488 487 486 485 490 489 485 490 494 492 492 485 487 504 498 498 493 494 493 499 498 497 495 504 493 493 495 500 495 498 499 502 500 503 499 497 496 499 501 506 507 501 509 503 501 510 498 505 499 521 506 506 501 529 530 506 489 507 494 543 506 488 518 499 488 500 515 515 490 498 488 506 512 537 508 512 493 519 543 474 499 511 496 481 479 469 0 0 0 0 0 0
0 0 0 0 0 0 0 0 0 0 0 0 0 0 0 0 0 0 0 0 0 0 499 496 489 486 493 493 493 494 486 490 495 485 488 486 494 492 491 497 493 491 500 499 499 497 495 498 503 502 502 497 494 501 497 498 507 498 502 496 509 506 505 506 505 506 497 500 501 506 503 509 504 504 511 504 509 526 526 547 511 522 543 550 545 545 549 519 527 528 530 511 558 523 505 512 559 543 522 546 539 544 518 525 568 555 550 510 553 553 592 565 553 0 0 0 0 0 0 0
0 0 0 0 0 0 0 0 0 0 0 0 0 0 0 0 0 0 0 0 0 0 495 474 489 488 480 482 483 483 487 486 483 488 494 484 490 493 495 487 488 489 497 495 490 495 488 495 499 498 494 494 501 500 496 494 499 497 503 500 500 501 500 504 506 498 500 504 495 496 495 501 503 506 500 495 497 508 510 514 511 472 515 479 533 523 489 501 484 497 490 491 509 512 516 514 505 505 499 505 512 512 487 517 516 480 490 460 463 480 480 504 495 554 0 0 0 0 0 0
0 0 0 0 0 0 0 0 0 0 0 0 0 0 0 0 0 0 0 0 0 425 480 494 498 476 497 491 495 486 480 494 483 494 493 479 495 492 496 494 490 499 492 495 499 494 500 500 495 492 496 505 495 497 498 496 497 498 500 496 504 504 500 502 501 499 502 504 501 502 503 502 499 512 506 501 499 500 534 509 485 511 519 508 511 511 502 508 528 514 529 516 538 511 518 524 522 507 494 505 514 524 527 510 500 505 520 522 477 530 509 522 0 0 0 0 0 0 0 0
0 0 0 0 0 0 0 0 0 0 0 0 0 0 0 0 0 0 0 0 0 461 483 484 484 480 483 483 485 481 480 484 481 489 488 491 487 484 487 488 496 494 488 491 494 497 494 495 501 502 498 497 501 498 506 505 499 500 502 504 497 497 507 494 502 506 503 504 503 498 498 499 501 502 502 510 499 510 525 531 530 506 515 523 524 516 540 514 517 513 524 517 518 529 520 527 525 503 523 529 511 527 520 480 568 527 549 551 564 515 502 485 531 0 0 0 0 0 0 0
0 0 0 0 0 0 0 0 0 0 0 0 0 0 0 0 0 0 0 0 0 431 470 480 481 474 477 475 479 482 483 483 473 487 487 484 493 492 483 490 489 490 488 495 488 492 498 493 496 492 491 491 496 495 496 504 496 500 501 499 509 499 498 501 495 498 500 500 498 500 497 500 502 510 508 504 498 494 500 503 508 491 489 495 509 516 500 528 479 508 491 493 487 474 484 509 481 504 498 488 487 491 486 499 459 466 492 467 489 454 518 422 477 0 0 0 0 0 0 0
0 0 0 0 0 0 0 0 0 0 0 0 0 0 0 0 0 0 0 0 0 469 475 481 491 476 485 481 491 489 478 488 484 486 488 488 490 492 483 493 489 489 493 494 493 491 495 497 496 496 497 498 498 503 502 497 498 501 508 499 494 504 505 510 504 504 505 506 498 504 505 507 500 500 502 509 505 510 510 511 511 512 499 489 523 503 495 515 521 515 534 497 499 546 514 552 523 534 521 553 535 510 518 529 530 522 485 499 539 487 507 527 540 0 0 0 0 0 0 0
0 0 0 0 0 0 0 0 0 0 0 0 0 0 0 0 0 0 0 0 0 492 489 480 482 482 478 482 481 481 480 483 488 484 482 485 484 484 489 492 490 492 490 497 497 493 495 494 490 493 494 499 499 501 497 493 498 499 497 499 497 496 491 502 501 508 503 504 501 501 503 507 495 508 494 500 501 511 520 510 505 535 519 534 521 506 508 476 500 527 514 511 508 505 517 537 525 529 511 511 537 511 523 522 531 515 544 517 494 497 532 556 0 0 0 0 0 0 0 0
0 0 0 0 0 0 0 0 0 0 0 0 0 0 0 0 0 0 0 0 0 445 472 476 481 485 478 479 478 480 481 484 483 477 486 485 482 484 491 484 489 487 488 490 488 492 492 497 498 490 495 494 492 497 498 493 494 492 499 500 492 496 498 505 499 499 502 500 499 505 502 499 502 504 500 505 505 495 491 502 493 493 496 496 497 510 497 473 505 478 488 514 514 508 495 493 486 502 522 505 500 521 484 491 478 463 495 515 477 503 488 447 446 451 0 0 0 0 0 0
0 0 0 0 0 0 0 0 0 0 0 0 0 0 0 0 0 0 0 0 0 444 475 475 480 480 483 478 481 478 485 483 482 480 480 484 486 489 488 493 490 484 492 490 492 490 492 490 493 494 497 495 494 497 495 500 498 495 496 497 496 499 499 498 502 500 498 499 504 502 505 501 499 502 505 509 503 500 513 493 516 504 517 503 526 517 532 505 515 518 516 535 509 502 529 530 529 500 519 536 527 522 536 551 551 539 520 524 533 529 536 537 528 518 0 0 0 0 0 0
0 0 0 0 0 0 0 0 0 0 0 0 0 0 0 0 0 0 0 0 0 453 476 471 479 475 473 471 475 476 476 481 480 481 481 481 484 482 481 489 489 482 488 490 489 489 492 491 491 493 488 496 494 491 497 498 493 499 494 495 497 497 498 499 501 500 494 498 497 496 498 499 492 498 498 495 496 496 496 510 495 501 500 505 482 502 507 485 495 499 526 509 495 480 497 501 497 499 488 495 480 489 516 497 503 490 502 492 487 502 488 498 506 0 0 0 0 0 0 0
0 0 0 0 0 0 0 0 0 0 0 0 0 0 0 0 0 0 0 0 0 450 473 470 471 477 470 473 479 480 482 481 480 486 486 484 483 482 484 487 488 487 487 486 490 493 489 493 494 486 493 494 492 491 491 490 492 499 496 493 498 501 497 498 497 497 497 492 496 493 500 499 495 503 499 498 497 501 490 488 506 492 501 519 500 504 487 487 494 508 494 488 496 466 500 524 501 498 492 510 509 515 489 492 479 490 529 509 525 531 490 493 510 468 0 0 0 0 0 0
0 0 0 0 0 0 0 0 0 0 0 0 0 0 0 0 0 0 0 0 0 468 472 475 473 484 479 478 484 484 478 485 485 480 483 480 486 484 482 487 491 484 491 493 492 491 492 489 491 495 494 492 494 498 500 495 491 499 496 501 491 499 500 501 497 500 500 501 502 500 496 497 496 498 493 496 499 500 527 510 500 516 503 522 516 507 494 516 535 536 505 524 492 547 518 525 527 553 528 533 530 497 520 546 546 532 522 533 584 499 520 527 525 586 0 0 0 0 0 0
0 0 0 0 0 0 0 0 0 0 0 0 0 0 0 0 0 0 0 0 0 449 468 470 478 473 484 473 479 476 478 484 482 485 486 487 482 483 484 484 484 489 490 487 491 490 490 489 487 491 487 493 490 495 493 495 493 493 492 493 493 498 497 499 500 497 499 497 495 495 496 492 500 494 499 495 495 493 500 499 491 496 488 489 492 493 480 494 480 472 495 471 491 499 489 482 468 478 505 521 493 509 470 457 489 468 472 464 453 432 501 432 453 480 0 0 0 0 0 0
0 0 0 0 0 0 0 0 0 0 0 0 0 0 0 0 0 0 0 0 0 0 473 478 477 480 478 476 481 479 477 486 489 480 483 483 486 485 482 488 486 486 489 492 492 489 489 492 495 495 495 496 493 491 497 496 491 494 492 490 496 500 499 494 499 501 495 497 500 499 495 501 498 499 501 496 498 504 495 493 500 500 499 489 497 530 512 513 514 512 505 493 542 532 521 509 516 515 532 541 512 553 521 536 542 517 544 493 525 519 515 571 570 544 0 0 0 0 0 0
0 0 0 0 0 0 0 0 0 0 0 0 0 0 0 0 0 0 0 0 0 0 499 469 474 475 479 477 475 478 477 473 478 481 479 483 483 485 486 481 483 482 485 490 487 489 485 487 488 494 492 498 493 494 491 494 495 495 493 491 493 493 487 496 496 494 499 494 494 498 498 491 498 496 493 492 492 515 495 500 527 489 507 516 530 532 503 494 506 496 523 529 518 514 504 510 523 519 490 511 509 487 494 498 485 472 508 467 511 521 545 525 477 446 0 0 0 0 0 0
0 0 0 0 0 0 0 0 0 0 0 0 0 0 0 0 0 0 0 0 0 0 498 472 469 475 478 471 475 477 475 476 482 478 478 482 483 485 478 485 483 481 481 484 489 490 491 486 488 488 490 492 488 495 491 492 493 495 490 500 497 492 496 496 494 496 495 495 495 495 493 493 489 494 490 491 493 488 494 482 492 495 514 496 502 517 516 475 507 484 504 503 480 511 491 494 507 497 507 479 515 494 494 505 498 457 459 463 471 473 455 457 464 456 414 491 0 0 0 0
0 0 0 0 0 0 0 0 0 0 0 0 0 0 0 0 0 0 0 0 0 0 601 471 474 477 473 479 475 476 479 478 481 480 482 487 487 483 483 488 482 488 487 494 487 488 488 493 493 489 492 494 491 493 493 496 494 493 500 493 501 495 495 497 494 497 497 499 496 490 492 492 493 498 493 498 496 509 494 528 511 509 504 524 535 509 499 508 525 500 521 548 525 541 517 540 539 541 532 564 498 517 531 522 540 513 516 510 487 486 534 517 516 516 550 489 0 0 0 0
0 0 0 0 0 0 0 0 0 0 0 0 0 0 0 0 0 0 0 0 0 0 710 470 471 472 468 472 476 473 472 477 474 478 473 477 477 486 480 484 486 482 485 488 488 481 484 487 490 488 490 490 493 489 491 489 493 489 492 492 490 494 494 490 493 492 495 497 494 492 499 492 494 491 490 491 496 491 498 495 489 492 477 499 506 504 498 481 487 484 479 495 479 475 508 488 480 488 468 513 478 493 495 469 470 496 454 473 476 489 466 435 444 0 0 0 0 0 0 0
0 0 0 0 0 0 0 0 0 0 0 0 0 0 0 0 0 0 0 0 0 0 0 489 474 466 472 472 477 470 475 471 473 481 477 478 480 477 480 481 485 486 489 481 486 483 487 489 493 486 492 486 484 489 493 494 489 489 494 491 490 491 492 496 491 497 495 495 496 492 492 491 489 494 487 491 491 490 489 489 496 491 487 473 489 498 483 492 496 494 498 507 503 511 501 472 475 519 512 500 481 481 497 488 464 470 483 483 477 477 475 463 472 0 0 0 0 0 0 0
0 0 0 0 0 0 0 0 0 0 0 0 0 0 0 0 0 0 0 0 0 0 0 525 470 471 476 476 469 472 479 479 478 476 474 483 476 478 480 486 485 487 489 488 486 487 490 486 485 485 492 493 488 491 492 491 493 498 489 492 494 495 494 498 494 495 495 497 492 493 496 494 492 501 496 487 490 481 514 507 499 505 514 480 536 506 523 501 513 508 516 525 517 504 511 519 498 480 493 515 506 486 496 488 498 500 518 480 493 492 467 488 502 476 0 0 0 0 0 0
0 0 0 0 0 0 0 0 0 0 0 0 0 0 0 0 0 0 0 0 0 0 0 0 467 466 466 471 470 471 476 473 476 479 479 480 472 479 475 480 478 484 483 488 488 487 483 485 492 488 488 486 489 491 490 490 491 490 488 493 490 494 494 493 494 495 494 491 494 491 496 492 491 491 488 487 489 491 507 505 484 494 487 491 489 491 502 489 479 483 501 496 487 507 504 501 494 491 499 473 467 497 496 503 462 456 460 455 450 483 483 503 467 445 459 490 0 0 0 0
0 0 0 0 0 0 0 0 0 0 0 0 0 0 0 0 0 0 0 0 0 0 0 0 537 468 469 471 470 472 476 471 477 473 481 476 481 481 484 477 484 479 483 487 484 487 487 487 487 488 490 488 490 490 493 488 496 489 493 486 490 488 495 497 493 491 494 498 494 491 494 493 489 498 491 490 488 491 499 496 499 496 487 508 499 509 506 489 520 504 508 481 521 519 535 493 524 504 497 514 533 518 506 506 499 519 503 462 489 464 524 530 486 457 518 0 0 0 0 0
0 0 0 0 0 0 0 0 0 0 0 0 0 0 0 0 0 0 0 0 0 0 0 0 0 468 466 470 472 465 472 471 480 474 475 471 479 482 476 477 479 477 483 481 489 485 485 484 487 486 491 485 491 486 488 493 488 486 483 492 486 495 492 493 496 493 492 494 490 495 495 492 492 491 492 489 483 489 498 500 486 480 494 489 493 507 497 486 498 498 487 478 493 508 524 497 504 499 492 525 481 490 494 512 469 484 471 464 452 489 506 502 442 510 0 0 0 0 0 0
0 0 0 0 0 0 0 0 0 0 0 0 0 0 0 0 0 0 0 0 0 0 0 0 0 527 469 469 465 469 466 468 470 473 475 472 467 479 477 473 479 479 480 482 476 479 479 485 489 480 481 484 487 486 493 489 486 489 488 488 492 483 485 484 487 493 491 487 485 489 492 486 490 491 488 479 483 470 491 484 484 506 481 477 480 490 485 483 490 478 487 483 490 465 469 479 480 493 466 478 478 484 469 456 468 471 481 445 469 451 457 456 449 440 425 0 0 0 0 0
0 0 0 0 0 0 0 0 0 0 0 0 0 0 0 0 0 0 0 0 0 0 0 0 0 0 504 474 466 469 469 472 474 474 474 473 480 477 480 478 475 477 482 479 485 484 483 485 483 486 489 486 489 490 488 491 490 491 489 493 487 486 492 489 493 491 494 489 499 492 496 488 491 490 489 486 481 486 502 503 496 496 494 488 489 500 511 506 487 501 503 499 508 511 503 517 495 500 500 527 486 508 527 493 490 511 514 514 487 477 506 492 487 545 0 0 0 0 0 0
0 0 0 0 0 0 0 0 0 0 0 0 0 0 0 0 0 0 0 0 0 0 0 0 0 0 0 467 466 462 470 468 470 468 471 471 464 475 473 472 479 479 471 477 476 481 481 480 480 485 483 483 485 481 488 481 486 490 482 487 485 485 491 489 484 489 480 489 487 488 487 482 488 488 476 465 481 474 477 478 480 480 488 473 477 476 484 507 482 476 466 485 485 483 458 489 468 470 496 468 484 482 451 456 456 463 452 498 442 469 462 438 431 454 419 0 0 0 0 0
0 0 0 0 0 0 0 0 0 0 0 0 0 0 0 0 0 0 0 0 0 0 0 0 0 0 0 470 465 466 464 464 467 468 474 471 473 473 473 472 473 473 478 480 483 475 479 480 479 479 477 484 485 486 483 489 487 486 488 486 484 484 486 488 490 483 490 488 489 482 484 486 481 482 480 490 488 482 486 490 489 468 482 495 482 496 481 466 483 484 458 474 468 477 461 477 490 505 513 476 474 459 484 473 462 447 472 468 448 443 497 479 462 484 485 0 0 0 0 0
0 0 0 0 0 0 0 0 0 0 0 0 0 0 0 0 0 0 0 0 0 0 0 0 0 0 0 0 526 467 469 467 468 467 474 472 472 470 472 477 473 478 476 478 481 479 475 480 480 481 482 481 487 486 482 482 485 483 486 483 487 483 489 487 486 488 488 486 483 489 485 488 480 489 484 490 495 481 494 484 495 497 483 494 481 498 512 489 505 492 500 517 481 493 491 487 492 502 516 497 496 499 497 493 481 494 499 506 466 521 510 521 507 495 494 0 0 0 0 0
0 0 0 0 0 228 225 250 291 0 0 0 0 0 0 0 0 0 0 0 0 2363 0 0 0 0 0 0 0 484 457 465 462 466 464 471 467 469 469 474 468 473 477 470 475 479 475 481 476 475 477 478 479 479 483 476 481 488 486 480 478 481 486 487 484 489 484 479 473 484 475 487 478 484 482 477 471 472 473 491 466 481 482 481 465 475 470 480 473 463 457 500 500 480 481 483 485 466 468 480 471 487 466 458 457 435 442 454 429 463 441 493 462 428 507 0 0 0 0 0
0 0 0 0 251 230 235 244 236 292 387 0 0 0 0 0 0 0 0 0 0 2315 0 0 0 0 0 0 0 0 462 466 465 468 472 471 471 472 475 469 471 479 475 473 473 475 483 479 478 481 478 484 481 483 478 479 485 481 484 487 479 484 483 491 487 487 483 490 483 489 475 486 487 481 482 495 485 480 481 492 485 486 484 486 488 484 499 499 482 496 491 499 489 486 479 509 474 509 515 515 490 496 499 481 469 493 499 494 492 480 503 508 466 555 0 0 0 0 0 0
0 0 0 240 212 225 225 225 233 238 320 0 0 0 0 0 0 0 0 0 0 0 0 0 0 0 0 0 0 0 0 476 461 466 463 470 467 464 464 470 466 468 466 469 470 473 468 477 478 473 472 469 476 479 480 480 481 475 476 480 480 486 475 480 480 480 482 477 478 477 477 476 472 481 476 471 474 490 468 494 481 486 473 467 480 483 495 477 483 481 499 498 487 481 481 480 472 475 480 498 491 492 506 471 496 475 452 469 454 454 447 473 434 438 472 0 0 0 0 0
218 247 245 242 265 262 279 232 231 236 300 0 410 405 398 382 404 423 413 430 466 439 420 444 447 446 432 431 436 437 441 456 459 470 463 461 462 458 463 470 464 471 477 466 473 469 468 469 471 472 471 474 475 477 480 476 477 475 481 475 476 486 469 475 481 484 472 476 483 469 476 473 469 462 468 475 473 457 463 458 458 465 468 470 478 476 472 471 454 457 464 459 467 454 476 462 457 459 462 468 463 463 464 481 434 440 450 477 461 479 431 428 446 386 417 397 0 0 0 0
211 236 222 244 230 265 254 232 232 262 435 422 427 403 387 402 408 420 411 418 418 422 426 428 437 434 430 439 437 442 453 454 461 464 455 461 455 461 457 460 459 461 462 469 472 467 472 471 475 471 470 468 472 469 476 480 471 466 467 468 470 471 477 470 476 475 474 470 465 476 469 470 465 469 465 460 472 447 461 471 465 467 469 456 462 466 467 447 456 470 459 463 449 448 459 455 470 457 451 458 445 452 457 482 466 472 449 440 462 462 452 451 440 449 443 432 456 467 0 0
179 173 181 217 206 216 233 228 220 272 349 336 348 355 380 349 371 377 358 364 350 380 376 393 399 400 418 415 423 433 440 449 443 441 436 444 436 443 445 445 439 449 445 444 444 452 446 450 453 449 453 447 459 451 453 452 456 455 456 459 460 461 449 452 458 456 454 455 455 453 455 447 444 444 437 432 440 440 427 431 427 422 420 433 424 416 411 423 426 413 423 414 419 417 417 412 407 422 427 415 413 412 411 410 426 411 408 405 405 392 401 410 416 431 406 431 411 406 395 0
278 265 248 220 229 230 233 232 251 328 325 329 343 326 331 339 343 349 348 342 340 354 361 367 372 389 390 403 408 414 422 419 422 423 426 432 432 437 428 430 430 440 428 435 434 432 432 434 438 441 436 441 442 444 448 440 442 435 441 438 450 437 440 441 434 441 433 441 436 434 437 431 430 421 410 414 412 401 410 402 394 389 390 391 400 398 390 400 396 388 399 396 402 387 396 391 400 392 401 391 398 392 393 402 390 389 387 376 375 391 409 385 384 388 351 377 361 367 366 416
304 304 286 242 229 233 232 248 314 313 307 323 308 308 304 313 316 326 313 328 326 328 339 350 354 373 383 384 397 397 408 403 407 414 409 403 410 411 414 416 419 414 411 415 411 412 414 427 419 412 423 421 415 427 419 423 422 428 426 424 424 425 421 424 420 418 425 425 419 410 419 413 409 406 401 393 381 373 373 375 368 369 362 369 365 375 358 373 377 374 361 365 374 371 373 368 369 365 363 370 361 357 379 352 380 375 364 369 349 374 379 352 370 382 383 394 387 382 375 408
273 268 273 263 248 248 256 277 281 276 276 272 268 277 277 292 290 281 276 285 298 307 308 315 334 341 356 368 367 373 384 390 385 391 390 387 392 390 394 397 391 385 391 395 386 393 394 394 391 389 392 401 402 399 399 392 396 396 397 396 394 396 397 399 394 387 388 392 395 395 386 390 382 380 369 360 348 346 342 334 337 324 328 332 323 327 324 335 328 317 330 335 330 330 330 337 321 321 330 338 325 321 324 346 329 333 339 328 332 321 331 317 332 326 341 305 326 311 302 297
265 252 253 251 251 252 262 260 269 262 266 269 254 253 252 271 270 265 272 267 273 291 284 303 310 311 332 348 350 362 360 362 363 370 367 365 377 372 361 371 373 374 374 377 376 375 374 370 370 374 374 379 383 373 379 379 380 380 380 371 385 380 375 379 367 377 372 376 370 377 367 362 364 353 347 340 335 328 315 315 305 292 307 307 301 312 302 301 304 307 296 306 311 313 303 308 299 297 296 315 321 306 308 308 301 310 303 311 314 322 318 316 319 331 302 311 311 337 298 287
236 228 233 221 235 240 248 243 248 242 241 249 241 247 238 247 240 249 240 247 250 257 275 282 293 303 314 329 327 329 330 333 344 344 340 346 339 338 337 346 346 350 348 345 349 349 345 352 351 353 342 347 345 352 359 353 345 352 359 348 356 347 355 343 354 345 345 351 346 345 348 343 338 330 321 325 309 297 288 286 286 277 275 273 277 279 280 275 281 278 280 275 277 278 279 271 267 277 278 284 279 275 283 282 269 265 279 277 273 282 281 291 285 294 289 261 293 288 246 304
222 207 220 226 220 221 220 224 212 228 222 222 221 236 230 222 234 231 230 234 244 239 254 265 271 282 298 296 297 305 310 315 318 319 312 320 319 323 328 330 318 319 313 314 324 332 322 328 322 324 320 329 331 329 324 325 321 322 331 323 324 325 323 323 328 324 323 324 326 321 318 314 323 307 305 293 282 273 275 269 268 260 261 261 260 258 262 258 252 256 258 267 261 254 258 252 258 248 256 250 264 259 258 255 249 255 257 264 267 258 258 268 261 258 275 280 272 249 284 263
210 203 211 218 215 220 214 221 217 209 215 214 212 213 213 220 218 222 225 224 231 231 240 249 256 264 272 274 283 287 287 293 296 292 297 300 298 296 301 305 301 294 293 303 304 296 303 305 306 308 311 305 296 307 300 305 309 307 311 304 305 310 312 313 304 305 300 303 302 303 297 301 301 287 292 280 268 262 255 257 250 250 247 242 255 253 251 242 240 243 240 248 246 245 248 242 240 240 249 246 242 249 247 246 255 244 240 238 246 241 247 246 258 263 274 257 265 264 280 260
177 195 192 197 196 199 199 185 182 200 188 184 185 187 180 191 205 190 207 208 211 224 226 231 245 244 249 253 266 267 269 264 265 269 277 275 279 276 283 279 279 284 281 289 281 280 283 281 283 284 280 281 275 281 278 280 287 285 281 285 284 285 281 285 283 281 279 283 281 281 278 282 275 269 265 255 252 245 236 237 230 234 229 231 225 226 221 219 223 224 229 232 222 226 229 226 225 221 223 222 225 226 216 218 223 214 216 228 226 228 226 226 238 217 228 241 218 202 207 208
181 181 195 172 185 182 188 190 189 185 198 178 180 183 183 184 184 186 187 204 208 211 220 223 225 231 237 241 243 248 255 260 258 257 261 255 257 256 266 264 265 267 264 262 265 264 267 274 263 269 265 265 268 268 267 267 268 270 262 273 267 268 265 273 265 276 269 270 268 265 268 256 254 254 253 242 238 229 227 219 219 220 215 218 201 223 201 211 221 217 214 223 219 214 212 218 193 209 209 211 222 217 212 213 213 212 219 211 214 219 219 229 229 222 215 221 242 230 229 248
175 172 170 178 180 170 177 173 180 170 174 182 177 181 177 184 178 177 177 182 185 187 188 210 216 212 222 225 225 233 236 244 246 246 243 244 238 245 248 244 241 246 252 246 250 253 248 243 244 248 250 249 245 249 243 247 248 249 250 255 253 248 252 249 244 253 251 245 245 244 244 244 245 237 238 227 224 215 213 211 199 195 192 187 184 193 193 198 193 187 197 193 190 180 183 188 186 187 191 191 191 191 206 191 186 194 203 200 202 213 211 211 220 205 219 210 210 202 219 218
168 171 172 175 174 172 174 171 176 179 181 174 174 175 173 180 176 178 187 183 188 188 185 188 207 193 214 216 216 219 225 228 223 221 225 227 229 230 231 224 226 227 233 235 235 237 228 229 230 230 237 234 233 235 234 233 234 234 237 236 234 234 231 233 233 229 234 228 225 233 234 232 231 222 221 214 212 195 190 198 193 190 193 191 187 194 189 192 190 187 182 188 189 187 190 185 178 183 187 184 184 181 175 181 182 181 188 174 182 178 172 182 194 197 203 179 187 202 194 183
166 167 170 172 172 173 170 172 169 162 168 164 168 171 167 176 173 178 176 178 177 183 189 182 184 189 188 186 206 212 216 212 211 211 211 214 199 216 215 198 214 223 216 218 222 223 221 221 221 221 218 225 217 220 222 222 219 221 221 224 218 227 219 217 220 218 217 218 221 220 220 215 215 195 197 191 186 186 192 186 187 183 189 184 185 183 184 185 186 184 183 180 188 180 184 186 180 180 184 179 182 184 182 183 183 180 184 180 178 178 179 177 176 179 206 205 177 169 171 213
149 151 157 158 159 164 156 162 163 164 159 160 160 155 161 160 160 173 165 172 169 175 178 180 178 184 183 182 182 186 181 187 183 188 183 188 189 185 188 189 195 194 192 190 196 193 194 192 193 193 197 195 198 196 193 189 194 200 193 195 202 197 197 194 190 196 195 196 195 194 200 194 197 188 197 193 191 185 187 175 177 171 177 176 173 172 174 174 177 174 176 173 175 167 172 174 170 169 169 168 172 175 169 167 170 170 169 162 167 169 165 173 173 177 166 164 176 173 176 181
142 148 151 153 157 156 159 156 157 158 154 157 154 157 160 157 157 161 153 168 167 171 176 176 179 177 176 180 183 185 191 184 188 190 186 187 191 191 192 194 194 193 194 195 192 188 193 195 196 191 195 188 196 195 198 196 198 198 197 199 195 196 198 187 194 194 196 196 197 194 197 194 193 195 188 185 184 184 178 173 170 172 166 163 166 168 171 169 166 166 167 164 167 168 170 163 165 164 162 167 166 165 168 168 162 163 158 164 167 163 165 160 171 176 171 164 158 166 151 169
141 145 147 148 148 152 145 153 151 151 147 154 153 155 153 153 155 148 155 159 160 165 166 175 168 172 174 174 173 177 176 178 181 180 177 181 182 181 182 181 185 184 186 187 184 184 183 182 185 185 185 184 186 188 188 185 188 186 0 189 187 186 185 185 189 186 188 186 189 183 187 182 183 180 175 176 172 176 169 166 162 157 165 159 158 166 165 161 165 159 160 163 164 163 162 161 159 159 162 165 160 161 161 157 157 162 159 157 158 157 157 166 160 155 162 162 159 168 171 167
132 137 136 139 140 146 146 146 143 144 144 140 141 145 142 146 139 146 146 151 156 158 159 165 164 164 169 168 171 170 168 171 174 168 170 170 174 170 173 175 174 177 176 174 172 178 177 177 175 177 180 179 178 178 181 179 181 0 0 179 177 179 177 180 177 177 179 177 180 171 173 176 173 172 168 165 168 161 163 160 158 156 156 155 153 158 156 155 151 154 148 154 156 155 151 153 153 153 156 155 157 156 149 148 149 150 145 152 161 152 155 144 149 148 145 151 156 140 146 132
137 134 133 136 141 143 148 142 140 137 138 141 144 143 142 137 142 148 147 146 150 153 157 159 162 158 161 162 167 163 164 166 167 165 163 167 166 168 166 169 172 0 168 169 172 170 170 170 171 172 172 172 176 172 171 0 171 175 0 174 174 0 0 175 172 170 174 165 174 171 166 165 168 169 166 164 165 155 158 152 151 155 152 150 154 152 149 146 148 154 146 152 149 148 148 147 152 150 154 150 147 144 146 146 148 141 145 142 150 148 144 148 147 156 148 151 145 156 144 156
127 122 129 125 136 134 143 137 136 123 132 130 131 133 137 136 135 135 138 141 139 146 147 151 149 157 153 154 154 161 161 155 158 157 160 155 162 163 0 0 0 0 0 0 0 0 0 167 166 164 167 164 169 169 0 0 171 167 0 0 0 0 0 0 167 166 164 0 162 164 163 161 159 159 154 152 154 154 149 150 150 142 145 147 143 148 144 144 148 146 145 144 145 144 143 140 142 148 144 144 135 138 142 141 133 126 137 135 144 150 141 148 146 151 147 143 142 141 136 126
116 128 121 116 128 131 132 129 135 131 126 132 133 128 131 124 122 140 135 139 139 142 144 147 148 148 151 151 153 155 151 152 155 157 153 152 154 0 0 0 0 0 0 0 0 0 0 0 157 159 162 160 0 0 0 0 0 0 0 0 0 0 0 0 159 160 0 0 0 0 0 158 160 157 152 149 150 148 148 145 139 131 144 142 139 138 142 141 144 141 136 138 139 138 137 134 143 140 138 134 135 134 142 133 129 129 134 131 134 140 137 143 140 136 136 138 136 133 127 142
116 110 117 122 130 127 126 129 129 127 130 124 123 119 117 131 122 133 129 136 135 126 132 140 140 144 144 145 146 147 150 147 151 151 148 150 0 0 0 0 0 0 0 0 0 0 0 0 151 154 156 0 0 0 0 0 0 0 0 0 0 0 0 0 0 0 0 0 0 0 0 0 148 151 150 147 147 141 142 146 129 141 137 136 130 127 136 137 128 130 139 139 130 126 120 129 131 136 137 131 130 138 134 122 127 136 130 137 135 135 143 134 138 146 149 141 137 129 116 141
106 111 112 108 110 112 118 115 115 119 114 115 118 115 126 123 120 117 116 117 122 119 128 121 133 140 137 138 143 143 142 143 143 143 145 141 0 0 0 0 0 0 0 0 0 0 0 0 146 0 0 0 0 0 0 0 0 0 0 0 0 0 0 0 0 0 0 0 0 0 0 0 144 140 143 140 139 131 126 138 125 121 122 122 125 117 123 124 124 136 122 124 115 126 124 133 124 131 120 116 117 128 133 116 119 119 126 119 132 136 121 132 115 116 111 113 112 100 116 107
109 107 116 116 115 112 115 124 118 116 113 118 115 116 117 121 116 119 122 120 118 116 120 115 130 127 136 128 0 140 0 0 0 0 142 0 0 0 0 0 0 0 0 0 0 0 0 0 0 0 0 0 0 0 0 0 0 0 0 0 0 0 0 0 0 0 0 0 0 0 0 0 0 141 137 126 128 122 119 125 120 117 123 126 118 123 116 116 120 117 118 125 114 114 112 121 115 118 120 119 118 126 129 122 122 116 127 123 110 122 127 112 120 126 131 127 109 127 139 135
101 99 107 111 103 99 106 102 100 103 107 107 105 106 105 109 109 112 119 110 112 116 111 117 116 117 124 119 0 126 0 0 0 0 125 0 0 0 0 0 0 0 0 0 0 0 0 0 0 0 0 0 0 0 0 0 0 0 0 0 0 0 0 0 0 0 0 0 0 0 0 0 129 0 0 127 123 120 122 116 117 115 105 113 112 114 108 112 109 113 117 112 109 114 110 104 111 116 112 112 118 110 106 110 112 117 108 103 108 99 107 101 108 117 118 98 111 132 137 152
97 99 90 94 103 102 102 98 103 104 102 99 98 103 105 103 104 107 115 104 109 109 104 111 114 110 115 118 118 119 0 124 0 0 0 0 0 0 0 0 0 0 0 0 0 0 0 0 0 0 0 0 0 0 0 0 0 0 0 0 0 0 0 0 0 0 0 0 0 0 0 0 0 122 0 113 120 117 113 111 112 112 105 102 108 108 106 114 103 106 111 110 110 114 106 116 105 106 95 117 112 105 108 104 108 110 106 105 110 109 98 94 110 105 99 114 121 88 97 138
96 100 98 104 94 97 100 92 94 97 97 98 99 96 101 97 106 102 114 114 112 106 100 111 114 106 112 114 113 121 119 116 121 0 0 0 0 0 0 0 0 0 0 0 0 0 0 0 0 0 0 0 0 0 0 0 0 0 0 0 0 0 0 0 0 0 0 0 0 0 0 0 123 120 109 121 112 117 115 119 104 111 101 117 108 107 104 102 101 106 104 107 112 94 98 102 106 103 113 106 105 108 112 105 103 110 105 93 105 99 103 100 96 101 103 98 130 125 115 126
87 82 82 86 81 85 82 94 90 84 90 90 95 94 94 89 78 93 88 84 89 86 102 105 100 103 112 105 0 114 105 108 115 0 0 0 0 0 0 0 0 0 0 0 0 0 0 0 0 0 0 0 0 0 0 0 0 0 0 0 0 0 0 0 0 0 0 0 0 0 0 114 111 110 105 112 107 105 102 100 101 105 99 91 101 95 87 98 105 100 93 95 103 84 83 95 91 105 85 95 89 96 95 91 88 90 99 96 92 92 88 91 77 96 96 93 86 83 103 133
93 85 88 86 97 93 98 104 91 95 96 93 93 91 92 94 102 92 103 93 93 107 103 103 102 103 108 108 0 105 112 110 116 111 120 109 111 0 0 0 0 117 0 0 0 0 0 0 0 0 0 0 0 0 0 0 0 0 0 0 0 0 0 114 111 0 0 0 110 0 107 107 113 113 113 105 108 110 100 96 110 105 105 91 96 101 105 100 101 100 104 107 108 100 97 103 96 92 98 110 100 93 94 100 91 102 100 89 88 83 89 91 86 96 103 93 105 138 101 133
83 96 89 90 99 98 91 94 85 98 88 91 86 94 86 84 95 97 97 93 100 91 99 113 91 104 105 102 105 106 94 0 105 103 98 104 0 112 114 0 110 0 0 0 0 0 0 0 0 0 0 0 0 0 112 0 0 109 0 0 108 105 106 115 115 112 104 102 112 104 109 99 102 100 113 107 98 93 103 97 97 93 101 86 94 93 92 108 103 92 97 105 109 88 94 82 88 94 95 85 98 84 91 97 95 92 99 99 100 84 97 96 86 102 98 94 122 101 133 124
83 87 82 89 90 91 104 87 90 80 87 87 87 89 91 89 88 87 92 88 77 91 92 83 82 94 90 88 102 88 94 97 93 96 93 108 99 100 103 103 102 96 98 107 103 90 0 0 96 0 0 108 103 92 100 109 106 102 106 103 97 103 109 100 99 110 101 94 101 106 97 105 107 98 105 94 94 93 96 90 97 89 90 94 90 90 89 96 96 94 99 95 93 92 92 89 92 93 91 83 85 88 88 87 88 85 93 89 79 93 85 92 96 92 85 89 77 80 81 84
84 80 85 83 85 82 100 97 88 85 85 82 81 88 81 89 89 95 92 96 87 97 92 87 91 94 92 88 93 97 94 84 97 96 96 98 99 99 92 109 102 94 100 107 99 95 105 0 105 103 96 107 98 95 103 101 101 104 98 106 102 96 91 105 100 97 96 102 94 103 99 104 100 93 102 87 93 95 95 85 99 100 84 93 99 95 87 89 93 89 82 100 86 92 89 92 92 94 95 92 92 97 82 87 91 98 89 94 89 88 81 94 104 95 106 129 121 86 132 89
81 73 67 70 80 84 88 89 88 79 86 80 87 91 90 83 87 87 88 86 85 86 93 89 84 85 92 90 84 93 90 92 80 92 93 96 96 83 89 95 89 89 85 92 96 94 87 102 92 87 97 95 85 90 92 83 100 90 99 94 96 80 85 97 96 97 88 90 97 98 93 86 90 93 85 95 91 95 97 96 87 94 84 88 86 94 85 87 84 86 94 80 91 81 89 89 82 78 81 90 83 87 81 72 80 84 85 86 83 79 75 93 81 96 84 103 127 83 126 82
69 74 78 85 72 85 89 86 84 78 81 90 80 81 85 87 86 87 82 85 83 89 82 92 85 83 90 85 91 88 93 93 90 94 85 89 85 94 96 96 94 95 93 88 86 97 90 97 101 86 91 96 96 84 98 97 87 83 88 95 96 84 89 94 91 97 89 94 106 82 94 94 82 94 91 97 94 96 93 93 92 86 87 87 79 87 90 76 93 89 76 87 79 78 90 83 89 84 76 84 87 80 83 77 77 82 81 89 81 88 86 82 82 96 86 80 80 83 86 219
