0 0 0 0 0 0 0 0 0 0 0 0 0 0 0 0 0 0 0 0 0 0 0 0 0 0 0 0 0 0 0 0 0 0 0 0 0 0 0 0 0 0 0 0 0 0 0 0 0 0 0 0 0 0 0 0 0 0 0 0 0 0 0 0 0 0 0 0 0 0 0 0 0 0 0 0 0 0 0 0 0 0 0 0 0 0 0 0 0 0 0 0 0 0 0 0 0 0 0 0 0 0 0 0 0 0 0 0 0 0 0 0 0 0 0 0 0 0 0 0
0 0 0 0 0 0 0 0 0 0 0 0 0 0 0 0 0 0 0 0 0 0 0 0 0 0 0 0 0 0 0 0 0 0 0 0 0 0 0 0 0 0 0 0 0 0 0 0 0 0 0 0 0 0 0 0 0 0 0 0 0 0 0 0 0 0 0 0 0 0 0 0 0 0 0 0 0 0 0 0 0 0 0 0 0 0 0 0 0 0 0 0 0 0 0 0 0 0 0 0 0 0 0 0 0 0 0 0 0 0 0 0 0 0 0 0 0 0 0 0
0 0 0 0 0 0 0 0 0 0 0 0 0 0 0 0 0 0 0 0 0 0 0 0 0 0 0 0 0 0 0 0 0 0 0 0 0 0 0 0 0 0 0 0 0 0 0 0 0 0 0 0 0 0 0 0 0 0 0 0 0 0 0 0 0 0 0 0 0 0 0 0 0 0 0 0 0 0 0 0 0 0 0 0 0 0 0 0 0 0 0 0 0 0 0 0 0 0 0 0 0 0 0 0 0 0 0 0 0 0 0 0 0 0 0 0 0 0 0 0
0 0 0 0 0 0 0 0 0 0 0 0 0 0 0 0 0 0 0 0 0 0 0 0 0 0 0 0 0 0 0 0 0 0 0 0 0 0 0 0 0 0 0 0 0 0 0 0 0 0 0 0 0 0 0 0 0 0 0 0 0 0 0 0 0 0 0 0 0 0 0 0 0 0 0 0 0 0 0 0 0 0 0 0 0 0 0 0 0 0 0 0 0 0 0 0 0 0 0 0 0 0 0 0 0 0 0 0 0 0 0 0 0 0 0 0 0 0 0 0
0 0 0 0 0 0 0 0 0 0 0 0 0 0 0 0 0 0 0 0 0 0 0 0 0 0 0 0 0 0 0 0 0 0 0 0 0 0 0 0 0 0 0 0 0 0 0 0 0 0 0 0 0 0 0 0 0 0 0 0 0 0 0 0 0 0 0 0 0 0 0 0 0 0 0 0 0 0 0 0 0 0 0 0 0 0 0 0 0 0 0 0 0 0 0 0 0 0 0 0 0 0 0 0 0 0 0 0 0 0 0 0 0 0 0 0 0 0 0 0
0 0 0 0 0 0 0 0 0 0 0 0 0 0 0 0 0 0 0 0 0 0 0 0 0 0 0 0 0 0 0 0 0 0 0 0 0 0 0 491 538 497 499 499 514 509 521 522 500 503 513 514 517 528 469 548 0 0 0 0 0 0 0 0 0 0 0 0 0 0 0 0 0 0 0 0 0 0 0 0 0 0 0 0 0 0 0 0 0 0 0 0 0 0 0 0 0 0 0 0 0 0 0 0 0 0 0 0 0 0 0 0 0 0 0 0 0 0 0 0
0 0 0 0 0 0 0 0 0 0 0 0 0 0 0 0 0 0 0 0 0 0 0 0 0 0 0 0 0 0 0 0 0 0 0 0 0 522 487 516 510 497 489 498 507 497 505 511 519 519 503 494 503 521 502 516 515 522 512 505 0 0 0 0 0 0 0 0 0 0 0 0 0 0 0 0 0 0 0 0 0 0 0 0 0 0 0 0 0 0 0 0 0 0 0 0 0 0 0 0 0 0 0 0 0 0 0 0 0 0 0 0 0 0 0 0 0 0 0 0
0 0 0 0 0 0 0 0 0 0 0 0 0 0 0 0 0 0 0 0 0 0 0 0 0 0 0 0 0 0 0 0 0 0 0 496 498 518 494 495 501 495 490 504 492 517 513 505 512 486 512 509 505 492 520 504 502 489 511 504 483 502 502 503 529 0 0 0 0 0 0 0 0 0 0 0 0 0 0 0 0 0 0 0 0 0 0 0 0 0 0 0 0 0 0 0 0 0 0 0 0 0 0 0 0 0 0 0 0 0 0 0 0 0 0 0 0 0 0 0
0 0 0 0 0 0 0 0 0 0 0 0 0 0 0 0 0 0 0 0 0 0 0 0 0 0 0 0 0 0 0 0 0 495 508 519 511 515 500 500 512 510 499 510 498 503 508 510 516 519 500 506 512 511 502 519 506 510 517 520 505 509 504 518 514 514 515 530 569 595 623 601 570 634 580 591 642 598 593 652 0 0 0 0 0 0 0 0 0 0 0 0 0 0 0 0 0 0 0 0 0 0 0 0 0 0 0 0 0 0 0 0 0 0 0 0 0 0 0 0
0 0 0 0 0 0 0 0 0 0 0 0 0 0 0 0 0 0 0 0 0 0 0 0 0 0 0 0 0 0 0 501 504 502 490 497 492 498 504 495 503 503 509 506 496 498 500 508 505 508 509 495 504 506 500 506 497 501 506 499 501 512 494 501 502 497 521 511 523 548 563 564 572 559 604 584 586 520 614 580 558 597 570 536 0 0 0 579 587 561 600 571 556 590 606 557 595 526 608 510 0 604 642 579 0 0 0 0 0 0 0 0 0 0 0 0 0 0 0 0
0 0 0 0 0 0 0 0 0 0 0 0 0 0 0 0 0 0 0 0 0 0 0 0 0 0 0 0 0 0 523 482 512 489 498 499 506 499 490 514 493 491 502 503 518 518 506 507 508 508 505 507 514 511 510 507 513 507 505 513 501 503 507 503 509 506 511 506 510 512 541 573 521 533 596 565 592 576 560 563 579 582 596 569 535 547 595 554 529 589 570 554 525 538 564 556 550 537 577 548 549 556 527 571 557 549 544 562 576 0 0 0 0 0 0 0 0 0 0 0
0 0 0 0 0 0 0 0 0 0 0 0 0 0 0 0 0 0 0 0 0 0 0 0 0 0 0 0 498 497 509 505 500 505 509 507 500 483 512 508 508 503 491 508 507 503 507 504 499 508 507 502 503 512 504 499 498 500 508 514 501 503 512 505 512 513 499 509 509 506 516 536 562 540 560 540 507 565 583 552 559 585 546 589 588 563 568 582 599 611 552 562 559 571 566 554 544 610 541 569 592 576 565 553 558 558 546 586 570 0 0 0 0 0 0 0 0 0 0 0
0 0 0 0 0 0 0 0 0 0 0 0 0 0 0 0 0 0 0 0 0 0 0 0 0 0 0 471 493 497 495 483 495 500 500 497 496 500 495 489 504 495 500 495 500 506 500 499 500 507 508 500 509 498 501 505 507 502 498 509 516 510 503 512 508 503 511 512 501 515 518 504 522 590 546 540 584 533 527 565 548 548 574 592 549 562 552 500 525 547 563 568 532 554 530 513 563 553 562 562 568 554 556 568 550 523 534 541 0 0 0 0 0 0 0 0 0 0 0 0
0 0 0 0 0 0 0 0 0 0 0 0 0 0 0 0 0 0 0 0 0 0 0 0 0 0 500 510 504 501 496 501 496 500 499 491 498 486 499 501 504 509 500 511 503 510 513 503 504 497 508 506 512 507 513 504 508 512 515 510 510 514 511 504 510 514 514 503 511 516 518 508 533 549 537 545 548 575 585 544 548 565 575 570 565 591 600 588 583 575 585 583 564 555 563 553 552 605 574 562 579 556 537 577 572 570 590 577 517 608 0 0 0 0 0 0 0 0 0 0
0 0 0 0 0 0 0 0 0 0 0 0 0 0 0 0 0 0 0 0 0 0 0 0 0 506 484 491 506 491 489 498 499 497 494 495 505 507 502 501 498 500 500 506 502 499 511 507 501 503 503 503 504 502 501 511 508 507 507 511 516 506 512 510 507 500 505 505 512 511 507 509 519 534 560 583 534 543 567 569 578 561 526 571 558 531 547 563 575 549 555 548 546 580 558 532 549 550 559 544 555 544 510 572 564 567 520 563 584 0 571 0 0 0 0 0 0 0 0 0
0 0 0 0 0 0 0 0 0 0 0 0 0 0 0 0 0 0 0 0 0 0 0 0 0 509 487 481 496 474 501 482 493 492 487 493 491 497 489 499 494 494 504 497 502 493 505 500 495 487 497 504 500 499 497 498 505 505 506 501 502 500 506 510 503 503 515 503 507 500 503 499 512 524 536 524 526 524 516 551 537 553 500 535 567 545 521 506 554 532 544 542 547 533 560 520 544 533 526 522 558 538 513 509 539 545 503 519 503 582 522 0 509 500 0 0 0 0 0 0
0 0 0 0 0 0 0 0 0 0 0 0 0 0 0 0 0 0 0 0 0 0 0 0 512 489 494 498 493 490 491 496 497 497 496 504 501 507 495 499 504 505 493 500 499 504 494 502 494 500 497 507 505 505 506 506 501 499 509 506 506 500 501 506 504 509 510 512 504 507 509 509 517 500 527 539 561 554 537 518 551 541 525 560 545 568 565 571 538 539 517 566 556 558 569 570 536 549 549 568 557 558 562 549 525 535 554 563 528 554 619 0 0 0 0 0 0 0 0 0
0 0 0 0 0 0 0 0 0 0 0 0 0 0 0 0 0 0 0 0 0 0 0 0 482 491 490 488 491 489 488 496 492 490 488 500 496 492 491 504 500 492 496 496 488 503 490 501 502 502 506 506 501 504 499 505 507 506 501 503 500 495 501 508 500 500 510 498 509 503 502 508 506 511 506 506 505 532 504 522 519 533 534 532 545 527 535 560 494 512 540 529 527 525 530 526 530 504 536 532 541 538 536 526 561 538 520 521 539 543 0 0 0 0 0 0 0 0 0 0
0 0 0 0 0 0 0 0 0 0 0 0 0 0 0 0 0 0 0 0 0 0 0 461 495 501 492 493 484 498 494 496 497 491 494 483 505 493 492 497 496 495 498 503 509 505 503 501 495 504 501 498 497 505 501 505 505 505 503 501 511 494 499 506 501 504 509 502 505 505 508 502 500 498 515 523 540 537 527 519 517 523 529 541 509 530 557 514 515 508 552 537 519 523 518 537 514 510 519 522 529 556 531 536 526 512 541 505 558 581 580 0 0 0 0 0 0 0 0 0
0 0 0 0 0 0 0 0 0 0 0 0 0 0 0 0 0 0 0 0 0 0 0 504 486 492 490 493 498 501 497 501 495 501 488 486 485 494 492 501 493 501 494 502 505 501 503 508 507 499 502 500 496 503 502 508 505 504 506 499 505 504 508 505 498 501 495 505 509 509 514 505 509 508 508 519 539 527 523 543 550 570 525 531 555 570 526 524 539 551 532 518 546 543 528 513 544 552 542 537 552 526 547 567 544 539 591 546 567 523 537 0 0 0 0 0 0 0 0 0
0 0 0 0 0 0 0 0 0 0 0 0 0 0 0 0 0 0 0 0 0 0 436 488 489 486 486 499 488 483 491 501 496 490 484 486 497 485 490 489 494 495 497 503 489 490 490 490 505 505 494 496 496 498 506 498 503 501 508 504 501 510 506 499 499 511 504 505 503 502 506 511 503 498 499 501 502 512 539 504 519 537 514 519 529 518 553 532 523 558 505 503 540 542 540 541 509 526 528 552 499 550 523 528 513 513 532 522 547 484 507 514 542 0 0 0 0 0 0 0
0 0 0 0 0 0 0 0 0 0 0 0 0 0 0 0 0 0 0 0 0 0 483 494 484 492 497 489 494 495 486 488 484 490 497 494 495 495 488 501 499 500 496 505 499 503 497 502 508 499 500 500 499 512 502 505 505 503 502 504 504 500 496 509 500 509 511 506 510 506 499 505 507 505 510 501 514 550 536 516 530 550 517 531 530 547 560 515 527 524 549 523 523 534 509 534 512 547 535 535 538 507 519 546 542 551 527 531 556 514 525 561 0 0 0 0 0 0 0 0
0 0 0 0 0 0 0 0 0 0 0 0 0 0 0 0 0 0 0 0 0 0 506 485 491 480 495 494 490 485 486 485 493 482 486 490 489 493 492 495 497 499 501 500 497 498 496 503 495 500 491 497 500 501 504 496 499 505 505 501 505 503 509 502 497 507 509 501 509 507 507 497 516 499 507 509 509 528 527 516 547 534 496 528 499 545 519 504 539 563 527 543 518 531 543 531 520 507 532 545 512 542 553 512 532 560 524 511 551 522 593 568 539 546 0 0 0 0 0 0
0 0 0 0 0 0 0 0 0 0 0 0 0 0 0 0 0 0 0 0 0 0 494 488 488 490 484 495 490 487 488 490 488 495 486 484 483 492 496 495 495 494 497 498 493 495 497 503 496 494 500 499 497 499 492 498 496 499 502 499 496 500 504 505 501 501 503 506 504 494 511 504 504 509 497 501 507 514 527 523 513 492 506 499 486 494 524 504 519 508 496 498 526 490 474 521 532 522 514 502 509 528 528 508 546 490 504 491 468 516 500 491 491 0 0 0 0 0 0 0
0 0 0 0 0 0 0 0 0 0 0 0 0 0 0 0 0 0 0 0 0 0 495 492 493 484 498 493 482 495 490 487 495 492 496 488 494 487 495 494 493 491 499 496 496 492 496 498 499 496 500 499 504 501 503 502 497 504 504 502 502 506 499 503 505 502 508 501 499 500 506 513 508 508 506 508 513 515 537 505 521 533 529 541 533 543 512 519 525 541 518 511 507 553 530 537 548 526 511 500 548 538 506 533 577 510 554 563 516 505 543 537 568 0 0 0 0 0 0 0
0 0 0 0 0 0 0 0 0 0 0 0 0 0 0 0 0 0 0 0 0 0 466 475 482 481 490 486 487 486 485 483 485 485 494 485 488 488 501 489 491 491 491 497 492 489 494 500 493 502 493 489 498 504 497 498 509 498 496 498 503 501 500 501 501 504 497 496 501 507 497 506 499 504 504 503 496 513 516 516 535 489 521 507 543 508 513 505 515 536 471 514 527 481 504 520 490 511 507 518 497 504 540 490 503 492 512 492 0 0 554 489 525 0 0 0 0 0 0 0
0 0 0 0 0 0 0 0 0 0 0 0 0 0 0 0 0 0 0 0 0 427 470 488 482 468 491 486 488 481 481 494 484 498 487 486 496 491 488 488 491 495 495 495 494 494 499 497 491 498 499 501 496 499 502 499 494 504 503 496 504 506 502 500 500 498 498 497 505 501 505 501 502 500 507 499 502 499 520 533 520 492 511 497 493 503 521 517 497 519 498 485 491 516 531 503 509 506 486 538 518 531 512 549 517 502 492 554 504 484 496 0 0 506 0 0 0 0 0 0
0 0 0 0 0 0 0 0 0 0 0 0 0 0 0 0 0 0 0 0 0 472 476 480 491 486 482 487 480 478 480 485 491 489 484 487 486 495 490 490 491 494 491 488 491 496 495 492 498 497 497 500 499 507 499 510 505 504 500 501 501 494 503 497 505 503 502 507 506 505 503 498 495 505 508 506 510 513 512 515 512 524 515 508 529 510 526 505 508 533 508 527 506 497 541 517 539 532 522 517 542 508 526 550 540 552 558 503 518 524 526 545 0 0 0 0 0 0 0 0
0 0 0 0 0 0 0 0 0 0 0 0 0 0 0 0 0 0 0 0 0 462 473 487 483 478 487 488 480 478 481 489 482 487 479 489 483 486 485 488 488 489 492 491 490 489 495 495 496 492 492 495 497 496 494 504 498 501 498 493 501 501 506 508 500 500 505 503 507 496 499 500 505 503 504 498 502 503 505 499 500 513 522 515 502 517 509 502 536 502 526 521 509 498 489 477 495 487 514 506 517 482 495 513 496 477 524 517 515 515 478 512 444 0 0 0 0 0 0 0
0 0 0 0 0 0 0 0 0 0 0 0 0 0 0 0 0 0 0 0 0 471 492 478 478 479 483 478 490 487 477 486 486 486 481 490 484 488 489 489 489 494 490 492 498 494 491 495 496 498 495 497 493 497 495 499 503 495 502 498 499 507 502 506 500 501 506 504 501 508 500 496 503 506 503 509 508 509 522 504 520 517 521 501 501 513 493 503 506 505 517 512 533 504 519 533 507 507 517 565 508 527 526 508 551 522 517 525 501 530 513 506 562 0 0 0 0 0 0 0
0 0 0 0 0 0 0 0 0 0 0 0 0 0 0 0 0 0 0 0 0 473 491 477 475 480 481 481 478 481 485 478 487 490 486 484 488 488 491 490 489 492 488 496 495 491 487 495 493 494 497 497 494 496 500 497 496 500 496 499 500 503 496 497 498 500 509 502 501 503 500 508 502 509 499 497 497 505 513 503 510 508 519 507 523 501 525 502 498 521 525 534 508 526 515 507 516 511 495 503 516 506 513 506 520 539 506 509 498 493 547 524 0 0 0 0 0 0 0 0
0 0 0 0 0 0 0 0 0 0 0 0 0 0 0 0 0 0 0 0 0 449 476 475 477 477 472 486 488 486 482 483 479 477 486 487 481 491 485 492 488 491 486 486 487 489 497 496 494 496 494 489 497 498 499 493 497 495 495 497 498 500 497 501 499 506 503 504 500 496 496 503 504 499 495 492 499 496 504 486 505 491 508 504 523 506 511 494 500 490 484 494 509 496 474 493 476 481 494 503 498 514 480 499 486 463 475 508 503 486 519 488 467 437 0 0 0 0 0 0
0 0 0 0 0 0 0 0 0 0 0 0 0 0 0 0 0 0 0 0 0 457 478 486 477 486 483 479 478 480 485 481 485 483 482 490 488 486 484 488 490 490 489 491 492 491 488 492 493 493 495 496 493 501 499 500 495 498 493 497 498 495 497 498 500 502 498 493 501 505 499 501 507 497 491 499 502 502 517 507 526 500 514 507 545 514 510 517 514 535 517 509 529 521 494 531 546 541 506 530 542 533 510 507 493 498 535 520 506 550 540 511 529 543 0 0 0 0 0 0
0 0 0 0 0 0 0 0 0 0 0 0 0 0 0 0 0 0 0 0 0 452 482 475 477 476 482 475 482 479 481 480 482 487 482 490 485 480 485 491 486 487 486 493 491 489 491 495 490 489 490 494 493 492 493 496 495 499 501 497 499 496 499 495 498 500 502 500 492 496 500 498 495 497 501 498 502 498 493 501 507 513 500 496 506 520 488 489 499 493 487 493 504 507 490 517 491 486 499 483 500 487 480 520 528 515 524 493 483 471 510 498 469 0 0 0 0 0 0 0
0 0 0 0 0 0 0 0 0 0 0 0 0 0 0 0 0 0 0 0 0 457 474 473 473 475 483 479 481 481 481 487 481 485 483 483 482 483 484 486 484 483 485 493 493 493 487 494 492 492 496 491 491 495 493 496 501 496 494 496 498 500 496 495 503 494 497 495 498 502 497 492 498 509 497 493 502 493 492 524 479 491 501 492 501 519 496 511 513 499 500 504 480 482 498 488 490 511 537 487 499 498 519 511 503 497 482 491 468 501 474 501 498 481 0 0 0 0 0 0
0 0 0 0 0 0 0 0 0 0 0 0 0 0 0 0 0 0 0 0 0 463 471 471 472 478 474 488 477 482 479 482 476 478 477 481 488 485 484 485 488 489 490 490 489 489 488 485 492 496 495 493 497 496 502 491 491 502 495 495 498 497 495 498 500 496 499 506 499 498 499 495 500 500 499 494 503 497 526 511 537 504 512 536 500 514 495 525 503 507 512 545 490 515 518 509 515 488 504 500 504 516 522 514 502 493 485 493 494 511 548 505 492 524 0 0 0 0 0 0
0 0 0 0 0 0 0 0 0 0 0 0 0 0 0 0 0 0 0 0 0 444 469 478 473 467 477 475 481 476 473 475 482 485 480 488 482 485 484 485 477 489 486 486 483 491 489 490 488 494 493 498 490 494 491 495 490 490 493 498 494 500 499 497 499 496 500 498 494 497 498 493 495 497 495 498 492 488 488 491 495 492 490 490 504 496 492 486 485 478 495 478 498 481 495 466 456 500 480 486 500 471 500 477 488 517 481 480 484 453 453 531 456 452 0 0 0 0 0 0
0 0 0 0 0 0 0 0 0 0 0 0 0 0 0 0 0 0 0 0 0 0 487 480 470 476 478 479 479 483 485 481 486 482 478 482 484 488 485 485 488 485 486 490 489 495 490 488 490 490 495 492 493 493 494 492 493 495 492 494 493 503 495 491 498 504 497 494 501 487 495 498 499 491 495 497 501 498 502 499 497 503 509 506 501 524 506 496 509 534 511 508 499 503 525 505 528 529 505 522 502 506 502 534 551 486 501 514 525 504 526 472 492 520 0 0 0 0 0 0
0 0 0 0 0 0 0 0 0 0 0 0 0 0 0 0 0 0 0 0 0 0 505 476 476 473 482 475 475 481 480 479 477 484 485 484 482 491 491 482 485 482 487 480 489 486 491 486 492 489 495 494 496 495 492 494 493 492 494 497 490 495 494 492 494 498 495 500 492 500 499 492 498 495 501 489 500 502 506 490 507 530 491 543 505 528 512 525 525 518 507 531 542 502 518 518 514 524 494 514 522 513 527 519 529 500 506 498 501 513 504 505 495 562 0 0 0 0 0 0
0 0 0 0 0 0 0 0 0 0 0 0 0 0 0 0 0 0 0 0 0 0 513 471 474 479 479 480 481 473 476 480 477 483 482 483 481 481 475 483 482 486 487 485 483 488 489 483 490 489 490 493 490 491 493 494 493 490 489 496 495 488 490 497 494 497 496 496 498 492 493 495 495 493 493 497 492 493 516 497 496 490 505 510 505 507 532 490 495 493 515 503 510 520 515 530 497 502 497 506 494 516 475 483 470 459 494 495 496 501 485 516 483 501 448 526 0 0 0 0
0 0 0 0 0 0 0 0 0 0 0 0 0 0 0 0 0 0 0 0 0 0 611 472 477 480 477 477 478 477 478 477 482 483 483 483 483 484 481 487 488 491 489 490 493 483 494 487 487 486 494 492 494 493 497 493 491 499 493 497 497 498 498 495 498 496 494 497 493 496 488 492 492 495 497 499 501 489 501 516 499 503 512 515 518 518 504 527 518 533 513 534 518 553 566 534 567 543 547 492 527 510 520 524 518 493 512 538 501 508 501 517 541 548 492 535 0 0 0 0
0 0 0 0 0 0 0 0 0 0 0 0 0 0 0 0 0 0 0 0 0 0 0 477 470 478 474 479 475 479 482 485 480 480 475 474 483 480 481 482 486 488 484 492 486 481 486 487 490 487 486 492 494 492 491 493 483 494 493 497 495 491 488 495 496 495 488 498 499 494 499 490 497 491 493 491 493 494 490 496 484 505 484 491 492 500 493 514 492 498 488 504 498 531 497 495 495 489 471 512 476 526 494 525 496 490 470 485 522 518 505 491 461 0 0 0 0 0 0 0
0 0 0 0 0 0 0 0 0 0 0 0 0 0 0 0 0 0 0 0 0 0 0 496 469 464 472 474 472 474 473 478 476 477 476 475 479 476 483 481 482 482 492 485 483 486 487 484 488 490 493 487 491 490 494 495 497 488 492 496 492 493 496 490 493 494 499 495 495 489 496 495 496 490 491 494 489 486 484 490 499 499 484 494 492 510 500 491 482 487 489 500 492 491 514 498 484 479 511 501 541 493 507 486 478 499 430 509 496 487 486 453 464 475 0 0 0 0 0 0
0 0 0 0 0 0 0 0 0 0 0 0 0 0 0 0 0 0 0 0 0 0 0 513 471 474 477 472 472 472 476 476 481 480 473 478 478 478 480 483 479 482 492 483 483 486 485 487 489 485 495 492 489 485 497 488 493 494 486 494 498 493 496 497 500 495 496 495 496 495 493 490 492 498 495 490 497 497 499 508 502 507 498 496 512 501 504 506 516 496 519 495 500 514 501 497 508 510 512 515 512 512 511 513 457 462 477 517 497 497 502 534 474 467 0 0 0 0 0 0
0 0 0 0 0 0 0 0 0 0 0 0 0 0 0 0 0 0 0 0 0 0 0 0 466 470 467 472 470 477 472 473 472 480 472 474 477 480 475 482 475 483 484 482 490 486 485 484 489 487 488 491 493 489 487 490 488 489 490 494 493 492 489 493 490 489 494 488 494 492 493 490 495 491 491 487 494 484 488 496 495 476 493 489 489 502 497 485 486 488 501 489 504 510 516 519 481 491 488 498 493 490 500 503 499 489 462 476 470 466 462 477 437 453 466 471 0 0 0 0
0 0 0 0 0 0 0 0 0 0 0 0 0 0 0 0 0 0 0 0 0 0 0 0 516 467 468 466 466 470 476 476 474 479 475 471 484 483 478 478 481 480 478 486 491 482 488 486 492 490 488 491 491 493 487 492 490 492 486 489 490 490 492 496 493 494 493 494 491 491 496 493 492 487 494 489 490 489 480 503 493 491 490 486 489 510 485 518 517 501 510 510 538 513 505 512 496 516 517 494 512 500 478 488 486 497 492 465 485 469 493 500 452 498 483 432 0 0 0 0
0 0 0 0 0 0 0 0 0 0 0 0 0 0 0 0 0 0 0 0 0 0 0 0 0 469 462 466 471 471 470 474 475 470 470 472 480 475 479 483 481 481 484 484 488 485 483 487 487 486 490 486 490 487 486 489 493 488 488 492 488 489 491 490 492 499 485 494 494 495 492 496 494 489 491 486 489 487 497 476 491 483 503 488 493 497 491 501 494 501 504 503 499 495 500 497 498 507 506 494 493 494 494 467 467 498 499 488 486 495 492 466 530 0 0 0 0 0 0 0
0 0 0 0 0 0 0 0 0 0 0 0 0 0 0 0 0 0 0 0 0 0 0 0 0 536 470 468 463 470 472 467 477 474 478 475 477 475 478 476 477 482 481 487 482 482 483 488 486 487 481 483 488 489 488 491 493 489 490 491 491 488 491 490 488 495 494 488 488 489 491 491 495 490 484 481 491 492 482 471 489 493 485 491 487 482 488 487 493 476 493 492 483 486 528 503 489 506 503 473 487 512 481 502 464 494 467 467 476 480 462 492 440 435 0 0 0 0 0 0
0 0 0 0 0 0 0 0 0 0 0 0 0 0 0 0 0 0 0 0 0 0 0 0 0 0 488 471 462 469 472 469 466 470 470 473 477 477 474 477 473 478 476 483 487 486 484 487 483 482 488 488 489 486 490 489 488 490 492 490 487 487 489 490 492 488 490 485 495 488 493 494 490 489 492 484 487 487 489 487 491 488 490 491 486 522 485 469 473 494 492 504 486 504 495 499 508 496 490 489 503 502 512 489 496 473 477 510 473 480 471 449 489 488 0 0 0 0 0 0
0 0 0 0 0 0 0 0 0 0 0 0 0 0 0 0 0 0 0 0 0 0 0 0 0 0 0 464 467 461 469 470 472 474 469 472 472 477 473 477 481 477 478 479 478 484 483 479 482 479 481 484 484 488 485 485 490 488 480 488 488 482 490 487 486 489 487 488 490 488 493 482 486 482 483 484 478 484 469 480 485 474 474 466 486 481 492 490 475 494 490 480 487 475 468 473 511 478 491 506 495 468 481 459 489 482 471 459 472 453 457 483 475 467 479 0 0 0 0 0
0 0 0 0 0 0 0 0 0 0 0 0 0 0 0 0 0 0 0 0 0 0 0 0 0 0 0 507 467 465 473 472 469 472 470 471 478 473 474 474 473 474 478 479 483 479 480 483 486 485 484 481 487 484 484 488 489 488 485 485 484 485 487 485 484 485 489 491 485 486 487 484 479 476 475 483 478 486 499 477 511 481 486 485 489 498 484 476 495 496 479 492 505 488 480 506 494 484 496 492 482 486 495 483 466 477 465 490 449 448 469 464 462 480 463 0 0 0 0 0
0 0 0 0 0 0 0 0 0 0 0 0 0 0 0 0 0 0 0 0 0 0 0 0 0 0 0 0 510 469 465 464 466 469 472 468 473 471 474 475 478 475 477 477 477 479 476 483 484 480 483 482 483 485 486 486 482 488 487 484 485 485 484 488 486 487 490 486 486 486 483 484 472 496 491 487 488 493 484 482 494 490 478 486 487 495 493 490 489 501 495 485 479 478 488 470 493 496 502 487 514 509 485 471 486 467 483 486 493 479 480 457 500 471 492 0 0 0 0 0
0 0 0 0 0 229 225 250 302 0 0 0 0 0 0 0 0 0 0 0 0 0 0 0 0 0 0 0 0 479 459 465 463 468 466 469 471 468 467 471 467 474 475 471 477 480 477 478 474 479 483 481 481 482 484 481 484 484 483 482 483 484 483 481 482 485 481 481 479 487 474 485 477 480 476 492 477 476 470 488 478 479 487 472 474 474 487 483 465 479 481 472 471 474 457 469 476 478 476 501 474 480 466 452 471 458 453 438 458 471 450 441 438 443 389 0 0 0 0 0
0 0 0 0 249 228 228 235 239 286 371 0 0 0 0 0 0 0 0 0 0 2326 0 0 0 0 0 0 0 0 458 466 462 466 464 471 469 471 473 472 472 480 473 474 480 474 477 470 481 476 478 485 480 479 481 483 485 479 480 482 483 481 483 483 487 489 483 486 481 483 481 482 475 485 470 484 482 474 478 487 505 491 486 479 488 493 494 497 475 493 498 488 499 483 479 480 479 485 500 485 474 476 487 493 485 458 485 475 475 457 484 523 488 459 0 0 0 0 0 0
0 0 0 234 220 222 226 224 233 238 335 0 0 0 0 0 0 0 0 0 0 0 0 0 0 0 0 0 0 0 0 475 458 465 462 464 468 468 470 464 472 469 471 467 475 474 470 475 475 475 477 475 479 473 480 483 481 475 476 484 477 487 482 484 483 479 480 476 472 475 469 486 479 487 476 467 479 482 471 479 482 487 470 476 494 473 481 475 474 479 497 486 480 472 509 510 493 503 491 487 488 487 477 459 449 478 453 443 482 456 446 467 453 439 462 0 0 0 0 0
202 234 229 232 258 259 262 236 239 243 309 0 436 430 411 388 400 445 414 435 446 473 446 443 454 455 448 448 439 457 451 469 464 464 463 469 459 465 463 469 462 473 471 466 476 467 471 466 470 475 472 477 470 477 479 482 477 477 477 478 475 480 475 480 481 479 469 478 485 475 479 477 472 473 479 466 465 481 465 477 487 467 467 469 470 477 481 483 474 467 477 472 473 478 493 463 455 474 465 477 480 482 484 457 457 469 452 475 484 475 465 481 435 461 428 480 0 0 0 0
218 218 217 241 235 267 265 232 232 270 407 374 381 412 397 414 394 395 424 401 418 416 431 423 431 430 431 433 441 439 455 450 461 461 451 461 461 463 455 457 464 467 465 467 466 469 471 467 475 470 468 469 471 473 476 471 471 475 473 473 478 474 466 480 475 473 481 475 476 467 473 464 465 465 468 467 458 466 461 468 462 461 460 453 458 455 466 462 460 461 456 452 447 456 450 469 449 442 456 461 445 461 449 451 442 457 462 447 428 431 450 468 431 460 458 481 466 0 0 0
196 179 219 209 201 231 231 228 227 278 358 365 359 366 355 342 363 357 383 372 374 398 379 391 408 410 404 415 423 433 441 441 440 441 440 444 442 445 443 440 439 451 445 447 444 446 454 451 453 454 454 453 452 453 454 455 457 452 458 462 456 457 456 458 458 453 455 454 452 451 457 452 441 446 438 438 436 430 425 426 432 420 412 428 412 420 428 430 418 422 427 437 419 412 415 409 408 411 402 406 435 395 423 415 420 396 399 420 419 417 419 397 426 390 402 393 390 408 362 0
278 271 241 221 229 221 231 231 251 341 335 330 337 344 338 334 343 331 352 350 348 348 361 382 372 377 397 403 413 410 409 429 416 427 427 428 427 437 427 432 432 433 427 430 438 430 438 437 435 437 439 437 439 447 448 443 443 443 445 445 443 443 443 443 440 437 436 435 445 435 435 435 434 425 411 422 405 406 407 401 389 391 396 382 403 397 393 385 392 396 397 392 401 399 398 382 382 409 391 397 395 394 379 395 385 394 381 388 373 389 385 383 392 370 389 388 414 390 390 403
294 294 268 239 240 235 234 242 296 318 324 318 312 312 308 309 313 315 311 318 321 317 343 340 356 368 374 383 394 403 396 403 397 404 409 402 407 416 414 418 414 414 418 414 411 419 413 422 416 416 417 416 426 424 420 427 423 422 419 424 419 421 416 421 418 419 420 419 417 419 407 406 410 401 395 387 382 370 370 366 369 367 362 367 365 362 363 364 357 363 352 366 363 375 379 355 353 365 356 352 367 358 370 381 347 351 368 368 349 368 361 354 365 342 362 353 372 380 355 384
260 276 266 270 259 240 245 280 263 277 275 272 267 281 271 274 286 291 275 282 278 298 304 316 326 344 356 365 368 371 382 388 386 382 385 381 391 390 390 392 395 383 387 395 388 393 391 383 394 392 389 395 396 398 395 390 394 397 396 396 392 391 395 394 393 384 396 396 392 397 390 389 391 385 378 358 358 341 334 328 334 332 323 335 330 331 338 329 314 335 315 334 339 326 342 322 324 309 326 332 327 321 316 322 331 326 325 345 329 318 318 312 324 322 327 327 337 285 325 308
251 252 251 252 248 243 257 250 261 270 255 266 254 257 261 268 267 259 275 280 277 286 291 302 312 309 334 343 346 358 359 361 367 366 358 365 364 369 373 365 371 369 376 368 374 373 370 372 367 375 375 373 371 383 385 384 374 381 377 380 378 372 379 371 371 370 372 374 369 373 362 365 358 361 346 349 331 323 311 314 313 306 302 303 297 315 298 304 307 301 303 307 310 313 297 298 294 296 302 298 315 312 315 296 309 302 301 300 306 307 319 300 323 315 287 305 320 337 317 305
218 222 218 228 236 231 231 241 246 244 231 254 247 250 243 234 246 253 254 253 258 259 268 276 298 293 310 323 329 326 330 335 343 340 340 344 344 346 348 350 341 354 350 349 347 350 350 345 348 342 348 346 350 350 350 351 352 351 352 354 353 356 346 341 351 348 347 350 352 346 344 340 340 342 322 323 318 296 288 289 277 284 284 281 283 280 273 270 276 278 280 292 285 276 273 271 279 280 279 280 276 282 270 277 272 278 272 267 277 276 271 285 296 288 283 285 294 281 277 284
217 217 233 223 227 220 213 222 214 228 236 221 225 241 232 223 233 233 230 239 242 248 253 261 275 277 296 290 301 308 310 312 319 320 315 325 316 318 323 327 316 323 319 322 325 322 325 328 320 325 326 326 330 324 326 329 322 318 329 327 323 325 327 323 326 329 326 324 321 323 324 320 317 307 303 300 281 277 269 270 263 268 262 263 261 258 253 257 252 255 258 260 266 253 257 263 263 254 262 256 257 262 256 263 252 256 261 266 252 261 265 265 264 264 252 267 246 265 268 282
208 214 206 222 216 215 212 220 212 212 215 209 211 214 218 218 219 224 225 227 228 234 245 244 256 263 268 277 279 284 290 295 299 294 298 303 296 307 303 306 299 298 299 302 308 299 304 302 304 308 304 296 297 305 302 305 306 303 302 307 309 305 304 306 303 309 305 300 304 310 299 302 299 290 285 281 268 260 256 252 247 247 252 249 247 249 254 240 245 245 239 252 244 244 243 237 245 239 245 241 246 242 255 255 250 241 242 242 249 252 244 252 254 270 260 262 235 249 247 276
178 195 194 203 195 202 202 204 199 205 203 184 203 188 185 207 189 206 204 211 209 225 228 227 239 246 250 255 261 264 271 266 274 271 277 276 281 278 281 276 279 284 285 287 282 281 279 283 285 285 280 278 276 280 279 282 285 281 281 286 284 285 284 284 282 285 285 282 284 282 279 276 275 273 265 259 255 242 243 233 233 229 228 230 227 227 223 223 225 233 224 230 224 227 219 226 218 221 226 224 215 229 223 225 222 219 222 231 221 231 233 231 246 237 247 223 233 214 225 239
179 181 191 191 184 181 199 200 181 177 179 180 185 178 177 180 183 190 189 187 204 209 216 231 224 229 241 239 241 246 259 252 257 260 260 260 262 259 266 262 266 263 265 264 265 259 266 267 266 267 265 265 264 265 263 270 266 270 264 275 262 263 263 270 264 269 271 270 269 266 264 259 253 257 249 239 238 233 228 220 220 218 216 217 212 223 221 218 209 215 213 220 214 210 215 213 212 209 215 211 219 211 209 217 210 210 215 214 211 218 219 224 235 226 211 219 233 226 219 212
173 178 166 178 180 171 178 175 178 177 181 184 175 180 185 186 181 186 188 185 188 188 189 210 214 222 220 220 226 228 233 238 244 240 242 241 239 237 247 248 242 240 246 249 253 250 243 246 245 252 245 251 246 245 243 250 248 252 248 253 249 244 247 251 242 251 252 252 244 248 249 244 240 237 230 226 223 219 216 197 197 190 190 186 189 189 192 195 190 188 192 195 196 189 184 185 187 184 191 196 184 208 205 191 191 188 201 200 188 206 200 208 210 206 209 202 212 204 218 218
168 177 177 170 174 169 171 171 172 173 178 169 174 169 175 178 177 183 187 183 186 178 182 190 193 191 213 212 216 224 226 224 219 228 226 225 228 228 226 229 228 230 232 232 233 238 227 229 237 231 234 234 236 231 233 232 236 236 234 236 232 233 230 235 235 235 233 231 237 233 236 233 229 223 219 215 212 193 198 198 193 187 191 188 192 184 193 191 191 185 190 191 189 189 190 191 189 188 184 185 184 180 175 183 191 174 183 178 173 178 174 184 177 188 192 191 199 193 178 195
163 166 172 171 171 170 171 172 170 169 164 161 170 169 170 174 172 172 174 181 176 182 176 190 185 182 190 192 189 209 195 211 207 213 211 212 214 214 214 198 217 220 220 217 218 222 219 217 222 224 218 217 221 222 222 218 222 221 219 219 214 221 223 218 217 217 219 221 218 221 221 216 214 216 193 193 190 195 191 191 187 183 187 185 189 183 185 176 183 185 184 182 181 183 185 185 185 180 183 186 185 185 184 184 181 182 180 179 172 180 172 181 176 172 199 171 198 193 192 205
150 154 161 159 158 159 159 160 161 160 157 161 161 159 159 157 158 169 165 177 175 175 179 179 181 186 185 185 192 192 192 188 183 185 185 189 186 191 189 193 193 191 194 192 195 191 194 192 193 195 196 197 193 196 199 193 198 193 189 191 199 199 213 191 192 195 194 195 195 198 194 195 194 191 197 198 195 187 187 177 179 177 173 172 175 169 174 179 174 176 178 175 169 175 171 172 169 166 173 169 166 175 171 171 173 169 171 169 164 168 173 171 171 176 171 169 175 185 172 170
143 150 150 151 155 155 155 160 158 153 156 157 155 152 157 155 156 160 155 164 167 166 176 176 176 177 177 182 180 187 189 184 188 188 190 186 189 192 191 189 194 193 190 196 195 195 194 194 192 195 192 198 196 198 186 193 198 198 196 200 194 193 197 189 192 194 196 199 198 195 196 193 192 191 190 184 186 186 175 169 173 166 168 165 165 169 174 167 171 171 167 165 169 167 169 167 164 164 163 167 166 168 169 169 167 162 162 165 166 168 168 167 171 175 175 177 161 176 171 165
145 140 147 148 147 147 146 146 151 149 148 149 151 155 151 150 153 150 153 159 162 164 163 173 170 168 174 174 176 178 177 179 180 179 177 181 185 180 183 180 183 181 184 183 185 185 187 185 185 186 187 188 187 188 188 186 186 190 0 187 189 186 186 186 190 187 187 190 185 184 188 184 181 178 172 177 175 172 169 165 161 161 164 158 157 157 164 163 163 159 161 162 163 163 160 160 157 157 159 164 161 165 163 158 157 158 160 158 164 160 156 162 161 161 164 165 165 172 163 169
132 139 136 140 139 147 147 143 142 144 140 145 142 146 141 145 141 146 148 151 158 159 160 164 164 168 169 169 166 171 169 171 174 174 169 174 177 173 175 173 173 180 175 174 174 177 174 177 177 177 179 176 177 179 180 181 181 0 0 177 178 180 178 181 179 179 178 180 177 172 175 176 172 172 168 169 165 164 161 161 157 158 151 153 156 159 155 151 152 153 147 148 153 155 148 149 151 152 154 155 154 148 154 151 146 144 147 152 159 147 154 150 146 148 148 146 149 148 162 136
138 132 130 136 143 141 148 141 143 142 142 143 144 144 144 139 142 148 145 142 149 152 159 155 165 159 161 161 161 161 162 166 169 164 163 166 164 168 167 171 175 0 169 166 171 176 171 170 171 174 173 172 174 173 176 0 170 169 0 173 171 0 175 175 173 170 173 167 172 173 167 165 169 168 166 162 166 159 157 154 152 156 151 150 151 150 150 149 149 153 146 152 149 154 151 149 149 151 154 149 149 145 147 148 145 148 142 143 147 147 151 152 152 151 154 141 142 154 163 160
129 122 124 123 134 134 139 136 133 128 134 131 133 132 136 135 135 135 138 138 140 146 149 151 149 157 157 153 156 160 159 154 157 162 156 154 163 162 0 0 0 0 0 0 0 0 0 167 165 165 166 164 166 167 0 0 170 168 167 0 0 0 0 0 167 166 165 0 161 164 163 166 162 159 157 152 152 157 149 150 149 146 144 145 144 150 140 146 142 144 141 145 143 144 136 140 142 145 143 141 135 139 141 138 134 133 136 139 142 138 142 149 155 152 151 136 138 143 146 134
116 127 125 116 129 133 131 132 135 123 127 130 125 133 120 126 131 137 137 135 139 143 144 145 150 145 150 155 153 153 154 153 157 157 151 152 152 0 0 0 0 0 0 0 0 0 0 0 0 161 161 158 0 0 0 0 0 0 0 0 0 0 0 0 162 0 0 0 0 0 0 158 158 154 151 150 151 148 148 146 139 138 144 140 139 143 143 136 143 138 136 139 135 140 138 138 143 140 137 139 138 132 137 134 132 131 133 129 138 144 136 154 140 140 143 133 130 126 142 145
119 104 120 121 128 116 129 129 128 125 131 129 119 119 121 131 132 132 129 129 136 133 133 141 139 140 146 147 146 148 152 148 150 153 151 150 0 0 0 0 0 0 0 0 0 0 0 0 147 150 154 0 0 0 0 0 0 0 0 0 0 0 0 0 0 0 0 0 0 0 0 0 149 149 150 147 149 141 139 143 130 141 137 138 129 128 136 139 135 137 136 140 133 128 122 129 139 135 132 132 130 133 131 121 131 134 136 132 129 140 137 140 130 140 136 138 136 126 112 143
106 109 111 111 106 113 120 116 115 118 114 109 115 116 127 121 121 121 118 117 129 124 125 123 137 141 138 139 142 140 143 142 144 144 143 140 0 0 0 0 0 0 0 0 0 0 0 0 145 0 0 0 0 0 0 0 0 0 0 0 0 0 0 0 0 0 0 0 0 0 0 0 143 139 139 140 139 127 127 130 125 120 122 120 125 117 124 124 125 126 123 122 113 128 125 133 126 131 121 118 117 130 129 118 119 130 117 120 128 132 126 132 111 130 110 131 119 110 119 109
112 107 113 116 112 114 115 125 121 115 115 118 116 112 120 123 122 119 122 115 119 114 123 119 135 137 138 136 0 135 0 0 0 137 140 0 0 0 0 0 0 0 0 0 0 0 0 0 0 0 0 0 0 0 0 0 0 0 0 0 0 0 0 0 0 0 0 0 0 0 0 0 0 142 125 126 124 122 120 123 120 117 121 123 115 121 117 120 121 117 116 122 117 113 112 120 117 118 118 118 121 123 130 125 115 113 127 122 109 130 127 114 122 119 128 122 113 134 147 138
103 100 109 110 103 104 107 105 102 103 107 107 105 105 107 110 109 114 117 107 112 115 112 114 119 117 125 119 0 126 0 0 0 0 126 0 0 0 0 0 0 0 0 0 0 0 0 0 0 0 0 0 0 0 0 0 0 0 0 0 0 0 0 0 0 0 0 0 0 0 0 0 130 0 0 124 120 119 121 116 117 117 108 113 110 119 110 113 113 114 114 113 108 112 109 106 113 113 114 110 113 111 108 109 113 116 111 106 109 101 110 114 106 131 122 118 107 136 115 160
97 100 90 92 100 99 101 102 103 105 103 101 106 106 105 104 103 106 117 105 108 110 107 107 117 111 113 118 119 122 0 125 0 0 0 0 0 0 0 0 0 0 0 0 0 0 0 0 0 0 0 0 0 0 0 0 0 0 0 0 0 0 0 0 0 0 0 0 0 0 0 0 0 119 0 115 119 116 112 111 112 112 106 102 112 109 106 115 107 110 113 112 111 111 106 115 107 104 97 116 107 108 108 99 107 114 110 111 105 113 101 96 114 93 98 114 114 98 104 115
100 102 98 102 99 99 101 93 93 99 96 96 100 95 99 91 106 103 110 117 113 105 96 106 111 107 113 113 112 118 120 117 122 0 0 0 0 0 0 0 0 0 0 0 0 0 0 0 0 0 0 0 0 0 0 0 0 0 0 0 0 0 0 0 0 0 0 0 0 0 0 0 120 123 108 121 113 119 118 116 103 110 101 119 108 105 105 102 104 105 104 106 112 93 101 100 107 102 111 106 104 113 107 108 111 108 111 95 101 99 101 99 110 96 105 100 131 109 101 113
86 85 82 84 81 83 79 94 88 83 87 92 93 94 89 85 77 93 88 90 92 87 99 106 101 104 113 105 0 112 106 108 114 0 0 0 0 0 0 0 0 0 0 0 0 0 0 0 0 0 0 0 0 0 0 0 0 0 0 0 0 0 0 0 0 0 0 0 0 0 0 115 110 110 105 112 107 106 103 98 102 101 97 94 97 96 90 96 105 99 93 95 102 82 85 94 94 101 84 96 90 96 91 91 84 86 96 91 85 89 80 88 85 94 92 99 93 101 108 145
93 84 90 88 94 95 97 104 92 92 96 90 93 92 97 96 98 90 102 95 95 103 106 103 103 105 111 105 0 103 109 108 116 112 118 106 110 0 0 0 0 116 0 0 0 0 0 0 0 0 0 0 0 0 0 0 0 0 0 0 112 0 0 0 110 0 0 0 110 0 107 109 114 109 112 107 107 112 100 98 110 100 105 88 94 96 101 101 98 102 105 105 107 97 98 104 98 91 99 110 103 97 98 99 91 98 96 85 86 82 93 95 87 102 98 91 98 116 133 146
85 91 90 90 96 98 87 89 84 97 86 94 86 94 90 85 92 96 99 93 99 93 100 110 88 102 103 101 102 108 94 0 105 101 100 102 0 113 115 0 0 0 0 0 0 0 0 0 0 0 0 0 0 0 0 0 0 106 0 0 106 104 103 109 111 114 104 100 112 109 107 105 101 102 110 107 101 92 102 96 97 95 101 82 96 92 93 102 107 93 97 105 106 85 84 83 88 90 97 87 90 82 87 98 92 88 103 95 94 88 91 92 86 104 99 84 126 113 116 98
84 86 81 87 92 90 102 85 89 79 88 87 85 90 92 88 89 87 91 89 77 90 92 83 85 92 93 90 105 91 96 99 97 97 93 109 98 101 104 101 104 96 100 110 107 90 0 0 93 0 0 108 105 93 100 108 103 105 109 105 99 103 111 101 101 111 101 97 97 110 99 104 104 101 104 91 93 95 97 89 92 89 91 96 88 91 88 89 95 95 100 88 94 91 92 90 85 84 90 81 88 89 90 90 87 82 91 87 84 90 88 92 88 92 81 90 99 96 107 128
84 79 84 84 85 88 99 98 87 90 84 81 87 82 85 88 87 94 91 95 85 96 93 87 91 93 92 88 99 98 92 87 98 96 97 97 97 97 92 107 100 96 100 105 101 97 103 0 102 101 97 103 100 99 99 101 101 107 98 104 107 95 97 104 102 98 96 103 94 107 100 103 99 96 105 84 93 97 92 84 98 94 86 92 96 97 87 95 94 87 83 98 88 92 91 92 90 92 98 83 80 98 83 87 88 100 89 94 88 88 84 89 99 100 101 117 107 87 107 81
79 76 70 69 80 84 86 84 86 76 89 79 88 80 89 83 88 85 84 83 92 85 93 88 85 86 93 95 86 94 92 92 93 95 94 85 94 85 89 97 93 88 83 89 86 92 88 103 93 90 96 87 96 91 88 83 102 85 97 95 95 82 98 77 98 82 97 92 97 84 94 85 90 93 90 91 91 93 91 94 88 91 82 83 84 92 88 85 86 88 94 79 86 81 85 86 84 82 80 89 81 88 81 69 86 81 86 85 86 81 70 84 84 94 99 105 142 128 130 69
72 71 79 85 73 84 81 88 81 80 84 89 77 82 81 85 85 89 83 90 84 88 84 92 86 83 90 84 94 95 84 95 91 94 86 89 95 94 89 94 94 96 93 88 84 98 88 94 99 90 90 85 96 97 104 98 90 96 87 96 97 98 92 95 88 94 91 96 103 92 95 92 87 83 96 96 95 96 94 93 91 89 89 87 78 87 88 80 94 92 76 88 77 84 91 80 90 87 78 82 84 81 79 76 76 81 84 86 77 87 83 88 87 89 85 110 112 116 75 144
