0 0 0 0 0 0 0 0 0 0 0 0 0 0 0 0 0 0 0 0 0 0 0 0 0 0 0 0 0 0 0 0 0 0 0 0 0 0 0 0 0 0 0 0 0 0 0 0 0 0 0 0 0 0 0 0 0 0 0 0 0 0 0 0 0 0 0 0 0 0 0 0 0 0 0 0 0 0 0 0 0 0 0 0 0 0 0 0 0 0 0 0 0 0 0 0 0 0 0 0 0 0 0 0 0 0 0 0 0 0 0 0 0 0 0 0 0 0 0 0
0 0 0 0 0 0 0 0 0 0 0 0 0 0 0 0 0 0 0 0 0 0 0 0 0 0 0 0 0 0 0 0 0 0 0 0 0 0 0 0 0 0 0 0 0 0 0 0 0 0 0 0 0 0 0 0 0 0 0 0 0 0 0 0 0 0 0 0 0 0 0 0 0 0 0 0 0 0 0 0 0 0 0 0 0 0 0 0 0 0 0 0 0 0 0 0 0 0 0 0 0 0 0 0 0 0 0 0 0 0 0 0 0 0 0 0 0 0 0 0
0 0 0 0 0 0 0 0 0 0 0 0 0 0 0 0 0 0 0 0 0 0 0 0 0 0 0 0 0 0 0 0 0 0 0 0 0 0 0 0 0 0 0 0 0 0 0 0 0 0 0 0 0 0 0 0 0 0 0 0 0 0 0 0 0 0 0 0 0 0 0 0 0 0 0 0 0 0 0 0 0 0 0 0 0 0 0 0 0 0 0 0 0 0 0 0 0 0 0 0 0 0 0 0 0 0 0 0 0 0 0 0 0 0 0 0 0 0 0 0
0 0 0 0 0 0 0 0 0 0 0 0 0 0 0 0 0 0 0 0 0 0 0 0 0 0 0 0 0 0 0 0 0 0 0 0 0 0 0 0 0 0 0 0 0 0 0 0 0 0 0 0 0 0 0 0 0 0 0 0 0 0 0 0 0 0 0 0 0 0 0 0 0 0 0 0 0 0 0 0 0 0 0 0 0 0 0 0 0 0 0 0 0 0 0 0 0 0 0 0 0 0 0 0 0 0 0 0 0 0 0 0 0 0 0 0 0 0 0 0
0 0 0 0 0 0 0 0 0 0 0 0 0 0 0 0 0 0 0 0 0 0 0 0 0 0 0 0 0 0 0 0 0 0 0 0 0 0 0 0 0 0 0 0 0 0 0 0 0 0 0 0 0 0 0 0 0 0 0 0 0 0 0 0 0 0 0 0 0 0 0 0 0 0 0 0 0 0 0 0 0 0 0 0 0 0 0 0 0 0 0 0 0 0 0 0 0 0 0 0 0 0 0 0 0 0 0 0 0 0 0 0 0 0 0 0 0 0 0 0
0 0 0 0 0 0 0 0 0 0 0 0 0 0 0 0 0 0 0 0 0 0 0 0 0 0 0 0 0 0 0 0 0 0 0 0 0 0 0 516 519 522 514 510 525 548 517 538 526 521 525 510 522 545 562 0 0 0 0 0 0 0 0 0 0 0 0 0 0 0 0 0 0 0 0 0 0 0 0 0 0 0 0 0 0 0 0 0 0 0 0 0 0 0 0 0 0 0 0 0 0 0 0 0 0 0 0 0 0 0 0 0 0 0 0 0 0 0 0 0
0 0 0 0 0 0 0 0 0 0 0 0 0 0 0 0 0 0 0 0 0 0 0 0 0 0 0 0 0 0 0 0 0 0 0 0 0 497 489 508 514 487 500 479 497 512 514 516 504 524 498 501 513 508 503 507 531 499 491 527 0 0 0 0 0 0 0 0 0 0 0 0 0 0 0 0 0 0 0 0 0 0 0 0 0 0 0 0 0 0 0 0 0 0 0 0 0 0 0 0 0 0 0 0 0 0 0 0 0 0 0 0 0 0 0 0 0 0 0 0
0 0 0 0 0 0 0 0 0 0 0 0 0 0 0 0 0 0 0 0 0 0 0 0 0 0 0 0 0 0 0 0 0 0 0 481 495 505 498 491 499 494 498 500 479 492 503 512 508 493 497 494 502 499 521 514 511 506 502 496 501 496 517 512 481 0 0 0 0 0 0 0 0 0 0 0 0 0 0 0 0 0 0 0 0 0 0 0 0 0 0 0 0 0 0 0 0 0 0 0 0 0 0 0 0 0 0 0 0 0 0 0 0 0 0 0 0 0 0 0
0 0 0 0 0 0 0 0 0 0 0 0 0 0 0 0 0 0 0 0 0 0 0 0 0 0 0 0 0 0 0 0 0 531 502 508 502 506 497 509 516 502 493 505 512 501 502 506 504 511 503 498 511 500 498 516 504 519 505 514 497 511 506 521 519 499 524 561 577 585 618 564 618 0 616 616 622 584 580 574 0 0 0 0 0 0 0 0 0 0 0 0 0 0 0 0 0 0 0 0 0 0 0 0 0 0 0 0 0 0 0 0 0 0 0 0 0 0 0 0
0 0 0 0 0 0 0 0 0 0 0 0 0 0 0 0 0 0 0 0 0 0 0 0 0 0 0 0 0 0 0 463 494 508 494 506 491 496 509 485 500 490 499 497 492 492 510 495 509 497 492 502 503 509 507 504 515 508 503 502 500 496 502 504 494 504 499 509 504 509 510 524 543 523 557 544 571 524 513 577 555 559 558 508 0 564 0 539 516 531 502 527 587 556 512 531 528 545 571 535 0 534 581 540 0 0 0 0 0 0 0 0 0 0 0 0 0 0 0 0
0 0 0 0 0 0 0 0 0 0 0 0 0 0 0 0 0 0 0 0 0 0 0 0 0 0 0 0 0 0 498 490 511 489 505 497 489 508 501 500 502 500 500 502 502 513 509 501 502 514 505 506 510 515 507 514 506 507 498 514 504 503 515 517 509 514 507 515 507 514 537 504 545 572 559 560 542 569 560 585 556 566 573 556 550 575 571 582 544 551 567 544 566 565 571 526 559 572 536 587 565 565 560 567 549 598 605 0 0 0 0 0 0 0 0 0 0 0 0 0
0 0 0 0 0 0 0 0 0 0 0 0 0 0 0 0 0 0 0 0 0 0 0 0 0 0 0 0 494 513 512 497 502 504 502 495 498 504 497 504 511 508 502 503 516 509 512 510 503 507 504 507 516 511 508 504 510 508 506 516 509 505 515 515 507 500 507 509 512 514 524 525 592 589 591 610 564 596 564 585 585 611 596 591 569 589 570 607 518 607 560 573 605 585 624 585 623 569 551 628 579 537 552 562 626 540 596 639 0 0 0 0 0 0 0 0 0 0 0 0
0 0 0 0 0 0 0 0 0 0 0 0 0 0 0 0 0 0 0 0 0 0 0 0 0 0 0 488 495 506 496 492 500 502 489 508 503 499 504 493 501 500 503 509 495 505 502 502 505 496 504 498 501 501 506 501 509 513 503 504 508 505 515 516 505 511 508 514 507 501 511 517 560 564 531 550 562 535 556 552 538 576 555 514 554 560 570 547 526 553 561 576 582 577 530 545 543 542 603 542 550 544 533 542 534 501 550 520 473 0 0 0 0 0 0 0 0 0 0 0
0 0 0 0 0 0 0 0 0 0 0 0 0 0 0 0 0 0 0 0 0 0 0 0 0 0 506 518 508 506 509 510 495 508 509 504 499 488 512 496 506 502 496 512 500 520 509 503 504 506 517 506 507 517 516 505 507 505 513 510 511 521 513 510 502 516 517 510 512 503 512 511 533 595 553 566 578 595 589 572 544 599 566 610 629 614 607 620 550 599 598 577 561 560 586 597 613 562 605 598 564 585 576 575 585 600 581 548 583 0 0 0 0 0 0 0 0 0 0 0
0 0 0 0 0 0 0 0 0 0 0 0 0 0 0 0 0 0 0 0 0 0 0 0 0 473 489 501 508 498 497 498 500 495 490 495 496 504 506 506 502 499 510 506 504 493 511 507 494 496 501 508 501 504 506 507 503 505 508 508 505 511 506 514 509 500 494 507 505 514 503 506 514 525 532 540 565 541 564 547 515 547 554 551 551 541 565 559 549 555 565 574 523 588 562 552 559 557 550 535 557 560 550 515 565 544 531 580 569 0 559 0 0 0 0 0 0 0 0 0
0 0 0 0 0 0 0 0 0 0 0 0 0 0 0 0 0 0 0 0 0 0 0 0 0 492 498 488 494 486 495 492 501 497 486 496 500 496 505 498 499 492 506 497 506 508 511 501 496 498 503 503 507 497 499 502 504 502 504 508 500 501 511 515 501 503 510 508 501 510 509 510 510 514 550 521 533 529 520 588 534 538 531 552 493 529 520 536 530 529 521 540 543 533 528 514 545 544 571 537 571 528 515 502 552 552 587 511 491 509 566 0 545 521 0 0 0 0 0 0
0 0 0 0 0 0 0 0 0 0 0 0 0 0 0 0 0 0 0 0 0 0 0 0 496 491 493 485 498 493 495 491 502 500 496 503 505 498 500 500 498 500 496 498 502 514 513 508 505 507 499 503 507 508 506 516 498 502 503 503 506 505 507 509 504 506 508 505 501 509 503 520 513 510 543 539 530 533 540 545 543 550 557 539 535 543 561 567 522 522 552 566 560 557 576 579 545 561 537 561 540 582 583 553 563 539 543 556 570 522 0 0 0 0 0 0 0 0 0 0
0 0 0 0 0 0 0 0 0 0 0 0 0 0 0 0 0 0 0 0 0 0 0 0 487 483 491 478 489 490 495 493 494 479 491 495 495 492 491 498 498 488 497 494 489 501 500 511 501 497 508 503 505 505 499 495 501 506 500 502 508 500 503 503 503 508 499 507 503 507 500 505 505 509 498 523 502 492 517 495 485 535 513 531 517 486 515 524 528 476 529 532 540 510 521 512 515 500 506 518 526 532 521 510 524 537 546 527 495 522 0 0 0 0 0 0 0 0 0 0
0 0 0 0 0 0 0 0 0 0 0 0 0 0 0 0 0 0 0 0 0 0 0 470 493 495 497 490 492 491 496 495 493 493 494 493 503 492 501 505 502 491 501 503 502 501 503 508 499 504 505 497 508 511 507 503 504 504 505 504 515 499 503 506 508 501 509 513 509 505 512 508 503 506 512 519 525 503 541 561 546 559 541 552 573 534 541 542 553 546 547 542 548 527 521 534 532 538 513 552 522 529 546 524 528 562 526 574 504 527 529 0 0 0 0 0 0 0 0 0
0 0 0 0 0 0 0 0 0 0 0 0 0 0 0 0 0 0 0 0 0 0 0 503 490 497 485 488 484 494 500 497 497 489 484 494 487 495 493 502 492 500 497 496 510 504 501 507 499 505 504 503 503 503 500 506 506 510 510 508 497 502 496 504 504 501 504 508 502 514 507 506 510 511 508 514 524 511 551 547 528 541 550 536 543 543 541 545 533 530 527 536 517 539 556 558 522 577 551 562 538 530 537 594 563 563 535 570 523 570 544 0 0 0 0 0 0 0 0 0
0 0 0 0 0 0 0 0 0 0 0 0 0 0 0 0 0 0 0 0 0 0 449 492 494 485 491 488 487 486 485 502 492 498 479 494 488 489 491 493 493 499 492 499 487 492 508 491 494 512 494 498 501 500 506 503 501 499 505 501 507 510 503 503 497 507 508 502 502 509 509 512 511 505 498 507 505 525 529 494 541 486 528 541 514 554 527 505 506 522 534 537 531 565 532 525 519 512 534 523 509 485 506 524 546 519 500 535 559 570 534 494 472 0 0 0 0 0 0 0
0 0 0 0 0 0 0 0 0 0 0 0 0 0 0 0 0 0 0 0 0 0 486 491 488 486 489 501 497 493 498 491 497 496 493 489 494 494 499 498 503 496 497 497 499 508 503 505 502 502 503 503 501 506 504 509 501 512 511 504 505 510 508 508 507 509 517 512 510 504 509 514 509 509 509 510 530 556 562 543 558 561 560 555 529 552 544 550 550 539 525 546 528 545 538 556 559 555 557 551 539 548 579 544 570 545 582 552 566 516 567 557 0 0 0 0 0 0 0 0
0 0 0 0 0 0 0 0 0 0 0 0 0 0 0 0 0 0 0 0 0 0 500 485 481 480 488 496 497 488 491 484 483 485 484 483 489 492 488 490 500 492 497 501 493 497 498 500 497 504 500 503 501 496 503 504 500 511 500 497 507 504 502 504 502 505 504 496 499 509 505 507 515 496 519 506 506 520 538 546 491 536 531 518 521 556 509 503 545 525 508 555 531 528 524 526 506 530 554 520 518 541 530 499 554 495 559 538 590 525 564 541 504 0 0 0 0 0 0 0
0 0 0 0 0 0 0 0 0 0 0 0 0 0 0 0 0 0 0 0 0 0 486 493 492 486 492 488 484 488 485 486 484 489 485 484 484 492 499 491 495 494 493 493 491 492 495 497 497 503 498 497 500 501 493 497 496 505 503 496 504 506 510 502 502 500 502 505 500 509 509 499 495 500 504 510 506 505 516 509 510 479 483 519 519 550 490 508 512 497 540 504 530 497 493 512 502 535 507 517 491 496 512 507 505 521 522 556 460 494 479 485 511 507 0 0 0 0 0 0
0 0 0 0 0 0 0 0 0 0 0 0 0 0 0 0 0 0 0 0 0 0 477 486 484 488 490 491 500 495 485 491 489 489 490 490 491 484 489 499 492 496 505 501 497 491 493 492 498 502 507 500 500 504 499 504 498 499 499 497 503 502 502 496 502 500 505 496 504 510 509 504 506 504 511 509 514 512 521 527 540 526 547 539 523 556 509 519 512 516 551 555 528 529 484 508 520 508 564 518 533 499 529 532 568 536 579 530 543 517 494 571 536 0 0 0 0 0 0 0
0 0 0 0 0 0 0 0 0 0 0 0 0 0 0 0 0 0 0 0 0 0 487 476 485 489 485 482 488 487 492 478 486 485 494 484 482 486 501 496 491 495 496 495 496 490 495 495 495 494 499 492 499 506 494 501 509 499 499 493 499 500 498 500 504 501 499 494 501 502 504 503 503 503 501 501 504 512 499 498 526 495 498 485 518 500 482 507 494 498 471 539 537 516 481 534 489 522 513 502 517 513 551 490 494 499 467 512 523 0 481 522 517 0 0 0 0 0 0 0
0 0 0 0 0 0 0 0 0 0 0 0 0 0 0 0 0 0 0 0 0 470 475 488 483 487 488 493 500 495 482 494 492 497 497 490 495 488 491 500 492 494 490 502 495 494 492 497 496 491 498 497 498 500 494 500 499 500 499 499 504 503 496 501 500 503 506 503 502 506 506 506 506 506 512 510 503 517 529 499 504 511 530 500 526 536 522 521 510 526 511 523 512 495 520 492 545 497 536 508 517 534 503 512 537 532 477 562 550 538 540 0 0 0 0 0 0 0 0 0
0 0 0 0 0 0 0 0 0 0 0 0 0 0 0 0 0 0 0 0 0 467 486 485 490 481 486 487 485 479 482 489 495 493 483 489 495 492 493 490 496 492 494 493 497 494 496 490 497 496 500 500 498 505 506 503 506 504 499 504 504 496 501 499 509 501 502 508 503 499 506 504 501 506 509 504 517 512 546 496 511 501 506 505 539 497 537 555 523 511 522 508 521 522 542 513 523 512 531 511 526 534 563 556 500 511 511 513 521 552 535 527 0 0 0 0 0 0 0 0
0 0 0 0 0 0 0 0 0 0 0 0 0 0 0 0 0 0 0 0 0 467 475 481 483 475 484 481 480 480 480 477 490 487 489 489 483 492 485 486 491 490 490 487 493 491 497 493 497 492 497 497 491 497 497 507 499 496 503 495 501 501 497 495 500 497 506 504 508 503 507 500 503 506 506 495 509 500 516 515 496 509 498 503 485 506 502 510 529 502 526 486 503 507 498 518 486 513 509 521 499 522 472 492 513 510 516 513 515 524 480 476 478 0 0 0 0 0 0 0
0 0 0 0 0 0 0 0 0 0 0 0 0 0 0 0 0 0 0 0 0 458 476 478 488 486 484 481 480 486 481 494 497 495 495 491 489 486 490 492 495 491 492 495 495 496 490 494 502 500 495 504 500 503 498 500 495 503 505 501 495 502 496 504 506 501 509 509 503 509 505 498 511 502 506 512 494 502 519 494 542 515 538 516 514 506 525 511 511 507 539 523 536 536 532 521 505 541 534 560 570 523 503 523 516 534 540 533 557 535 511 563 535 0 530 0 0 0 0 0
0 0 0 0 0 0 0 0 0 0 0 0 0 0 0 0 0 0 0 0 0 428 483 482 482 479 476 485 483 480 480 481 484 485 491 485 483 490 491 486 493 491 488 497 493 487 487 491 492 491 493 498 498 497 500 495 499 495 497 497 499 499 494 497 498 509 506 497 501 503 495 497 499 503 500 501 500 516 503 490 492 506 523 492 530 506 490 503 524 519 482 491 503 504 489 514 473 491 490 515 484 527 513 525 485 524 479 503 479 479 462 483 476 0 0 0 0 0 0 0
0 0 0 0 0 0 0 0 0 0 0 0 0 0 0 0 0 0 0 0 0 444 476 478 478 479 474 479 482 488 486 484 484 479 490 487 482 488 489 492 487 493 491 489 493 489 498 493 495 492 493 496 490 497 497 498 497 496 497 497 497 497 502 503 496 503 500 499 499 504 500 496 497 501 499 499 499 493 490 485 491 502 499 517 501 501 509 494 507 485 506 509 488 497 520 505 506 504 519 511 496 500 480 501 498 496 519 507 499 497 510 550 481 444 0 0 0 0 0 0
0 0 0 0 0 0 0 0 0 0 0 0 0 0 0 0 0 0 0 0 0 457 484 475 477 482 485 488 481 482 485 487 483 488 481 487 484 493 488 490 490 492 492 488 491 491 491 492 490 497 497 495 490 498 497 498 496 499 496 497 498 496 500 495 505 499 496 499 499 506 507 501 508 508 500 504 499 507 521 500 491 499 518 505 507 508 515 499 534 497 508 495 530 527 513 521 547 498 512 543 540 483 513 509 523 505 509 520 530 488 520 542 477 483 0 0 0 0 0 0
0 0 0 0 0 0 0 0 0 0 0 0 0 0 0 0 0 0 0 0 0 438 474 473 474 478 480 480 474 478 480 486 483 482 482 480 483 481 485 485 485 483 485 490 487 492 490 486 492 490 487 492 492 493 493 494 492 497 497 496 498 494 500 497 497 499 500 500 497 499 499 494 498 496 492 496 495 496 476 469 491 495 484 485 491 505 508 487 498 512 474 486 492 484 513 485 474 464 483 486 473 513 478 473 520 482 477 490 457 473 461 469 532 0 0 0 0 0 0 0
0 0 0 0 0 0 0 0 0 0 0 0 0 0 0 0 0 0 0 0 0 478 480 477 477 476 477 482 483 477 482 488 484 487 484 483 481 482 484 494 487 484 488 487 491 495 495 497 495 497 495 496 492 495 491 500 497 499 497 495 496 503 503 500 501 499 497 498 498 500 504 495 502 502 499 501 498 495 500 506 512 500 526 522 504 485 496 494 507 513 527 519 520 511 496 499 502 482 490 510 518 514 534 521 526 517 529 519 544 526 488 545 535 555 0 0 0 0 0 0
0 0 0 0 0 0 0 0 0 0 0 0 0 0 0 0 0 0 0 0 0 454 471 472 478 477 479 476 479 481 473 480 480 477 484 483 488 485 483 485 485 485 489 491 488 491 490 491 492 495 490 493 502 487 501 496 496 498 501 497 493 500 498 496 496 501 501 501 501 501 498 498 503 500 498 496 502 491 488 489 509 497 506 494 503 509 510 489 510 524 515 498 509 519 520 532 497 487 484 509 485 505 506 505 522 514 533 526 518 501 515 520 497 516 0 0 0 0 0 0
0 0 0 0 0 0 0 0 0 0 0 0 0 0 0 0 0 0 0 0 0 459 481 470 479 470 479 477 473 476 481 484 480 484 483 482 483 481 480 484 485 484 486 489 489 493 492 492 489 495 486 492 491 494 495 492 489 491 493 493 494 495 496 498 497 499 498 496 498 494 498 493 496 502 497 491 489 497 506 487 485 484 479 483 495 480 490 482 472 479 484 503 513 475 483 491 483 485 487 516 480 485 466 487 489 499 475 471 483 457 486 511 457 512 0 0 0 0 0 0
0 0 0 0 0 0 0 0 0 0 0 0 0 0 0 0 0 0 0 0 0 0 478 474 479 480 475 479 482 482 484 478 490 479 486 476 487 483 487 487 487 488 486 492 490 488 492 494 498 494 497 499 495 499 495 495 491 498 497 495 502 500 498 499 500 501 496 497 496 505 496 499 500 499 498 498 496 495 505 495 511 507 514 516 497 498 514 528 522 533 513 523 522 504 518 508 543 541 549 525 533 512 540 546 528 541 508 544 495 542 535 512 484 560 523 0 0 0 0 0
0 0 0 0 0 0 0 0 0 0 0 0 0 0 0 0 0 0 0 0 0 0 499 477 469 476 478 479 479 479 480 476 485 483 481 483 479 479 489 482 489 486 484 482 485 486 485 491 486 493 492 492 491 497 489 490 494 494 490 495 497 494 494 498 496 497 500 496 496 495 500 496 496 499 496 496 496 494 501 508 511 530 532 501 495 528 489 487 510 503 510 497 502 505 508 510 486 509 503 506 503 519 496 486 462 487 490 551 503 505 486 462 481 493 0 0 0 0 0 0
0 0 0 0 0 0 0 0 0 0 0 0 0 0 0 0 0 0 0 0 0 0 509 472 474 477 473 475 477 475 478 478 481 483 482 482 486 482 483 481 489 481 488 487 491 490 488 486 490 497 490 499 493 495 492 491 494 489 497 496 498 494 495 491 495 497 500 496 489 496 494 500 497 498 492 496 494 496 481 492 506 496 492 499 508 493 511 502 513 516 522 512 500 472 477 508 513 501 492 524 494 520 481 486 471 453 475 486 508 524 492 495 437 484 472 476 0 0 0 0
0 0 0 0 0 0 0 0 0 0 0 0 0 0 0 0 0 0 0 0 0 0 605 474 477 473 483 481 473 474 479 478 478 475 481 478 487 480 479 483 486 489 486 490 486 485 494 487 497 491 494 493 497 495 496 496 494 494 492 493 495 495 504 496 495 497 502 497 499 495 493 496 496 499 492 496 495 492 492 490 512 500 511 510 494 510 506 528 520 517 508 493 520 543 519 516 502 530 493 492 512 527 505 495 501 502 500 518 490 497 496 471 522 515 537 0 0 0 0 0
0 0 0 0 0 0 0 0 0 0 0 0 0 0 0 0 0 0 0 0 0 0 0 476 468 468 478 474 473 475 473 482 480 484 475 475 474 477 478 479 483 486 483 487 487 484 489 486 490 491 490 491 494 488 486 493 487 490 490 491 493 492 491 494 496 499 490 494 493 492 500 493 494 493 492 494 488 495 485 501 480 486 474 483 494 494 490 493 471 468 487 495 500 487 479 508 463 478 474 490 491 487 494 468 501 469 474 465 464 466 469 429 459 0 0 0 0 0 0 0
0 0 0 0 0 0 0 0 0 0 0 0 0 0 0 0 0 0 0 0 0 0 0 491 469 473 475 474 475 473 476 475 480 477 483 479 481 479 485 479 486 485 490 487 485 486 490 488 493 493 492 491 492 493 490 494 495 492 492 489 493 496 497 491 492 493 499 490 494 495 492 495 496 496 494 491 481 498 491 495 503 495 484 495 501 488 488 495 486 530 497 500 499 520 491 498 524 513 548 505 511 530 474 501 488 482 497 475 493 474 489 480 475 535 0 0 0 0 0 0
0 0 0 0 0 0 0 0 0 0 0 0 0 0 0 0 0 0 0 0 0 0 0 525 468 473 470 475 468 472 477 474 478 475 476 481 480 485 480 483 486 478 484 488 487 492 488 487 491 486 490 494 490 486 497 487 496 498 486 489 499 491 494 497 495 494 493 496 494 489 497 494 494 497 493 487 493 495 517 505 500 515 495 490 529 498 506 521 514 509 516 517 515 499 524 504 488 514 522 507 529 508 536 466 495 510 509 505 511 497 493 500 527 528 0 0 0 0 0 0
0 0 0 0 0 0 0 0 0 0 0 0 0 0 0 0 0 0 0 0 0 0 0 0 480 470 465 468 471 473 474 472 470 481 475 477 479 476 476 480 483 483 482 486 488 488 485 485 492 487 488 488 487 490 490 492 491 489 491 496 493 491 493 494 496 495 493 494 493 492 499 497 497 498 487 486 492 507 486 491 484 495 501 493 505 504 499 512 497 498 494 489 501 479 521 499 491 486 507 498 495 498 487 507 488 483 501 489 474 479 464 463 503 445 452 417 0 0 0 0
0 0 0 0 0 0 0 0 0 0 0 0 0 0 0 0 0 0 0 0 0 0 0 0 533 474 473 476 474 472 480 478 477 480 480 482 478 480 481 486 482 486 483 486 491 488 488 490 483 494 491 492 491 491 488 490 496 491 497 490 496 490 495 495 492 496 498 495 496 493 495 496 494 492 499 488 497 505 497 486 516 510 500 515 530 515 509 510 507 501 519 541 504 538 575 527 517 520 533 529 521 530 518 487 512 473 502 489 511 502 484 536 481 486 513 0 0 0 0 0
0 0 0 0 0 0 0 0 0 0 0 0 0 0 0 0 0 0 0 0 0 0 0 0 0 468 465 474 468 466 468 472 476 470 473 477 480 474 479 480 477 485 484 485 482 481 483 483 484 490 489 482 488 487 485 489 490 486 487 493 493 492 493 492 489 490 487 493 491 492 489 490 492 490 493 488 480 486 488 496 492 489 485 490 486 491 500 482 501 483 482 487 483 485 495 490 509 511 475 514 503 498 484 491 482 500 480 526 460 497 521 462 464 487 447 0 0 0 0 0
0 0 0 0 0 0 0 0 0 0 0 0 0 0 0 0 0 0 0 0 0 0 0 0 0 506 472 469 469 473 466 468 472 469 476 473 476 469 477 473 480 480 483 482 481 480 479 483 483 484 489 478 484 491 486 493 492 490 487 487 492 491 496 486 493 493 488 490 489 487 493 486 490 490 487 486 490 485 495 482 494 487 480 484 479 484 493 482 479 468 480 500 480 479 499 512 506 512 491 521 510 507 482 488 492 476 467 467 484 458 462 481 477 513 455 0 0 0 0 0
0 0 0 0 0 0 0 0 0 0 0 0 0 0 0 0 0 0 0 0 0 0 0 0 0 0 495 474 467 469 472 468 472 474 474 475 477 479 476 475 480 479 482 480 483 480 481 480 488 480 483 486 486 485 489 486 488 492 490 492 487 491 487 489 491 490 490 491 491 488 492 492 493 492 491 493 485 487 493 491 499 497 490 481 477 500 490 477 498 495 494 501 485 493 477 488 492 494 497 493 506 502 494 537 508 492 472 481 486 490 450 498 457 543 0 0 0 0 0 0
0 0 0 0 0 0 0 0 0 0 0 0 0 0 0 0 0 0 0 0 0 0 0 0 0 0 0 462 465 466 463 472 471 467 466 472 473 475 477 474 476 478 476 480 469 478 474 479 484 482 480 486 479 482 482 484 487 486 481 488 483 484 491 490 488 486 485 488 490 489 489 486 485 479 476 468 477 471 492 474 475 472 484 467 488 477 476 471 465 479 480 480 475 479 473 470 500 481 471 458 495 474 488 467 450 479 462 453 438 454 433 411 427 438 0 0 0 0 0 0
0 0 0 0 0 0 0 0 0 0 0 0 0 0 0 0 0 0 0 0 0 0 0 0 0 0 0 540 468 468 471 472 468 471 471 469 474 473 474 474 476 474 478 481 479 478 483 478 483 484 482 483 484 488 483 488 484 483 478 487 487 488 486 489 492 485 489 485 493 482 483 487 482 484 482 499 492 478 481 505 473 492 504 506 497 481 471 477 483 488 502 476 481 484 485 502 490 494 513 498 484 482 502 495 453 461 507 479 491 476 480 488 517 454 453 0 0 0 0 0
0 0 0 0 0 0 0 0 0 0 0 0 0 0 0 0 0 0 0 0 0 0 0 0 0 0 0 0 498 462 464 466 469 470 473 467 476 474 474 480 478 472 480 479 477 480 476 481 479 480 485 482 484 482 480 482 484 484 487 488 489 488 477 489 484 487 486 485 486 487 484 482 482 493 488 499 497 488 483 489 489 484 482 492 487 489 497 502 488 486 504 489 480 502 505 497 499 498 491 497 508 501 490 515 503 468 512 472 459 488 470 543 489 511 492 0 0 0 0 0
0 0 0 0 0 247 237 255 296 0 0 0 0 0 0 0 0 0 0 0 0 2322 0 0 0 0 0 0 0 489 460 464 469 470 465 474 474 471 468 473 473 477 476 472 476 475 473 477 479 480 479 479 479 481 480 479 482 484 478 482 482 485 489 485 485 492 483 481 486 481 476 474 478 468 476 480 483 474 496 484 478 477 481 493 471 486 460 486 479 472 479 486 472 460 473 480 483 470 482 498 463 480 484 469 431 456 464 457 459 447 455 451 424 421 434 0 0 0 0 0
0 0 0 0 259 236 239 234 238 283 388 0 0 0 0 0 0 0 0 0 0 0 0 0 0 0 0 0 0 0 472 470 465 470 470 475 473 472 474 473 475 476 475 475 479 477 476 475 480 480 480 485 485 480 477 482 483 483 485 479 483 484 482 485 486 487 484 479 490 482 484 487 492 487 486 494 492 492 489 493 499 483 478 480 487 503 501 481 509 508 495 493 485 475 497 489 503 498 493 506 478 517 502 509 504 493 507 483 507 481 500 519 500 0 0 0 0 0 0 0
0 0 0 222 218 223 225 225 237 235 313 0 0 0 0 0 0 0 0 0 0 0 0 0 0 0 0 0 0 0 0 474 462 464 465 468 465 470 475 465 469 472 468 469 466 474 471 477 475 479 476 479 472 473 477 478 485 475 479 476 479 479 475 482 476 482 482 481 479 482 466 472 475 477 476 476 479 479 476 461 468 480 491 483 473 479 479 463 466 478 473 470 489 468 486 478 462 463 467 478 482 480 451 470 448 453 457 472 441 452 462 496 483 446 452 0 0 0 0 0
240 217 244 244 263 271 259 232 236 240 319 0 398 415 427 418 417 423 429 422 473 461 443 446 461 430 431 446 445 444 457 467 457 465 461 467 467 469 464 465 463 473 472 467 473 471 476 474 471 478 477 475 471 483 475 477 481 476 477 477 477 480 474 483 474 480 477 479 468 476 480 476 469 476 479 469 470 478 467 474 475 466 478 471 474 470 468 478 452 479 474 470 477 473 464 463 472 464 483 490 473 468 464 456 463 506 464 440 454 470 441 440 452 442 447 456 0 0 0 0
170 242 222 232 244 246 246 231 231 264 380 378 379 404 424 404 411 400 412 416 400 412 421 427 423 435 427 426 443 437 455 458 458 454 452 455 456 461 466 459 462 467 457 463 464 464 466 469 475 467 469 475 473 475 475 473 469 472 472 477 474 472 470 476 471 470 472 474 469 469 467 464 473 467 459 459 462 460 457 461 462 463 468 467 447 461 460 467 459 465 458 449 459 465 448 444 457 446 466 466 464 474 460 431 469 455 439 434 460 428 448 460 431 449 479 478 480 515 0 0
164 194 183 202 206 230 233 227 229 273 327 345 366 349 363 360 372 376 366 383 377 380 375 393 402 400 403 419 429 435 437 439 443 439 441 447 439 440 446 441 444 456 452 449 446 448 446 455 449 455 452 454 460 455 450 455 454 452 456 458 460 465 454 460 461 458 457 456 449 457 454 450 446 446 435 434 421 423 419 428 431 425 422 427 416 419 429 411 419 411 418 426 421 416 412 424 427 407 418 414 409 397 404 428 412 415 391 404 419 405 397 408 401 410 385 401 396 420 0 0
303 290 244 224 229 230 229 231 246 348 330 326 322 350 331 320 348 341 353 347 348 363 363 365 381 384 387 400 414 418 420 429 417 425 430 433 436 435 432 432 432 436 430 432 437 438 438 444 445 434 445 443 443 446 441 437 444 443 444 444 446 449 446 444 445 444 442 437 440 433 437 430 430 427 420 419 411 413 411 399 397 396 403 396 401 402 405 401 399 399 402 391 402 388 395 400 388 407 394 401 396 389 406 404 399 393 380 386 384 373 405 365 389 392 400 400 403 387 475 440
283 304 285 243 230 232 235 248 287 290 315 298 308 312 307 326 304 305 312 322 326 317 327 334 354 368 378 392 391 392 394 399 409 413 410 407 413 412 411 417 414 415 411 411 416 416 420 427 417 417 413 412 418 420 420 421 422 429 420 427 419 420 417 420 427 422 421 417 418 417 419 411 404 399 400 384 382 377 377 370 367 357 355 369 360 362 370 363 356 368 369 369 368 371 369 363 359 370 370 359 361 370 367 373 356 371 357 355 352 348 365 359 364 382 352 366 398 351 335 381
280 264 263 257 240 253 260 274 274 279 286 284 275 286 285 290 289 288 285 285 296 307 319 317 327 351 356 369 365 376 384 386 390 390 382 387 385 392 392 396 393 388 391 395 387 390 395 390 396 392 383 402 398 397 397 395 397 402 402 400 394 388 396 396 395 386 400 396 389 396 389 389 394 390 382 361 358 345 342 326 333 324 328 331 333 333 337 329 329 329 316 322 330 329 340 334 322 325 316 330 334 315 332 334 348 332 339 328 331 317 322 333 327 337 329 327 320 326 306 345
254 248 251 245 257 254 259 258 256 266 266 269 260 274 260 270 269 275 273 275 274 287 287 298 314 321 332 340 346 366 360 361 363 365 363 363 371 370 365 365 370 365 374 373 380 374 367 372 369 381 374 372 371 376 384 373 379 382 386 381 381 374 376 376 371 376 373 375 376 368 370 375 364 358 346 347 341 327 313 317 311 306 309 302 308 317 309 314 299 305 306 304 323 313 310 314 296 299 292 316 305 311 326 310 314 316 317 317 322 307 316 319 330 324 302 308 314 328 325 357
220 214 226 231 235 239 243 231 238 232 236 234 242 250 235 234 234 227 243 252 254 263 269 277 282 299 318 328 329 326 324 331 337 342 336 341 341 338 343 343 349 339 350 348 349 344 341 346 348 346 347 343 344 354 350 352 348 354 359 349 348 348 347 345 345 346 353 349 350 348 346 343 342 334 325 319 308 291 289 284 283 274 282 278 276 281 281 280 275 270 278 280 284 286 277 275 260 273 275 272 282 273 271 282 272 270 267 276 269 281 273 278 268 283 262 279 265 253 261 277
215 219 220 224 222 214 224 213 222 229 233 221 226 234 224 229 229 231 229 240 241 249 253 267 272 283 296 297 299 302 310 319 319 317 317 323 323 320 322 329 320 316 315 316 324 327 326 330 323 324 319 322 327 323 332 327 325 322 327 328 323 332 327 327 328 324 324 325 323 320 320 318 319 312 303 304 286 277 269 273 268 266 260 265 256 259 262 253 259 258 260 250 261 259 257 263 253 248 251 261 258 253 251 258 259 259 257 257 255 261 261 249 258 245 264 263 251 249 278 270
204 205 206 214 216 217 214 214 215 216 207 212 217 214 210 215 220 227 219 225 229 235 242 248 254 268 273 274 280 286 294 294 294 295 298 297 302 299 307 304 302 298 299 299 304 300 304 301 304 308 306 296 304 302 299 305 306 306 305 307 302 304 305 305 304 307 303 303 300 308 300 301 301 289 287 277 264 261 256 251 247 246 246 246 248 249 241 243 245 247 245 251 243 244 241 238 242 236 249 243 246 247 245 254 246 242 246 248 248 236 240 256 265 260 257 260 249 243 253 245
193 196 201 196 200 203 206 203 184 190 205 184 188 191 183 193 208 182 205 213 211 228 223 228 232 246 250 255 267 267 268 266 270 272 273 277 279 278 280 282 279 282 285 287 280 275 286 283 280 283 287 284 277 280 275 286 287 284 285 284 283 287 284 284 287 284 284 280 283 281 283 287 277 274 265 264 255 244 240 232 232 226 226 235 228 228 227 220 230 227 225 228 224 224 221 221 220 220 220 217 232 222 221 223 221 213 223 225 219 223 230 229 228 241 232 222 235 195 211 232
192 179 189 178 185 194 186 191 181 199 184 177 184 181 188 177 183 191 181 205 212 214 218 227 227 230 241 241 245 251 257 255 258 258 258 256 263 258 269 269 266 263 260 269 260 261 267 273 264 263 266 263 266 265 264 266 260 269 265 274 266 268 265 272 267 271 270 267 267 267 269 260 255 252 255 246 242 229 224 220 219 221 216 220 219 224 201 216 214 218 197 218 218 211 220 217 218 209 218 222 214 225 212 219 194 209 216 216 224 218 225 228 239 225 217 218 233 231 242 224
176 177 169 176 174 178 176 182 180 177 180 179 180 175 182 184 180 178 178 187 185 190 190 214 210 218 217 224 224 236 233 240 240 241 246 240 237 244 248 244 240 245 251 246 250 247 247 250 243 251 247 249 249 249 245 248 246 247 244 252 249 244 252 252 244 255 254 249 243 248 240 243 240 237 235 225 219 219 198 198 194 193 196 187 191 192 191 202 194 195 193 187 189 189 191 186 186 205 190 191 190 193 208 181 204 194 190 201 201 187 200 203 206 209 209 207 205 216 209 210
169 175 175 176 173 175 169 171 176 173 179 177 177 174 176 181 177 183 181 182 184 190 184 191 211 189 213 214 218 227 224 223 224 225 226 225 226 230 229 229 225 231 235 232 238 234 227 227 234 231 236 234 234 233 232 231 232 238 236 238 235 239 239 232 233 234 234 231 229 235 233 234 228 224 218 213 215 197 186 186 193 193 197 189 189 193 192 193 192 192 191 193 186 188 182 192 181 186 188 183 186 177 177 178 186 174 180 180 184 179 176 182 194 173 209 198 207 200 193 196
165 165 172 175 171 173 173 168 170 168 171 165 171 166 173 171 174 175 180 180 179 183 178 181 188 185 188 192 193 212 211 211 214 215 213 214 216 219 216 198 213 224 219 221 222 221 219 216 220 222 219 222 222 223 220 219 217 223 222 224 222 226 222 217 215 218 219 219 219 219 222 219 215 210 193 193 189 187 191 191 184 184 191 184 187 185 188 184 184 185 184 178 186 182 186 182 179 178 182 183 188 177 184 185 183 184 180 177 182 184 179 191 171 178 209 189 174 210 196 218
153 152 160 157 160 158 155 161 162 162 157 158 159 163 159 158 168 166 165 174 169 175 180 182 182 182 184 186 193 186 184 186 185 194 185 189 186 186 184 190 193 189 194 192 196 194 195 192 193 193 192 196 193 197 193 193 193 189 194 197 201 196 197 191 194 193 193 192 193 195 196 195 195 192 187 196 193 184 186 177 177 177 177 176 172 174 177 177 177 175 178 175 171 176 173 173 168 170 170 171 167 172 169 169 168 170 173 167 163 170 166 174 171 169 169 168 170 169 167 183
147 148 151 153 157 153 154 158 159 158 160 152 155 155 158 156 158 165 155 164 166 168 174 172 178 177 179 184 182 185 189 186 188 188 188 185 190 190 191 191 193 194 189 196 196 198 194 197 197 193 193 198 195 196 187 196 196 200 195 199 198 195 200 196 192 193 194 198 197 197 192 193 192 194 188 186 187 182 175 172 173 173 164 164 168 169 168 166 172 168 170 169 175 168 167 166 165 168 164 170 168 169 170 164 161 159 160 164 165 166 163 161 171 171 170 160 166 168 170 167
141 145 147 144 146 151 149 151 152 150 146 152 152 149 151 152 151 150 154 158 162 167 164 171 170 173 174 170 175 178 178 177 182 181 177 182 183 181 183 182 182 181 187 186 186 185 185 186 190 185 185 189 188 188 187 185 188 188 0 189 189 185 184 186 187 188 190 185 183 188 183 185 182 178 176 174 176 175 171 165 161 159 166 161 158 161 163 160 166 161 163 163 164 161 159 161 156 157 161 165 160 160 160 158 155 158 156 167 160 160 157 164 157 156 160 174 157 163 175 183
136 136 137 138 144 148 147 143 139 145 140 145 141 145 142 142 146 149 147 148 154 160 164 158 169 170 168 166 166 171 170 169 172 172 172 176 177 173 175 176 175 178 178 176 178 178 176 179 177 177 178 180 180 178 179 181 183 0 0 178 179 179 181 180 178 176 177 179 179 172 176 175 174 175 171 170 169 165 163 155 161 156 155 155 162 156 157 157 157 154 150 155 157 152 153 151 154 150 157 155 156 153 153 152 150 149 144 146 158 156 149 155 149 148 153 151 153 150 147 150
136 132 134 135 142 141 148 142 139 140 139 138 145 143 144 139 144 147 148 146 147 154 155 156 160 159 161 162 164 165 163 165 165 167 165 165 166 167 167 172 173 0 170 0 174 174 171 172 171 173 176 175 173 172 175 0 175 173 0 174 175 0 0 173 173 170 172 162 174 172 169 166 170 168 167 164 163 159 157 151 150 154 151 150 153 149 154 146 151 153 147 153 149 149 149 145 155 150 153 149 144 141 145 149 154 146 144 139 148 147 144 140 146 154 148 145 146 162 159 163
128 127 129 116 134 136 143 139 132 121 134 131 127 132 139 134 132 135 138 140 139 145 145 153 148 157 157 155 156 160 159 157 156 161 161 155 162 161 0 0 0 0 0 0 0 0 162 163 167 163 166 164 167 166 0 0 0 167 168 0 0 0 0 0 165 165 168 0 160 163 162 161 161 158 154 156 154 157 147 149 153 147 146 146 141 151 145 144 141 146 145 141 142 142 136 138 144 145 139 143 137 138 144 141 138 135 135 135 135 145 139 144 143 148 141 143 133 149 140 142
124 121 126 116 127 132 134 132 134 131 126 131 122 125 133 126 122 137 135 135 139 139 148 147 148 150 150 155 153 154 156 153 156 158 151 152 153 0 0 0 0 0 0 0 0 0 0 0 155 162 160 161 0 0 0 0 0 0 0 0 0 0 0 0 162 0 0 0 0 0 0 157 161 154 154 151 150 150 146 146 132 131 143 139 140 141 143 129 142 141 135 138 136 141 137 137 143 145 137 138 139 135 138 136 129 136 136 137 137 131 133 150 143 141 137 139 138 126 110 148
111 107 119 123 125 127 129 129 127 127 131 120 119 121 120 130 131 133 130 133 135 133 132 144 141 143 144 147 147 151 152 147 153 152 151 150 0 0 0 0 0 0 0 0 0 0 0 0 152 152 157 0 0 0 0 0 0 0 0 0 0 0 0 0 0 0 0 0 0 0 0 0 151 149 149 148 147 144 140 146 129 141 137 137 125 125 128 137 128 131 139 130 131 126 121 129 139 139 135 133 127 137 132 123 133 134 133 126 129 143 137 140 140 140 151 133 139 133 124 143
101 107 112 111 109 114 122 119 115 119 114 115 118 113 129 123 120 119 117 114 123 122 124 123 135 139 137 140 141 143 140 141 141 144 145 144 0 0 0 0 0 0 0 0 0 0 0 0 0 0 0 0 0 0 0 0 0 0 0 0 0 0 0 0 0 0 0 0 0 0 0 0 143 142 141 138 140 130 124 127 125 122 119 122 136 120 126 124 120 127 123 124 116 128 126 134 122 124 121 118 121 122 134 118 120 122 127 120 130 131 129 129 114 128 111 125 110 106 112 107
109 107 115 114 115 112 116 126 117 115 115 117 114 114 118 124 118 127 124 115 113 113 119 114 137 135 138 137 0 136 0 0 0 0 141 0 0 0 0 0 0 0 0 0 0 0 0 0 0 0 0 0 0 0 0 0 0 0 0 0 0 0 0 0 0 0 0 0 0 0 0 0 0 144 126 125 123 127 118 126 120 116 120 125 119 119 118 117 120 118 120 128 116 115 112 122 119 119 122 120 118 133 130 119 120 109 118 120 112 121 126 113 127 123 131 113 115 134 141 135
103 98 108 115 103 103 107 107 100 103 111 105 105 105 106 112 108 113 118 108 115 113 111 119 120 121 125 119 118 127 0 0 0 0 0 0 0 0 0 0 0 0 0 0 0 0 0 0 0 0 0 0 0 0 0 0 0 0 0 0 0 0 0 0 0 0 0 0 0 0 0 0 131 0 0 123 120 116 123 117 119 114 111 116 113 113 112 114 111 113 116 115 110 110 110 103 112 113 113 112 112 111 108 112 113 118 105 112 110 102 112 118 102 117 117 101 102 113 107 146
97 100 92 94 102 98 105 101 101 102 104 102 105 101 105 103 103 110 117 109 110 111 106 108 112 110 115 117 120 118 0 123 0 0 0 0 0 0 0 0 0 0 0 0 0 0 0 0 0 0 0 0 0 0 0 0 0 0 0 0 0 0 0 0 0 0 0 0 0 0 0 0 0 123 0 117 119 115 112 111 112 109 103 101 110 106 108 117 105 108 114 109 111 112 106 118 107 111 99 116 113 104 111 104 104 113 107 108 108 110 109 105 114 95 105 109 115 98 96 115
98 102 95 103 100 98 99 93 96 102 97 96 98 96 100 93 103 102 112 118 110 107 97 108 111 107 113 115 115 122 116 119 123 0 0 0 0 0 0 0 0 0 0 0 0 0 0 0 0 0 0 0 0 0 0 0 0 0 0 0 0 0 0 0 0 0 0 0 0 0 0 0 121 121 106 121 114 115 118 117 105 114 102 119 108 105 103 102 103 104 105 109 111 96 100 103 107 101 115 106 106 108 112 105 107 110 110 90 99 103 100 104 108 100 121 97 134 137 125 137
85 85 85 87 81 83 83 93 88 82 88 90 96 98 94 90 93 98 92 90 90 84 101 102 99 102 111 105 0 114 107 106 117 0 0 0 0 0 0 0 0 0 0 0 0 0 0 0 0 0 0 0 0 0 0 0 0 0 0 0 0 0 0 0 0 0 0 0 0 0 0 116 111 109 105 111 106 104 102 100 99 103 100 92 100 99 87 100 106 101 90 97 105 87 83 96 93 103 91 94 91 95 94 89 86 86 92 92 94 88 83 86 83 100 90 91 119 89 110 111
95 88 91 91 98 96 96 103 91 93 96 95 93 91 95 99 96 90 101 97 95 102 106 104 104 102 112 107 0 106 109 107 117 113 122 109 0 0 115 0 0 117 0 0 0 0 0 0 0 0 0 0 0 0 0 0 0 0 0 0 115 0 0 116 115 0 0 0 107 0 110 108 117 112 114 109 107 111 102 99 110 106 105 88 98 101 104 105 101 105 106 106 108 100 101 102 101 95 96 111 102 94 95 102 97 105 98 91 86 84 89 102 87 99 104 98 96 109 112 142
87 90 90 92 96 97 92 92 85 94 87 90 86 93 88 89 92 97 99 93 101 93 95 111 91 103 104 101 103 104 93 102 105 105 99 105 0 115 118 0 107 0 0 0 0 0 0 0 0 0 0 0 0 0 0 0 0 109 0 0 0 108 106 113 111 111 102 103 113 107 110 98 102 102 111 110 101 91 103 98 97 97 99 86 95 89 93 103 106 94 99 103 107 88 82 83 88 94 97 84 98 83 91 93 86 89 102 97 97 88 96 94 81 92 105 96 126 111 128 140
82 86 83 89 90 90 102 90 89 81 88 89 84 92 92 88 90 88 91 90 79 91 93 83 84 94 93 89 103 88 95 99 97 98 95 108 99 101 104 102 104 97 99 108 109 89 0 0 92 0 0 105 105 94 98 111 108 102 106 105 103 106 110 101 102 108 103 95 98 107 94 104 105 102 103 92 93 96 100 90 95 89 91 96 89 90 88 92 92 95 102 89 93 87 92 92 84 83 93 82 86 89 92 92 88 79 101 87 80 90 88 91 98 98 81 90 114 92 113 106
84 80 84 86 86 87 100 102 87 85 85 82 83 89 83 89 91 93 93 98 85 99 95 86 92 95 91 88 96 101 94 85 96 95 94 96 99 99 97 106 103 95 98 108 102 95 105 0 102 101 97 106 98 99 103 104 100 108 96 104 107 94 95 104 103 100 96 99 92 107 100 104 102 98 103 86 97 97 95 86 99 96 84 93 95 98 87 86 93 88 83 98 90 92 94 82 93 96 98 85 91 100 88 93 89 96 94 94 90 89 90 100 113 92 101 142 112 105 132 90
81 75 69 66 80 83 86 86 86 81 84 81 85 81 89 83 87 88 87 84 85 85 92 88 87 85 94 93 86 93 90 93 95 93 95 85 99 91 89 97 94 92 82 92 86 93 86 102 96 88 91 96 84 88 88 82 101 86 97 97 95 82 82 96 92 80 98 93 97 96 97 86 89 93 83 94 92 96 96 96 84 91 82 90 87 93 89 86 87 89 93 81 92 81 83 88 81 76 81 89 83 87 85 70 79 83 84 83 83 81 89 83 83 85 91 126 142 116 115 67
72 74 80 83 72 83 89 84 82 82 82 88 79 83 83 88 85 88 83 85 84 93 86 90 88 86 92 86 94 90 94 94 91 94 86 90 85 95 96 95 88 96 92 88 86 96 90 95 95 87 90 85 92 98 100 96 92 98 90 95 99 84 91 92 87 96 96 96 101 95 96 95 83 84 94 82 96 84 95 93 89 87 90 89 78 85 91 80 91 89 73 92 79 80 88 81 89 86 79 83 87 81 79 81 74 80 79 90 84 93 89 80 80 101 103 70 92 65 76 193
