0 0 0 0 0 0 0 0 0 0 0 0 0 0 0 0 0 0 0 0 0 0 0 0 0 0 0 0 0 0 0 0 0 0 0 0 0 0 0 0 0 0 0 0 0 0 0 0 0 0 0 0 0 0 0 0 0 0 0 0 0 0 0 0 0 0 0 0 0 0 0 0 0 0 0 0 0 0 0 0 0 0 0 0 0 0 0 0 0 0 0 0 0 0 0 0 0 0 0 0 0 0 0 0 0 0 0 0 0 0 0 0 0 0 0 0 0 0 0 0
0 0 0 0 0 0 0 0 0 0 0 0 0 0 0 0 0 0 0 0 0 0 0 0 0 0 0 0 0 0 0 0 0 0 0 0 0 0 0 0 0 0 0 0 0 0 0 0 0 0 0 0 0 0 0 0 0 0 0 0 0 0 0 0 0 0 0 0 0 0 0 0 0 0 0 0 0 0 0 0 0 0 0 0 0 0 0 0 0 0 0 0 0 0 0 0 0 0 0 0 0 0 0 0 0 0 0 0 0 0 0 0 0 0 0 0 0 0 0 0
0 0 0 0 0 0 0 0 0 0 0 0 0 0 0 0 0 0 0 0 0 0 0 0 0 0 0 0 0 0 0 0 0 0 0 0 0 0 0 0 0 0 0 0 0 0 0 0 0 0 0 0 0 0 0 0 0 0 0 0 0 0 0 0 0 0 0 0 0 0 0 0 0 0 0 0 0 0 0 0 0 0 0 0 0 0 0 0 0 0 0 0 0 0 0 0 0 0 0 0 0 0 0 0 0 0 0 0 0 0 0 0 0 0 0 0 0 0 0 0
0 0 0 0 0 0 0 0 0 0 0 0 0 0 0 0 0 0 0 0 0 0 0 0 0 0 0 0 0 0 0 0 0 0 0 0 0 0 0 0 0 0 0 0 0 0 0 0 0 0 0 0 0 0 0 0 0 0 0 0 0 0 0 0 0 0 0 0 0 0 0 0 0 0 0 0 0 0 0 0 0 0 0 0 0 0 0 0 0 0 0 0 0 0 0 0 0 0 0 0 0 0 0 0 0 0 0 0 0 0 0 0 0 0 0 0 0 0 0 0
0 0 0 0 0 0 0 0 0 0 0 0 0 0 0 0 0 0 0 0 0 0 0 0 0 0 0 0 0 0 0 0 0 0 0 0 0 0 0 0 0 0 0 0 0 0 0 0 0 0 0 0 0 0 0 0 0 0 0 0 0 0 0 0 0 0 0 0 0 0 0 0 0 0 0 0 0 0 0 0 0 0 0 0 0 0 0 0 0 0 0 0 0 0 0 0 0 0 0 0 0 0 0 0 0 0 0 0 0 0 0 0 0 0 0 0 0 0 0 0
0 0 0 0 0 0 0 0 0 0 0 0 0 0 0 0 0 0 0 0 0 0 0 0 0 0 0 0 0 0 0 0 0 0 0 0 0 0 0 516 523 514 515 527 515 535 504 534 489 520 534 542 504 531 528 0 0 0 0 0 0 0 0 0 0 0 0 0 0 0 0 0 0 0 0 0 0 0 0 0 0 0 0 0 0 0 0 0 0 0 0 0 0 0 0 0 0 0 0 0 0 0 0 0 0 0 0 0 0 0 0 0 0 0 0 0 0 0 0 0
0 0 0 0 0 0 0 0 0 0 0 0 0 0 0 0 0 0 0 0 0 0 0 0 0 0 0 0 0 0 0 0 0 0 0 0 0 485 497 487 497 496 506 494 493 507 489 498 503 512 508 513 506 501 505 522 510 487 523 501 0 0 0 0 0 0 0 0 0 0 0 0 0 0 0 0 0 0 0 0 0 0 0 0 0 0 0 0 0 0 0 0 0 0 0 0 0 0 0 0 0 0 0 0 0 0 0 0 0 0 0 0 0 0 0 0 0 0 0 0
0 0 0 0 0 0 0 0 0 0 0 0 0 0 0 0 0 0 0 0 0 0 0 0 0 0 0 0 0 0 0 0 0 0 0 507 513 518 507 499 510 498 507 524 506 506 509 513 519 500 509 508 507 518 529 526 520 503 501 505 535 524 524 543 544 0 0 0 0 0 0 0 0 0 0 0 0 0 0 0 0 0 0 0 0 0 0 0 0 0 0 0 0 0 0 0 0 0 0 0 0 0 0 0 0 0 0 0 0 0 0 0 0 0 0 0 0 0 0 0
0 0 0 0 0 0 0 0 0 0 0 0 0 0 0 0 0 0 0 0 0 0 0 0 0 0 0 0 0 0 0 0 0 502 500 511 499 492 505 500 508 516 509 500 506 505 513 506 513 516 506 506 509 507 508 523 516 509 523 515 510 518 507 510 542 486 527 572 586 592 595 585 625 0 596 620 592 637 637 585 0 0 0 0 0 0 0 0 0 0 0 0 0 0 0 0 0 0 0 0 0 0 0 0 0 0 0 0 0 0 0 0 0 0 0 0 0 0 0 0
0 0 0 0 0 0 0 0 0 0 0 0 0 0 0 0 0 0 0 0 0 0 0 0 0 0 0 0 0 0 0 506 497 501 484 498 485 495 522 494 502 488 491 505 494 501 506 498 497 495 510 506 497 506 495 505 506 501 501 508 506 511 510 498 492 512 510 514 544 533 553 581 593 559 539 554 530 568 571 572 549 582 556 581 584 545 558 572 579 556 586 541 593 571 546 570 572 553 545 530 616 561 538 540 0 0 0 0 0 0 0 0 0 0 0 0 0 0 0 0
0 0 0 0 0 0 0 0 0 0 0 0 0 0 0 0 0 0 0 0 0 0 0 0 0 0 0 0 0 0 509 501 510 512 502 509 515 516 510 509 517 501 508 512 522 511 522 505 512 508 502 510 518 509 509 522 513 511 506 522 507 505 508 513 514 515 528 518 530 526 544 600 560 611 582 597 586 607 563 612 669 601 608 587 627 640 607 598 614 610 588 556 590 620 615 625 604 637 592 658 658 661 608 625 634 627 606 0 614 0 0 0 0 0 0 0 0 0 0 0
0 0 0 0 0 0 0 0 0 0 0 0 0 0 0 0 0 0 0 0 0 0 0 0 0 0 0 0 483 502 491 505 493 507 495 481 505 489 502 495 505 499 490 495 510 504 500 504 506 503 506 504 506 509 504 505 502 503 498 510 512 502 513 504 513 498 501 507 517 519 517 509 570 577 555 542 539 553 531 550 559 560 577 557 557 544 534 563 550 567 566 539 559 581 553 530 551 511 588 577 547 566 561 583 559 547 496 526 547 0 0 0 0 0 0 0 0 0 0 0
0 0 0 0 0 0 0 0 0 0 0 0 0 0 0 0 0 0 0 0 0 0 0 0 0 0 0 492 508 499 497 484 501 491 490 483 496 495 491 490 502 496 500 504 492 502 500 493 497 503 498 498 508 504 504 510 506 504 503 507 511 507 498 507 502 503 510 510 506 514 517 503 534 520 551 530 535 540 547 537 528 550 558 550 532 536 503 539 527 524 498 543 530 577 512 537 538 531 535 555 543 534 573 531 557 553 567 552 516 0 0 0 0 0 0 0 0 0 0 0
0 0 0 0 0 0 0 0 0 0 0 0 0 0 0 0 0 0 0 0 0 0 0 0 0 0 517 518 513 505 498 501 490 501 492 504 498 503 497 504 501 504 501 503 505 513 510 507 500 500 511 499 511 509 511 511 504 516 508 510 506 517 511 504 510 514 513 501 507 514 514 521 539 561 554 576 575 601 589 535 581 581 568 589 588 581 614 561 556 555 598 579 553 568 607 579 562 578 547 581 605 557 564 586 555 578 588 579 568 521 0 0 0 0 0 0 0 0 0 0
0 0 0 0 0 0 0 0 0 0 0 0 0 0 0 0 0 0 0 0 0 0 0 0 0 469 493 484 495 483 492 491 503 485 495 495 499 502 498 490 502 497 506 505 497 505 503 503 503 503 506 503 501 499 503 507 493 506 505 503 508 506 507 507 509 496 499 504 505 513 506 507 492 525 546 552 540 535 541 562 516 547 537 547 540 552 556 564 510 542 509 562 523 530 548 519 550 535 517 537 539 542 522 532 549 555 531 567 534 0 580 0 0 0 0 0 0 0 0 0
0 0 0 0 0 0 0 0 0 0 0 0 0 0 0 0 0 0 0 0 0 0 0 0 0 502 501 498 493 495 495 491 497 506 485 492 497 499 499 500 510 495 514 510 508 498 503 504 494 503 501 502 513 508 499 510 519 504 508 504 510 504 513 512 509 509 513 518 505 501 509 512 519 513 540 535 549 558 567 561 542 545 578 560 577 554 547 583 581 565 540 553 552 552 567 578 569 544 525 559 546 558 579 543 563 546 562 582 570 516 0 0 583 551 0 0 0 0 0 0
0 0 0 0 0 0 0 0 0 0 0 0 0 0 0 0 0 0 0 0 0 0 0 0 480 495 495 496 487 493 502 496 497 493 494 505 501 503 497 499 486 502 495 497 501 505 500 497 500 505 492 513 496 503 506 506 508 507 503 504 508 500 508 506 500 509 501 494 505 519 511 512 514 513 529 562 557 538 561 559 577 555 551 568 563 555 530 542 546 543 561 543 569 570 569 541 539 557 536 536 545 552 571 578 542 559 552 575 606 571 0 0 0 0 0 0 0 0 0 0
0 0 0 0 0 0 0 0 0 0 0 0 0 0 0 0 0 0 0 0 0 0 0 0 481 482 490 494 496 491 491 488 481 488 482 493 492 495 497 503 489 487 498 493 494 492 513 493 496 490 496 503 504 504 497 496 500 498 502 504 505 507 506 504 504 505 502 506 504 503 495 502 513 510 500 515 530 526 523 488 523 530 523 511 523 522 514 506 516 504 524 528 498 519 530 525 519 521 553 515 521 534 538 527 540 529 500 521 440 518 0 0 0 0 0 0 0 0 0 0
0 0 0 0 0 0 0 0 0 0 0 0 0 0 0 0 0 0 0 0 0 0 0 502 505 505 487 504 495 494 498 495 497 493 484 486 500 494 499 504 499 496 508 509 498 498 509 506 500 510 513 508 501 508 510 509 503 510 512 505 511 498 511 498 511 507 511 511 507 506 507 509 501 508 510 512 549 561 530 566 564 547 548 548 576 555 555 541 575 552 562 556 570 568 558 537 559 540 569 545 557 575 575 554 590 542 570 569 559 585 548 0 0 0 0 0 0 0 0 0
0 0 0 0 0 0 0 0 0 0 0 0 0 0 0 0 0 0 0 0 0 0 0 497 489 496 490 485 496 491 487 489 488 491 488 488 480 483 489 494 489 501 492 495 496 499 498 503 493 499 494 498 493 503 501 500 504 499 504 499 495 502 503 502 503 499 499 501 507 504 513 503 504 499 514 501 512 501 527 505 509 496 497 495 493 535 517 521 518 527 507 517 504 535 526 483 481 526 542 526 502 509 537 530 495 528 520 507 491 472 432 0 0 0 0 0 0 0 0 0
0 0 0 0 0 0 0 0 0 0 0 0 0 0 0 0 0 0 0 0 0 0 458 488 485 484 488 489 488 488 491 492 496 490 490 488 490 486 493 495 502 505 497 496 495 494 505 501 501 507 495 500 503 497 505 504 500 499 500 504 497 505 512 502 501 507 499 505 506 503 512 501 506 509 502 508 505 517 532 541 513 534 504 521 529 518 530 478 509 518 524 507 545 509 519 522 540 522 505 512 516 534 533 519 518 529 522 519 479 493 526 492 562 0 0 0 0 0 0 0
0 0 0 0 0 0 0 0 0 0 0 0 0 0 0 0 0 0 0 0 0 0 468 494 486 489 496 491 502 499 496 482 487 490 502 494 490 495 496 496 503 499 494 504 505 504 503 495 505 500 503 502 500 502 506 503 508 502 500 507 506 507 498 509 505 515 507 513 510 501 507 512 513 509 500 507 518 518 542 538 543 521 516 552 515 539 516 545 529 524 521 523 524 525 536 533 537 523 561 551 549 531 518 521 549 553 574 527 523 525 530 0 0 0 0 0 0 0 0 0
0 0 0 0 0 0 0 0 0 0 0 0 0 0 0 0 0 0 0 0 0 0 487 491 489 477 483 489 484 485 491 476 483 489 488 490 493 492 494 484 497 494 494 489 505 493 496 497 491 497 493 501 502 501 495 498 499 500 502 499 505 504 502 495 505 508 505 496 507 502 502 504 509 499 512 501 514 492 514 510 525 517 501 509 495 528 509 464 542 543 513 546 515 519 506 515 518 509 538 513 484 508 520 497 514 530 517 505 501 521 490 498 517 0 0 0 0 0 0 0
0 0 0 0 0 0 0 0 0 0 0 0 0 0 0 0 0 0 0 0 0 0 491 495 492 489 490 492 491 487 486 490 491 491 492 485 488 490 494 492 492 498 488 499 497 499 498 499 504 497 508 505 502 497 505 502 500 499 505 503 503 507 501 508 511 504 508 507 505 501 512 509 505 505 503 512 504 531 533 512 518 525 494 523 518 523 552 540 540 540 564 540 510 502 527 538 488 549 526 542 540 527 541 522 559 526 552 533 522 562 539 548 529 0 0 0 0 0 0 0
0 0 0 0 0 0 0 0 0 0 0 0 0 0 0 0 0 0 0 0 0 0 501 488 475 486 486 484 501 493 486 487 490 481 490 485 487 495 494 488 493 492 498 503 495 492 496 493 503 501 497 497 506 498 496 504 500 500 505 503 507 500 510 503 507 502 500 502 504 501 505 503 504 497 504 502 512 514 524 521 533 508 516 500 549 538 536 531 516 529 530 522 518 517 531 532 504 498 529 521 523 539 511 495 523 549 507 513 503 509 517 534 523 0 0 0 0 0 0 0
0 0 0 0 0 0 0 0 0 0 0 0 0 0 0 0 0 0 0 0 0 0 472 474 478 480 492 485 480 487 491 482 485 495 497 485 483 485 500 489 487 494 489 492 493 492 493 497 498 492 499 493 495 502 498 501 500 506 500 499 505 499 500 503 499 506 501 501 495 503 494 502 504 502 503 500 508 513 504 491 519 485 498 488 526 517 516 500 535 525 503 520 480 521 508 538 529 508 500 530 526 517 472 468 462 501 536 516 0 438 509 517 548 0 0 0 0 0 0 0
0 0 0 0 0 0 0 0 0 0 0 0 0 0 0 0 0 0 0 0 0 457 489 495 483 487 497 490 496 488 489 484 479 502 489 491 499 490 490 490 497 499 497 500 495 496 500 499 494 496 496 502 499 505 509 495 497 505 498 508 508 502 504 505 507 501 507 509 505 507 506 496 501 511 507 507 506 513 524 539 550 499 547 530 524 556 509 541 525 563 549 513 527 529 544 533 543 581 555 545 547 547 557 527 568 515 531 519 518 518 553 542 0 0 0 0 0 0 0 0
0 0 0 0 0 0 0 0 0 0 0 0 0 0 0 0 0 0 0 0 0 429 470 477 486 475 484 477 493 477 476 484 484 487 491 488 483 486 484 490 492 495 491 497 491 493 492 493 493 494 497 495 496 498 506 496 503 495 500 499 501 496 500 496 503 497 500 501 499 502 502 499 498 498 501 505 505 488 507 498 504 514 509 485 529 493 497 497 506 497 473 490 504 492 481 467 496 468 497 483 469 509 482 487 484 467 488 509 469 512 486 471 440 0 0 0 0 0 0 0
0 0 0 0 0 0 0 0 0 0 0 0 0 0 0 0 0 0 0 0 0 462 477 476 483 481 485 485 479 480 486 486 485 482 489 483 486 488 489 487 488 489 488 495 490 495 497 496 494 492 495 494 494 494 500 499 495 497 502 498 504 502 503 499 504 498 513 506 503 502 498 501 497 501 507 499 502 516 521 492 503 521 482 502 504 494 492 507 505 518 514 515 478 519 507 523 497 540 496 536 480 469 484 468 509 499 477 483 468 475 487 490 519 0 0 0 0 0 0 0
0 0 0 0 0 0 0 0 0 0 0 0 0 0 0 0 0 0 0 0 0 459 483 481 482 483 487 476 489 493 490 493 485 488 490 483 483 487 488 494 496 485 495 495 498 493 495 501 491 496 497 503 499 502 502 498 499 500 500 501 494 503 501 500 506 500 509 506 497 511 497 502 511 508 505 502 513 502 518 533 528 524 528 491 521 518 513 531 518 508 554 514 525 532 537 530 526 563 550 534 511 547 525 573 549 536 544 539 547 555 564 571 538 0 0 0 0 0 0 0
0 0 0 0 0 0 0 0 0 0 0 0 0 0 0 0 0 0 0 0 0 456 481 478 486 477 477 480 481 483 480 477 488 483 486 485 493 489 480 485 483 490 491 492 486 492 496 495 489 496 488 499 491 498 497 493 494 494 499 497 497 501 500 497 500 503 501 502 505 503 508 507 497 502 495 503 496 494 508 523 490 506 521 498 512 496 507 497 471 472 506 519 500 547 517 498 487 523 482 498 496 502 477 517 525 511 528 498 510 496 476 508 500 0 0 0 0 0 0 0
0 0 0 0 0 0 0 0 0 0 0 0 0 0 0 0 0 0 0 0 0 463 481 480 476 478 480 477 483 487 488 491 486 487 487 484 485 490 492 491 489 496 490 490 492 490 497 496 494 492 491 494 494 495 493 496 495 499 501 500 494 498 504 504 500 506 506 505 499 501 503 503 510 504 500 503 503 501 506 523 530 550 513 503 525 506 527 509 537 526 505 531 511 491 508 513 498 525 508 529 509 517 476 508 541 509 527 509 525 540 506 501 523 554 0 0 0 0 0 0
0 0 0 0 0 0 0 0 0 0 0 0 0 0 0 0 0 0 0 0 0 458 473 483 477 486 479 479 486 488 487 483 483 476 485 485 483 490 486 488 488 488 486 488 491 491 495 494 495 496 495 497 492 497 497 498 494 500 501 496 504 496 497 499 502 496 498 497 505 508 504 502 507 498 495 502 507 510 504 501 513 540 506 502 495 510 520 508 515 520 522 531 502 501 480 527 530 522 532 534 509 523 527 509 516 503 509 520 531 520 538 523 512 526 0 0 0 0 0 0
0 0 0 0 0 0 0 0 0 0 0 0 0 0 0 0 0 0 0 0 0 426 472 476 478 472 478 471 473 476 478 483 483 485 483 486 485 481 482 491 486 488 482 491 489 493 483 486 496 493 489 496 498 494 495 494 495 495 497 494 496 495 499 497 498 499 494 499 499 501 495 496 493 497 496 497 501 499 492 486 502 488 491 471 487 494 477 487 489 493 500 476 501 488 478 495 497 476 509 482 469 474 473 493 510 480 479 454 481 470 480 488 464 0 0 0 0 0 0 0
0 0 0 0 0 0 0 0 0 0 0 0 0 0 0 0 0 0 0 0 0 476 492 480 473 477 474 474 490 484 483 490 483 488 486 484 486 482 485 486 491 487 491 490 495 489 490 494 498 493 496 501 499 495 499 495 498 496 492 503 498 499 502 497 503 501 500 498 500 502 500 501 498 500 501 509 508 513 502 507 520 521 513 522 540 503 520 534 520 518 512 524 532 536 498 518 520 491 537 541 563 575 504 553 569 566 531 562 516 536 535 530 538 569 0 0 0 0 0 0
0 0 0 0 0 0 0 0 0 0 0 0 0 0 0 0 0 0 0 0 0 423 470 468 469 478 478 476 473 478 479 480 480 476 484 479 481 489 483 481 490 491 483 486 493 490 494 489 489 492 493 490 493 491 498 493 496 499 492 501 493 496 494 494 501 495 495 502 492 502 493 494 490 498 495 496 502 493 494 490 492 486 479 468 483 488 514 507 486 481 474 490 470 482 495 504 467 504 489 491 499 492 464 488 473 458 498 466 487 500 499 487 462 432 0 0 0 0 0 0
0 0 0 0 0 0 0 0 0 0 0 0 0 0 0 0 0 0 0 0 0 445 477 469 480 476 484 476 480 478 475 483 483 486 484 484 484 481 485 485 484 488 493 490 489 489 488 496 489 489 492 494 494 493 493 496 492 496 493 496 494 499 496 495 501 497 497 495 495 493 496 495 498 499 498 497 497 485 500 479 497 492 481 483 493 486 488 475 482 474 496 506 503 487 488 483 477 499 509 485 509 476 514 483 473 491 484 506 504 451 474 529 461 501 0 0 0 0 0 0
0 0 0 0 0 0 0 0 0 0 0 0 0 0 0 0 0 0 0 0 0 0 475 472 478 478 474 475 484 479 477 482 487 483 484 481 483 488 484 487 481 483 486 485 487 490 491 493 496 496 490 496 495 498 499 494 491 495 496 496 497 498 494 499 497 499 495 500 502 496 500 497 497 504 496 497 500 494 511 506 490 505 515 505 510 519 504 500 523 503 515 503 516 528 523 498 519 512 543 537 511 523 530 545 529 537 534 488 534 525 506 562 509 556 0 0 0 0 0 0
0 0 0 0 0 0 0 0 0 0 0 0 0 0 0 0 0 0 0 0 0 0 493 469 468 474 480 473 474 477 484 481 476 482 481 481 480 483 489 477 486 488 483 486 488 486 484 483 486 490 489 494 494 494 492 493 496 491 491 495 494 494 493 500 493 496 494 497 495 492 498 492 499 492 497 492 499 500 479 490 497 509 484 510 515 501 524 510 499 486 510 480 506 510 480 495 483 492 495 481 476 486 483 504 488 495 501 518 511 508 422 474 469 445 0 0 0 0 0 0
0 0 0 0 0 0 0 0 0 0 0 0 0 0 0 0 0 0 0 0 0 0 523 474 469 481 476 474 484 477 475 479 479 483 483 488 487 482 482 486 485 484 488 489 489 493 487 487 487 494 490 495 491 491 493 490 493 494 495 495 495 492 496 495 496 492 498 496 492 497 496 496 497 494 492 497 497 499 506 507 498 508 520 500 534 534 536 531 519 519 522 518 514 527 510 526 532 515 525 504 508 513 532 565 522 539 481 507 520 523 464 555 524 540 513 529 0 0 0 0
0 0 0 0 0 0 0 0 0 0 0 0 0 0 0 0 0 0 0 0 0 0 624 473 476 477 479 477 481 474 476 478 482 478 486 486 480 484 486 483 486 490 486 490 489 486 492 488 491 486 487 493 493 496 495 499 491 494 495 494 495 493 497 494 495 492 500 495 494 497 493 493 496 500 498 494 496 491 491 500 492 522 522 534 526 514 523 477 517 501 524 542 541 521 536 560 508 530 518 517 526 516 507 502 496 502 507 530 526 488 498 534 534 526 506 0 0 0 0 0
0 0 0 0 0 0 0 0 0 0 0 0 0 0 0 0 0 0 0 0 0 0 718 477 465 477 467 476 476 473 477 486 477 478 478 480 483 480 480 486 486 484 487 489 488 483 483 487 490 485 485 487 491 488 490 492 492 493 492 494 492 492 490 492 496 492 485 499 496 499 498 493 500 487 493 495 484 495 496 496 490 490 481 490 486 491 503 488 481 504 485 485 497 503 500 499 504 466 511 527 492 498 483 465 489 459 485 481 478 458 451 488 454 0 0 429 0 0 0 0
0 0 0 0 0 0 0 0 0 0 0 0 0 0 0 0 0 0 0 0 0 0 0 506 473 473 477 475 482 478 475 480 478 479 476 479 479 481 479 482 485 482 492 484 485 485 490 490 488 491 492 491 487 491 494 491 496 493 495 494 492 495 496 493 495 493 496 500 495 494 497 497 498 491 492 492 494 490 493 504 503 518 512 510 515 519 501 502 522 517 520 505 513 522 505 518 523 529 536 516 522 515 541 500 521 495 526 530 531 528 535 520 504 543 0 0 0 0 0 0
0 0 0 0 0 0 0 0 0 0 0 0 0 0 0 0 0 0 0 0 0 0 0 522 465 468 471 473 472 473 473 471 475 475 471 477 478 479 480 484 482 485 485 490 486 486 491 487 488 481 491 490 486 489 490 487 494 495 491 491 495 494 491 496 494 493 492 495 493 495 493 491 493 498 492 488 488 489 498 513 493 489 489 487 495 519 488 491 485 494 497 501 498 491 507 479 472 487 496 482 507 495 484 458 458 471 497 469 475 472 474 466 442 484 0 0 0 0 0 0
0 0 0 0 0 0 0 0 0 0 0 0 0 0 0 0 0 0 0 0 0 0 0 0 478 471 466 466 469 472 479 469 478 477 480 476 476 480 477 478 479 483 486 484 482 486 481 487 486 492 490 491 492 490 488 493 497 491 487 493 493 497 491 494 494 489 492 498 496 494 497 490 492 492 491 487 491 498 496 494 478 481 503 496 489 489 501 497 485 505 496 489 490 502 514 481 494 486 488 494 490 497 472 500 453 460 442 463 503 433 478 446 450 441 447 461 0 0 0 0
0 0 0 0 0 0 0 0 0 0 0 0 0 0 0 0 0 0 0 0 0 0 0 0 523 468 467 473 464 476 479 476 477 476 478 478 479 476 477 486 485 482 482 488 483 481 491 486 489 487 495 492 491 491 489 490 495 492 492 495 493 491 490 495 495 498 496 498 491 496 497 497 495 497 500 489 496 499 491 503 519 497 503 523 499 529 501 522 506 500 494 496 525 513 547 555 530 531 533 482 492 514 502 509 513 473 471 500 470 503 529 503 531 527 511 0 0 0 0 0
0 0 0 0 0 0 0 0 0 0 0 0 0 0 0 0 0 0 0 0 0 0 0 0 0 461 465 469 468 470 470 475 478 475 467 476 474 477 473 480 476 475 485 483 484 477 484 481 482 487 487 483 483 485 483 490 492 489 484 490 488 490 492 492 490 484 487 495 490 495 492 490 491 489 491 490 481 483 481 479 480 482 486 489 487 484 492 477 500 474 496 484 499 472 481 496 499 484 481 519 489 499 473 475 467 457 453 485 458 462 454 447 428 469 0 0 0 0 0 0
0 0 0 0 0 0 0 0 0 0 0 0 0 0 0 0 0 0 0 0 0 0 0 0 0 534 468 474 472 472 467 473 473 472 475 475 477 475 482 476 483 484 487 478 480 484 479 486 489 486 487 484 492 491 492 491 492 489 492 490 492 486 494 486 496 490 497 491 494 492 493 490 491 493 487 495 474 491 489 484 493 497 492 490 511 493 513 506 485 508 506 517 501 499 524 506 493 514 512 541 511 512 477 488 494 512 464 488 489 462 493 513 496 524 0 0 0 0 0 0
0 0 0 0 0 0 0 0 0 0 0 0 0 0 0 0 0 0 0 0 0 0 0 0 0 0 479 470 461 471 470 469 471 472 473 473 475 472 477 478 477 475 483 482 485 487 486 486 485 481 483 490 494 485 489 489 492 493 486 492 490 490 488 491 496 494 492 491 489 488 500 491 488 490 490 490 479 479 499 502 505 499 494 488 506 488 510 485 504 496 488 496 500 494 499 499 473 485 488 508 495 478 505 525 476 496 480 483 492 467 481 502 470 420 0 0 0 0 0 0
0 0 0 0 0 0 0 0 0 0 0 0 0 0 0 0 0 0 0 0 0 0 0 0 0 0 0 482 464 465 468 468 468 469 471 470 472 478 471 478 479 485 476 480 476 481 480 480 482 482 482 482 485 488 489 481 483 491 480 493 485 482 488 487 490 489 485 491 487 484 488 487 487 487 484 484 481 481 489 490 481 479 484 457 491 483 480 484 479 479 476 499 484 476 470 485 479 481 499 494 474 475 462 454 480 463 464 477 459 441 451 472 438 427 489 0 0 0 0 0
0 0 0 0 0 0 0 0 0 0 0 0 0 0 0 0 0 0 0 0 0 0 0 0 0 0 0 529 469 461 469 467 470 474 475 470 477 467 475 476 477 475 478 478 481 479 483 480 483 486 478 482 486 487 486 488 485 488 484 488 486 485 489 486 489 485 491 491 492 488 489 489 482 488 500 491 488 496 489 505 495 497 499 493 500 509 524 495 506 491 490 492 485 480 496 518 494 502 499 489 493 510 525 486 511 505 503 502 479 510 513 526 497 509 526 0 0 0 0 0
0 0 0 0 0 0 0 0 0 0 0 0 0 0 0 0 0 0 0 0 0 0 0 0 0 0 0 0 491 462 462 462 467 466 471 470 472 471 473 476 474 475 478 476 479 481 477 476 483 480 482 479 479 485 484 482 481 484 484 490 488 486 485 485 484 491 486 486 483 485 482 477 476 478 470 485 473 475 480 483 479 473 501 482 475 482 480 475 475 485 472 485 474 480 493 472 462 495 486 471 481 493 498 479 457 442 448 445 466 455 457 454 459 446 0 0 0 0 0 0
0 0 0 0 0 240 232 255 332 0 0 0 0 0 0 0 0 0 0 0 0 2297 0 0 0 0 0 0 0 483 457 466 469 470 464 472 472 472 470 469 474 479 478 473 479 476 479 479 479 483 485 478 478 483 481 481 482 477 482 477 483 484 485 484 482 486 483 483 479 483 477 483 476 480 478 475 484 471 487 484 478 483 481 478 487 493 480 490 470 466 468 489 491 484 500 466 481 508 495 485 502 494 492 472 440 476 449 454 474 456 452 438 465 432 434 0 0 0 0 0
0 0 0 0 240 230 236 236 241 299 406 0 0 0 0 0 0 0 0 0 0 2345 0 0 0 0 0 0 0 0 458 461 464 469 467 468 469 469 474 469 473 479 471 475 478 473 480 475 478 479 480 481 481 482 480 484 483 482 482 482 484 485 486 487 485 489 483 482 481 480 482 483 486 471 491 485 488 485 486 486 491 480 489 484 481 506 484 484 490 498 477 494 478 491 491 476 477 481 501 494 478 501 506 502 503 507 495 474 492 498 462 501 482 0 0 0 0 0 0 0
0 0 0 223 218 224 222 222 232 234 312 0 0 0 0 0 0 0 0 0 0 0 0 0 0 0 0 0 0 0 0 467 457 471 466 463 462 466 466 468 468 465 471 472 472 473 468 473 471 475 472 477 479 470 479 479 479 475 477 479 481 486 475 480 478 474 475 472 477 473 466 479 480 480 475 470 463 481 473 478 475 472 486 464 476 470 483 472 445 467 481 481 486 477 466 472 450 452 479 460 466 460 451 447 464 444 451 468 456 470 402 467 453 415 437 0 0 0 0 0
260 275 264 278 307 293 286 239 241 241 350 0 439 463 424 431 430 424 437 452 454 459 449 470 466 471 453 460 469 464 442 463 464 466 463 466 465 468 467 469 469 476 474 469 479 475 473 471 477 478 479 476 473 476 486 478 477 477 474 478 474 479 476 480 484 481 480 479 478 471 477 488 474 484 484 470 485 488 481 479 471 478 478 469 487 487 480 486 480 481 485 482 479 489 479 456 486 493 477 489 502 485 485 495 468 467 505 478 508 497 483 507 501 528 516 0 0 0 0 0
214 199 174 247 240 243 261 233 225 257 338 397 395 421 393 404 400 415 410 417 417 409 415 428 425 432 419 441 443 437 458 452 451 461 450 450 459 459 461 459 463 466 461 469 461 471 470 473 468 470 463 472 469 467 469 473 472 473 471 473 473 472 480 475 474 472 473 474 470 473 470 464 468 464 458 456 457 465 454 456 465 450 460 462 456 465 462 462 450 454 453 440 450 449 447 443 450 453 451 471 458 448 455 445 440 435 435 442 476 436 434 429 436 467 454 424 439 0 0 0
187 193 197 226 219 234 231 230 226 288 360 364 363 348 365 379 365 370 364 379 388 368 391 378 385 407 414 410 428 436 433 438 440 444 439 443 443 453 447 442 446 447 451 445 452 453 446 453 458 455 453 450 461 455 447 453 452 454 456 456 454 459 458 459 460 457 456 462 454 452 454 452 448 445 443 434 424 430 434 420 424 418 426 426 418 429 422 425 417 434 427 428 433 409 427 413 419 427 418 413 420 415 420 409 402 420 401 413 416 393 414 394 410 410 392 401 391 421 406 0
283 288 248 221 237 224 233 235 252 361 336 338 350 346 364 343 356 349 349 354 354 364 371 386 385 391 402 406 418 423 416 422 424 433 434 429 433 432 435 431 435 432 434 433 434 434 433 439 438 438 444 447 440 443 445 448 448 436 442 440 449 446 445 448 439 449 437 442 441 444 435 434 434 425 427 416 412 406 401 409 396 396 398 402 404 401 405 408 401 408 397 404 402 395 401 401 394 405 395 405 404 412 402 403 408 392 403 389 391 387 383 418 406 385 416 427 408 399 417 0
292 267 272 225 225 234 230 243 281 306 303 305 307 298 299 307 303 301 313 319 326 319 318 340 357 358 372 381 394 388 394 398 397 413 407 404 407 407 410 413 411 408 412 413 412 415 413 425 416 413 415 414 419 422 418 425 418 429 420 424 419 420 410 416 417 418 429 413 421 414 409 405 407 394 395 391 379 371 371 358 367 365 349 367 359 348 364 350 353 355 357 356 352 361 351 354 366 355 355 355 359 345 355 353 353 348 352 352 350 336 335 338 339 336 339 332 362 338 334 362
270 275 270 255 265 244 253 268 280 288 269 282 271 295 289 297 290 288 279 286 289 306 317 320 331 347 359 369 362 369 384 394 389 391 384 387 391 392 394 399 395 392 393 396 389 400 397 389 389 393 391 395 399 403 396 393 400 396 400 399 395 395 400 395 391 390 396 390 394 391 388 389 391 381 378 372 363 352 344 335 334 318 326 331 329 330 328 331 326 333 326 335 328 325 323 334 320 319 328 329 330 326 338 335 326 334 330 323 336 323 313 350 347 340 326 338 322 328 326 334
251 232 261 258 258 250 257 262 256 269 253 263 254 256 256 259 265 265 270 266 266 290 294 298 314 321 335 345 352 360 365 364 366 364 363 371 369 372 370 370 370 373 372 376 374 370 369 371 364 373 376 377 375 379 381 384 373 380 375 381 379 377 379 377 370 372 370 374 370 375 369 367 364 356 349 343 339 331 310 313 310 307 305 301 302 316 299 305 299 301 291 302 319 309 305 305 311 303 302 308 307 316 313 310 309 316 315 314 305 302 308 316 328 331 292 275 325 338 325 312
221 226 227 225 229 234 240 231 238 244 237 239 246 239 233 244 239 233 249 246 252 262 276 276 289 298 315 322 329 329 328 333 339 339 344 343 346 340 335 345 348 346 351 344 348 344 340 350 345 340 340 343 352 351 353 353 349 351 355 342 349 352 345 342 348 343 347 349 345 343 343 337 336 339 326 323 307 290 290 284 280 271 280 273 285 276 277 276 272 261 277 272 282 276 271 272 272 273 272 277 276 281 285 271 273 268 274 274 277 285 273 273 274 284 278 280 268 287 242 244
218 224 225 230 230 217 225 223 226 235 230 226 221 232 226 233 233 232 235 245 246 253 251 256 275 280 292 300 299 305 309 311 319 321 325 320 322 322 324 328 327 325 319 324 324 329 331 329 320 322 320 325 330 330 331 329 330 321 332 330 334 326 327 331 327 327 332 330 320 325 321 324 324 320 308 297 286 282 270 266 268 268 261 270 260 262 261 262 261 256 255 264 263 257 259 258 258 258 258 259 257 257 257 259 258 267 254 263 259 261 269 284 272 259 277 270 272 285 277 307
209 206 209 214 211 215 218 213 214 220 218 214 212 224 218 208 215 219 221 225 231 227 243 250 252 267 274 274 279 287 284 289 290 290 298 301 297 296 308 305 301 299 301 303 302 296 301 301 305 306 303 300 306 298 295 301 302 305 307 310 312 306 304 307 305 304 304 306 300 303 298 299 303 292 289 283 265 267 257 247 254 248 248 245 244 248 243 246 246 243 241 245 246 243 254 240 236 240 243 242 242 243 252 249 245 239 248 250 250 244 242 242 239 262 258 260 280 279 245 276
180 200 197 200 201 198 206 205 203 206 188 183 189 187 201 189 208 206 210 214 217 226 234 239 239 248 248 260 266 266 270 267 270 270 276 276 278 281 282 280 281 282 290 285 282 278 279 283 281 285 280 279 277 284 281 282 286 284 283 286 285 289 283 289 281 282 286 283 283 283 280 282 277 274 270 261 253 242 243 231 232 233 226 230 232 230 227 223 228 228 225 227 226 222 228 221 224 223 229 216 223 226 225 224 222 218 226 229 227 228 223 223 236 238 228 227 214 212 239 220
178 193 193 190 187 183 200 201 186 187 184 186 181 184 185 187 190 185 185 210 208 211 224 226 227 233 237 240 248 249 257 254 253 256 259 260 261 261 265 266 265 266 265 269 262 261 267 271 263 267 265 263 268 266 269 268 269 273 265 270 271 268 268 271 268 263 267 269 264 270 265 260 256 257 253 242 242 231 227 219 222 217 219 221 221 219 215 218 219 221 220 222 214 209 218 215 218 216 213 216 217 224 214 218 205 217 210 209 223 227 222 235 233 225 220 216 245 244 224 231
173 172 168 178 174 174 176 173 177 178 180 173 180 180 181 182 176 184 182 182 183 187 204 213 213 217 219 224 227 227 232 242 236 240 241 240 238 237 248 245 245 244 251 247 249 244 246 247 243 250 248 250 251 245 242 246 248 248 250 248 245 249 252 249 244 253 248 249 243 247 246 244 238 238 234 228 220 219 213 196 193 195 193 183 184 190 190 193 192 188 191 191 193 192 186 183 185 183 180 191 205 194 186 188 185 187 181 185 188 206 202 192 199 203 205 178 207 177 204 204
165 170 176 174 174 176 170 176 173 174 178 173 177 169 178 179 179 180 188 187 187 189 186 195 194 204 212 218 218 225 223 225 219 224 229 225 228 230 226 229 227 230 230 230 232 235 229 232 237 232 235 235 231 233 234 233 237 239 239 236 234 235 232 231 233 231 236 231 231 237 233 230 230 225 220 219 211 194 185 194 195 195 188 191 192 195 193 190 190 191 191 181 182 191 191 191 190 185 185 181 186 179 179 176 187 185 180 178 176 177 201 184 197 201 196 192 199 204 196 183
162 162 169 177 170 173 172 168 167 171 167 166 168 166 167 170 173 170 175 177 175 184 180 191 184 188 186 181 206 210 212 199 209 211 210 216 211 213 216 198 214 219 220 219 217 223 220 219 221 223 218 225 219 222 220 219 220 219 222 224 221 224 221 217 214 217 217 220 217 218 223 215 216 210 199 197 190 194 191 187 183 186 187 185 186 186 187 185 182 183 185 182 184 183 183 184 185 181 179 181 182 185 183 183 181 183 180 177 176 180 179 182 176 177 195 169 178 172 177 181
153 155 162 160 161 167 160 163 164 162 155 159 158 162 161 160 162 166 166 174 171 173 178 183 184 186 184 182 191 188 184 187 183 184 185 188 186 187 188 188 195 188 191 191 194 194 209 193 192 192 197 194 198 196 194 193 192 191 190 191 199 200 196 193 195 191 192 195 193 192 194 195 195 189 189 195 192 186 182 179 174 178 175 175 174 172 174 175 177 175 174 173 169 174 170 173 170 168 169 176 173 174 172 170 173 170 166 165 169 174 163 172 170 176 167 163 175 164 172 171
147 151 150 152 155 156 157 161 160 158 157 152 155 159 160 156 156 163 157 166 168 169 176 175 177 176 179 184 186 188 183 185 189 191 188 188 191 195 191 190 194 195 190 186 194 188 198 197 199 193 192 197 197 197 198 195 197 198 196 188 196 197 199 198 193 197 192 187 197 195 196 195 192 193 192 187 186 185 178 173 176 171 168 169 168 166 172 169 170 169 166 167 176 170 172 166 165 164 165 168 167 166 173 169 167 161 160 163 167 169 163 166 175 175 170 174 164 168 170 160
143 143 147 145 148 149 146 149 150 147 147 149 147 151 152 151 151 146 153 158 158 164 171 174 168 169 174 176 179 175 177 175 182 182 177 182 181 177 183 181 185 184 186 185 182 186 187 182 187 182 182 189 188 187 189 185 188 189 0 187 190 186 184 185 189 185 188 186 184 186 183 185 181 181 173 173 175 177 170 166 160 158 164 157 157 160 167 161 165 163 161 163 159 162 160 162 155 158 161 166 160 161 162 157 154 159 155 161 157 161 161 162 153 162 157 172 161 166 159 160
134 135 140 142 138 148 147 144 141 140 142 144 141 145 143 144 141 146 149 149 158 158 161 160 164 166 172 167 167 171 170 170 177 173 170 171 173 171 173 177 173 177 175 177 172 181 176 180 178 177 179 179 176 181 178 179 184 0 0 176 177 179 178 181 178 178 177 178 179 173 175 177 173 174 172 172 168 163 160 158 161 159 153 153 158 158 157 151 154 152 150 152 157 155 155 152 153 152 157 155 153 151 152 150 153 142 147 151 158 153 151 145 149 150 154 154 157 145 154 158
139 135 131 138 141 143 151 139 145 142 139 138 141 143 143 141 140 147 147 145 151 153 155 158 159 159 162 162 166 167 162 165 169 166 164 166 167 169 167 169 173 0 173 0 169 173 169 170 172 171 172 173 174 174 176 0 173 171 0 173 172 0 177 174 174 174 174 168 174 172 169 167 172 170 164 165 165 159 159 153 150 154 153 152 155 150 151 147 148 153 147 154 150 151 147 147 150 148 154 146 149 145 150 149 148 148 137 142 146 147 145 147 150 163 151 156 144 170 161 165
127 120 129 123 131 135 142 136 132 119 135 130 125 124 136 133 138 132 137 141 136 145 147 149 149 154 157 155 154 161 158 158 158 161 157 157 162 160 0 0 0 0 0 0 0 0 0 165 163 165 164 164 169 165 0 0 0 165 166 164 0 0 0 0 167 163 165 0 162 160 163 161 162 160 152 155 151 154 148 148 149 145 145 146 143 149 140 145 137 146 142 144 140 146 141 137 140 145 142 139 140 139 141 137 137 131 135 137 133 142 143 142 141 149 153 140 130 143 137 143
116 118 122 124 127 131 134 131 135 132 127 130 131 132 131 127 131 136 137 133 139 140 144 145 148 149 151 151 154 155 153 154 157 156 153 153 153 0 0 0 0 0 0 0 0 0 0 0 0 160 163 162 0 0 0 0 0 0 0 0 0 0 0 0 0 161 0 0 0 0 0 158 159 156 153 153 149 152 149 142 139 139 143 139 140 143 141 138 145 142 137 138 137 142 130 136 142 142 137 135 138 137 138 137 128 129 130 130 139 144 136 148 139 142 132 130 141 128 137 160
113 107 121 124 127 125 129 129 131 128 130 120 121 120 116 128 124 124 129 135 128 134 132 144 139 141 143 144 144 150 151 147 152 150 150 147 0 0 0 0 0 0 0 0 0 0 0 0 150 153 156 0 0 0 0 0 0 0 0 0 0 0 0 0 0 0 0 0 0 0 0 0 149 150 149 147 148 139 141 145 130 140 137 130 124 137 137 136 138 137 138 137 130 128 118 128 138 137 134 135 129 136 133 131 133 133 130 132 133 139 137 134 135 138 138 136 136 124 119 136
104 111 114 111 109 113 120 116 115 120 115 111 117 111 127 123 120 129 117 119 121 119 126 122 134 138 137 139 143 142 143 142 142 145 146 139 0 0 0 0 0 0 0 0 0 0 0 0 144 0 0 0 0 0 0 0 0 0 0 0 0 0 0 0 0 0 0 0 0 0 0 0 146 139 143 141 136 130 130 131 124 121 122 121 126 119 125 120 122 129 120 125 116 128 122 128 124 131 124 120 115 121 132 117 119 120 116 121 131 139 128 132 112 119 121 124 104 107 111 110
112 111 115 114 113 113 115 124 118 117 116 121 117 117 119 123 119 118 123 117 117 114 123 116 137 127 135 140 0 135 0 0 0 0 142 0 0 0 0 0 0 0 0 0 0 0 0 0 0 0 0 0 0 0 0 0 0 0 0 0 0 0 0 0 0 0 0 0 0 0 0 0 0 141 126 125 124 124 123 126 120 119 122 126 117 119 114 122 120 123 124 125 115 117 114 121 117 115 119 119 117 119 129 120 131 110 128 122 124 130 128 123 123 121 128 128 110 135 159 145
100 99 108 111 108 100 104 104 100 101 105 104 102 105 111 110 109 114 119 112 113 116 111 114 118 118 123 118 118 126 0 0 0 0 126 0 0 0 0 0 0 0 0 0 0 0 0 0 0 0 0 0 0 0 0 0 0 0 0 0 0 0 0 0 0 0 0 0 0 0 0 0 132 0 0 124 120 117 119 115 116 116 108 115 114 113 111 111 109 112 113 115 110 111 111 106 110 116 113 108 114 113 110 111 112 114 107 108 110 107 110 114 104 119 115 97 108 122 119 135
96 99 90 93 102 102 103 99 100 100 100 103 103 108 107 102 104 109 114 105 107 108 107 107 115 111 115 117 116 119 0 125 0 0 0 0 0 0 0 0 0 0 0 0 0 0 0 0 0 0 0 0 0 0 0 0 0 0 0 0 0 0 0 0 0 0 0 0 0 0 0 0 0 121 0 116 119 117 115 112 109 110 104 99 109 106 110 116 103 110 114 110 111 112 106 115 107 106 100 119 110 104 104 102 105 111 107 109 107 110 100 108 104 99 97 121 123 101 110 131
97 103 100 105 99 98 101 92 94 98 98 99 104 96 100 92 105 101 112 116 111 104 99 110 114 107 113 117 114 122 119 121 123 0 0 0 0 0 0 0 0 0 0 0 0 0 0 0 0 0 0 0 0 0 0 0 0 0 0 0 0 0 0 0 0 0 0 0 0 0 0 0 122 124 110 122 114 117 119 115 107 114 101 121 107 105 106 100 102 103 104 108 113 96 100 102 109 101 114 104 103 113 108 109 109 106 105 96 111 103 101 102 109 104 105 94 138 142 130 130
88 81 81 86 80 89 84 97 87 83 88 92 98 93 92 89 79 91 88 90 93 83 98 104 100 99 114 107 0 112 105 107 115 0 109 0 0 0 0 0 0 0 0 0 0 0 0 0 0 0 0 0 0 0 0 0 0 0 0 0 0 0 0 0 0 0 0 0 0 0 0 113 112 109 102 110 107 105 103 97 103 99 97 90 98 97 88 97 104 99 90 94 103 81 82 96 91 102 82 94 85 94 90 85 82 86 94 92 94 85 87 91 79 92 90 91 87 79 83 110
93 88 89 90 96 95 98 107 90 92 96 92 94 90 97 94 96 91 103 95 98 104 106 103 104 101 111 106 0 103 113 109 115 113 122 107 0 0 111 0 0 117 0 0 0 0 0 0 0 0 0 0 0 0 0 0 0 0 0 0 115 0 0 0 110 0 0 0 108 0 107 109 114 112 113 109 105 110 100 99 111 105 105 91 97 101 104 99 100 101 107 108 109 99 99 102 101 93 101 111 105 98 92 100 93 105 99 90 90 87 93 95 86 100 100 98 103 132 134 132
88 91 92 91 98 96 92 91 86 96 86 88 86 92 89 80 96 96 98 93 98 93 100 111 87 101 105 100 103 103 95 102 104 104 97 104 0 114 116 0 107 0 0 0 0 0 0 0 0 0 0 0 0 0 0 0 0 109 0 0 0 109 107 112 114 110 107 101 111 107 108 103 106 103 113 107 99 94 103 97 96 93 101 84 94 94 93 102 104 94 99 104 108 88 83 82 87 90 94 90 93 84 94 97 94 92 100 94 94 91 92 93 86 97 98 91 114 106 100 102
83 84 83 86 93 92 102 86 89 81 87 84 84 91 92 86 90 88 93 90 77 90 97 84 84 91 90 91 103 87 93 99 95 98 93 110 98 101 103 103 101 99 98 109 106 93 0 0 94 0 0 106 105 94 102 106 105 102 108 105 100 108 111 99 101 106 99 96 99 107 97 108 105 98 103 93 92 93 99 90 96 94 92 95 94 89 89 92 95 94 96 88 92 93 92 94 94 84 92 81 84 85 92 88 86 83 91 87 84 93 87 93 93 101 88 86 91 76 87 107
86 81 85 85 82 83 100 101 88 83 85 85 83 91 88 88 91 94 89 97 84 97 95 86 90 100 95 89 97 101 94 87 97 98 98 96 98 97 94 106 102 97 97 106 99 97 105 0 104 103 100 105 99 98 100 104 103 108 100 108 106 94 94 104 106 99 100 103 96 108 97 106 104 95 103 83 95 96 95 97 97 97 85 90 97 96 89 84 93 89 87 96 87 91 92 82 93 94 99 86 91 98 87 96 92 106 97 94 93 89 89 91 103 107 114 135 116 127 132 131
81 74 68 67 80 85 83 88 86 80 83 82 86 91 86 82 85 86 83 86 91 86 92 88 84 85 92 94 87 90 91 93 80 92 93 96 93 85 91 95 91 91 85 89 96 91 87 101 95 89 95 85 98 91 90 83 103 91 95 95 94 81 84 95 94 95 95 91 97 97 95 87 95 94 86 97 92 94 90 94 84 93 82 88 83 92 88 88 88 88 94 78 87 80 85 89 80 93 80 89 82 87 82 71 81 82 86 84 79 79 73 85 83 91 127 113 135 123 77 79
72 71 82 85 72 86 89 82 80 82 83 75 77 81 84 87 86 91 82 86 83 89 83 92 86 92 91 83 94 89 84 97 92 94 84 91 96 94 96 95 95 82 91 88 83 95 87 87 98 84 94 96 96 97 101 94 91 97 87 93 96 85 92 93 91 97 87 96 106 94 95 95 85 95 96 82 95 82 93 93 89 88 88 87 76 84 88 77 90 95 76 88 78 81 89 79 91 86 81 83 84 81 79 77 76 88 81 83 80 88 81 88 81 94 86 87 88 87 70 153
