0 0 0 0 0 0 0 0 0 0 0 0 0 0 0 0 0 0 0 0 0 0 0 0 0 0 0 0 0 0 0 0 0 0 0 0 0 0 0 0 0 0 0 0 0 0 0 0 0 0 0 0 0 0 0 0 0 0 0 0 0 0 0 0 0 0 0 0 0 0 0 0 0 0 0 0 0 0 0 0 0 0 0 0 0 0 0 0 0 0 0 0 0 0 0 0 0 0 0 0 0 0 0 0 0 0 0 0 0 0 0 0 0 0 0 0 0 0 0 0
0 0 0 0 0 0 0 0 0 0 0 0 0 0 0 0 0 0 0 0 0 0 0 0 0 0 0 0 0 0 0 0 0 0 0 0 0 0 0 0 0 0 0 0 0 0 0 0 0 0 0 0 0 0 0 0 0 0 0 0 0 0 0 0 0 0 0 0 0 0 0 0 0 0 0 0 0 0 0 0 0 0 0 0 0 0 0 0 0 0 0 0 0 0 0 0 0 0 0 0 0 0 0 0 0 0 0 0 0 0 0 0 0 0 0 0 0 0 0 0
0 0 0 0 0 0 0 0 0 0 0 0 0 0 0 0 0 0 0 0 0 0 0 0 0 0 0 0 0 0 0 0 0 0 0 0 0 0 0 0 0 0 0 0 0 0 0 0 0 0 0 0 0 0 0 0 0 0 0 0 0 0 0 0 0 0 0 0 0 0 0 0 0 0 0 0 0 0 0 0 0 0 0 0 0 0 0 0 0 0 0 0 0 0 0 0 0 0 0 0 0 0 0 0 0 0 0 0 0 0 0 0 0 0 0 0 0 0 0 0
0 0 0 0 0 0 0 0 0 0 0 0 0 0 0 0 0 0 0 0 0 0 0 0 0 0 0 0 0 0 0 0 0 0 0 0 0 0 0 0 0 0 0 0 0 0 0 0 0 0 0 0 0 0 0 0 0 0 0 0 0 0 0 0 0 0 0 0 0 0 0 0 0 0 0 0 0 0 0 0 0 0 0 0 0 0 0 0 0 0 0 0 0 0 0 0 0 0 0 0 0 0 0 0 0 0 0 0 0 0 0 0 0 0 0 0 0 0 0 0
0 0 0 0 0 0 0 0 0 0 0 0 0 0 0 0 0 0 0 0 0 0 0 0 0 0 0 0 0 0 0 0 0 0 0 0 0 0 0 0 0 0 0 0 0 0 0 0 0 0 0 0 0 0 0 0 0 0 0 0 0 0 0 0 0 0 0 0 0 0 0 0 0 0 0 0 0 0 0 0 0 0 0 0 0 0 0 0 0 0 0 0 0 0 0 0 0 0 0 0 0 0 0 0 0 0 0 0 0 0 0 0 0 0 0 0 0 0 0 0
0 0 0 0 0 0 0 0 0 0 0 0 0 0 0 0 0 0 0 0 0 0 0 0 0 0 0 0 0 0 0 0 0 0 0 0 0 0 0 538 524 517 483 532 537 535 520 491 521 516 522 534 511 526 526 583 0 0 0 0 0 0 0 0 0 0 0 0 0 0 0 0 0 0 0 0 0 0 0 0 0 0 0 0 0 0 0 0 0 0 0 0 0 0 0 0 0 0 0 0 0 0 0 0 0 0 0 0 0 0 0 0 0 0 0 0 0 0 0 0
0 0 0 0 0 0 0 0 0 0 0 0 0 0 0 0 0 0 0 0 0 0 0 0 0 0 0 0 0 0 0 0 0 0 0 0 0 495 511 506 494 491 500 486 502 514 505 514 506 518 502 499 509 514 517 517 507 502 488 495 0 0 0 0 0 0 0 0 0 0 0 0 0 0 0 0 0 0 0 0 0 0 0 0 0 0 0 0 0 0 0 0 0 0 0 0 0 0 0 0 0 0 0 0 0 0 0 0 0 0 0 0 0 0 0 0 0 0 0 0
0 0 0 0 0 0 0 0 0 0 0 0 0 0 0 0 0 0 0 0 0 0 0 0 0 0 0 0 0 0 0 0 0 0 0 533 497 504 502 491 501 489 502 514 487 523 497 503 509 499 508 515 511 500 514 503 507 501 482 501 509 528 536 538 457 0 0 0 0 0 0 0 0 0 0 0 0 0 0 0 0 0 0 0 0 0 0 0 0 0 0 0 0 0 0 0 0 0 0 0 0 0 0 0 0 0 0 0 0 0 0 0 0 0 0 0 0 0 0 0
0 0 0 0 0 0 0 0 0 0 0 0 0 0 0 0 0 0 0 0 0 0 0 0 0 0 0 0 0 0 0 0 0 504 511 512 497 516 504 512 511 508 501 509 506 506 506 516 513 515 516 502 517 504 510 519 524 513 511 504 510 515 521 506 511 529 516 556 579 590 575 590 624 0 629 614 619 579 619 620 0 0 0 0 0 0 0 0 0 0 0 0 0 0 0 0 0 0 0 0 0 0 0 0 0 0 0 0 0 0 0 0 0 0 0 0 0 0 0 0
0 0 0 0 0 0 0 0 0 0 0 0 0 0 0 0 0 0 0 0 0 0 0 0 0 0 0 0 0 0 0 447 500 503 480 495 492 486 489 498 499 495 490 503 487 507 500 512 507 497 507 498 519 497 504 495 506 508 503 503 511 502 509 509 498 508 503 516 509 543 524 500 572 554 551 533 556 558 542 563 515 507 494 521 0 0 559 561 548 551 525 487 567 577 574 569 529 523 580 554 538 488 555 527 0 0 0 0 0 0 0 0 0 0 0 0 0 0 0 0
0 0 0 0 0 0 0 0 0 0 0 0 0 0 0 0 0 0 0 0 0 0 0 0 0 0 0 0 0 0 518 500 515 500 486 504 510 491 509 512 504 500 509 509 509 510 503 511 503 505 506 510 504 508 497 518 513 505 500 518 507 504 515 502 516 511 521 523 513 524 558 550 570 559 564 561 569 587 541 580 572 571 592 608 590 535 624 582 572 597 541 589 618 560 570 592 612 600 583 639 572 593 587 577 560 563 598 585 612 0 0 0 0 0 0 0 0 0 0 0
0 0 0 0 0 0 0 0 0 0 0 0 0 0 0 0 0 0 0 0 0 0 0 0 0 0 0 0 534 519 501 513 500 510 510 495 507 505 512 506 510 505 506 504 501 515 509 500 506 513 498 509 513 504 508 496 514 504 500 517 510 502 513 506 515 500 508 512 510 514 517 571 601 542 571 625 590 593 602 547 605 565 582 579 587 568 609 579 564 618 582 599 567 575 584 568 602 527 556 565 548 594 611 583 601 555 577 597 0 0 0 0 0 0 0 0 0 0 0 0
0 0 0 0 0 0 0 0 0 0 0 0 0 0 0 0 0 0 0 0 0 0 0 0 0 0 0 476 494 486 497 490 494 498 497 501 497 497 497 494 504 496 492 514 498 502 498 504 501 495 505 499 505 513 505 499 497 502 503 505 517 501 503 503 506 500 497 511 512 521 510 510 555 549 555 544 520 553 543 560 513 526 545 551 549 557 551 516 498 530 546 542 525 558 558 529 522 558 556 543 547 541 541 534 522 528 571 550 519 0 0 0 0 0 0 0 0 0 0 0
0 0 0 0 0 0 0 0 0 0 0 0 0 0 0 0 0 0 0 0 0 0 0 0 0 0 529 500 494 500 504 497 501 498 503 497 504 501 511 503 505 510 505 507 506 512 499 509 509 506 518 518 511 499 515 506 508 518 518 510 501 514 517 498 514 513 519 512 510 515 508 528 546 580 575 555 607 601 581 568 588 587 566 571 559 582 594 642 598 593 616 589 565 593 558 582 592 567 586 618 597 605 609 585 578 576 599 609 572 591 0 0 0 0 0 0 0 0 0 0
0 0 0 0 0 0 0 0 0 0 0 0 0 0 0 0 0 0 0 0 0 0 0 0 0 440 485 494 501 490 493 493 496 487 489 493 496 491 501 496 502 500 497 507 501 507 503 505 500 498 496 500 505 502 503 504 498 504 502 512 502 504 509 516 503 505 508 494 506 507 503 501 493 529 526 521 501 554 564 541 541 557 501 539 518 505 530 538 540 497 543 538 521 546 550 534 555 524 548 526 557 514 550 494 575 572 485 513 581 478 0 0 0 0 0 0 0 0 0 0
0 0 0 0 0 0 0 0 0 0 0 0 0 0 0 0 0 0 0 0 0 0 0 0 0 488 501 496 498 497 489 499 501 498 487 493 493 492 498 504 515 509 504 492 496 504 504 502 496 500 504 501 507 502 500 502 510 504 502 511 509 501 512 511 506 513 509 515 503 501 516 506 520 512 537 537 519 534 542 535 513 527 530 553 524 550 522 547 543 549 569 539 511 518 540 536 537 528 544 545 533 560 544 517 563 550 518 543 510 515 534 0 510 530 0 0 0 0 0 0
0 0 0 0 0 0 0 0 0 0 0 0 0 0 0 0 0 0 0 0 0 0 0 0 463 492 501 484 486 502 506 497 498 502 495 499 504 497 494 494 506 499 495 498 507 506 504 497 494 498 499 492 504 505 506 504 501 495 502 503 505 498 507 509 506 504 503 507 504 513 513 510 506 516 527 515 548 560 541 541 580 534 524 533 538 539 541 566 548 556 582 576 551 543 552 523 533 559 546 528 560 536 576 562 552 576 558 556 526 557 551 0 0 0 0 0 0 0 0 0
0 0 0 0 0 0 0 0 0 0 0 0 0 0 0 0 0 0 0 0 0 0 0 0 484 491 502 489 496 501 488 490 489 492 489 496 494 492 498 500 494 490 498 487 492 501 505 497 500 501 508 498 502 504 500 501 500 509 502 505 498 504 509 510 503 505 514 507 501 507 496 508 510 503 513 515 520 514 508 507 519 499 542 513 515 504 516 529 527 515 523 533 537 519 532 516 538 531 538 548 531 526 514 499 551 528 537 536 490 511 0 0 0 0 0 0 0 0 0 0
0 0 0 0 0 0 0 0 0 0 0 0 0 0 0 0 0 0 0 0 0 0 0 477 500 499 487 500 486 489 490 503 494 481 499 495 500 497 496 497 502 489 499 499 502 510 502 496 503 501 500 504 499 504 506 500 502 507 506 509 510 499 505 497 506 498 516 514 506 507 505 507 514 501 508 515 547 540 542 527 525 556 503 536 537 539 539 555 548 539 548 553 543 550 555 518 539 567 557 551 555 542 569 538 541 522 519 530 565 544 555 0 0 0 0 0 0 0 0 0
0 0 0 0 0 0 0 0 0 0 0 0 0 0 0 0 0 0 0 0 0 0 0 506 496 483 494 494 490 497 504 489 496 504 492 496 491 490 494 508 487 499 497 502 506 505 502 508 499 503 500 496 495 496 501 506 506 510 506 504 503 510 504 505 503 495 500 507 504 509 518 510 513 505 502 511 537 551 528 523 549 564 550 547 552 542 541 530 562 548 557 536 547 568 538 526 573 530 503 565 530 547 554 553 582 562 538 537 563 529 569 0 0 0 0 0 0 0 0 0
0 0 0 0 0 0 0 0 0 0 0 0 0 0 0 0 0 0 0 0 0 0 499 488 491 497 488 496 494 487 488 503 495 487 489 494 497 493 491 489 499 493 503 504 498 493 503 497 501 500 495 499 502 501 512 502 506 494 500 501 507 501 502 499 499 499 501 503 504 508 504 505 499 501 508 510 503 527 547 543 552 492 507 537 527 532 512 491 490 528 524 522 514 524 496 546 545 507 497 524 502 528 510 526 519 537 502 508 516 499 494 540 508 0 0 0 0 0 0 0
0 0 0 0 0 0 0 0 0 0 0 0 0 0 0 0 0 0 0 0 0 0 470 493 491 494 499 499 500 504 486 486 491 500 497 500 494 498 499 497 497 500 500 498 509 504 502 503 508 497 504 501 495 521 498 505 500 510 510 505 506 507 508 507 518 513 508 513 515 503 509 514 509 512 513 501 523 537 534 547 546 526 553 543 556 548 539 552 541 534 541 540 521 560 560 564 543 557 519 551 553 587 551 549 576 560 533 545 594 536 555 595 0 0 0 0 0 0 0 0
0 0 0 0 0 0 0 0 0 0 0 0 0 0 0 0 0 0 0 0 0 0 473 486 485 474 487 492 488 493 481 485 487 492 484 483 483 493 489 496 492 497 490 492 502 503 489 504 498 491 500 500 502 491 498 502 500 504 512 503 500 504 509 498 503 511 502 508 508 501 506 511 508 506 495 510 503 508 515 513 524 521 503 475 494 539 527 517 470 498 517 513 531 526 504 537 532 516 499 522 525 516 524 548 496 511 500 542 559 519 491 505 470 596 0 0 0 0 0 0
0 0 0 0 0 0 0 0 0 0 0 0 0 0 0 0 0 0 0 0 0 0 494 484 498 483 487 500 485 487 488 490 487 488 483 494 487 497 498 493 500 501 496 506 497 495 503 496 495 499 502 504 499 497 502 505 507 509 502 506 503 505 501 506 497 500 508 504 505 500 509 509 500 512 499 503 500 511 514 520 514 493 517 517 528 498 529 503 526 536 508 493 514 520 539 523 523 524 553 499 504 528 519 506 516 510 511 532 502 533 479 537 541 505 0 0 0 0 0 0
0 0 0 0 0 0 0 0 0 0 0 0 0 0 0 0 0 0 0 0 0 0 487 492 486 493 487 494 490 489 490 483 497 486 496 493 484 491 493 494 491 496 504 498 499 497 492 500 502 501 503 503 500 502 506 506 505 502 504 500 507 507 499 501 505 499 501 498 500 502 510 508 509 513 504 506 505 526 521 530 517 528 524 545 520 504 521 514 534 533 525 532 524 525 520 518 506 521 552 513 516 522 510 520 505 537 559 560 526 527 510 562 548 0 0 0 0 0 0 0
0 0 0 0 0 0 0 0 0 0 0 0 0 0 0 0 0 0 0 0 0 0 467 475 480 480 493 478 490 481 486 483 484 489 488 481 485 491 492 493 491 492 495 492 495 492 493 496 498 495 498 490 500 502 500 496 505 496 496 495 498 504 497 501 497 500 499 493 496 503 497 509 495 492 500 497 501 504 501 499 483 494 508 495 496 510 503 503 467 481 496 488 495 494 497 519 471 506 471 483 520 513 510 480 479 453 481 469 477 475 482 488 446 0 0 0 0 0 0 0
0 0 0 0 0 0 0 0 0 0 0 0 0 0 0 0 0 0 0 0 0 435 477 492 490 486 496 483 493 487 484 494 490 491 493 486 499 489 490 492 488 500 492 497 498 492 497 496 496 500 495 498 496 504 503 507 496 503 509 501 503 505 500 507 500 508 505 502 507 503 507 502 507 508 507 511 505 514 515 522 517 511 537 503 514 509 524 528 523 516 529 505 525 533 526 494 509 514 517 539 543 555 541 533 509 515 497 536 501 526 502 0 0 0 0 0 0 0 0 0
0 0 0 0 0 0 0 0 0 0 0 0 0 0 0 0 0 0 0 0 0 472 486 483 488 486 486 479 492 489 482 486 505 486 487 488 489 490 491 483 499 497 490 493 496 495 492 493 501 494 497 497 496 501 499 500 503 500 507 514 502 499 501 500 505 503 504 499 502 498 504 504 506 509 509 507 509 504 528 525 525 518 523 529 515 564 484 520 518 512 523 543 535 555 532 510 532 500 507 498 515 533 524 516 531 498 519 540 539 571 546 530 0 0 0 0 0 0 0 0
0 0 0 0 0 0 0 0 0 0 0 0 0 0 0 0 0 0 0 0 0 448 482 481 481 480 483 491 479 481 487 482 484 485 486 488 486 491 483 494 484 487 494 498 492 495 494 493 500 495 493 501 499 493 494 500 496 497 505 496 502 502 503 504 500 504 502 506 506 500 496 504 506 510 502 500 500 497 495 502 495 500 512 504 512 492 504 497 512 496 491 522 486 497 521 508 521 505 519 500 507 492 480 503 495 473 508 484 488 464 500 518 516 0 448 0 0 0 0 0
0 0 0 0 0 0 0 0 0 0 0 0 0 0 0 0 0 0 0 0 0 466 484 481 486 478 490 484 489 485 480 487 490 488 488 500 486 485 489 493 490 492 490 500 497 493 493 505 497 494 497 498 502 503 500 503 500 496 505 500 500 500 504 501 502 502 502 506 502 509 502 507 511 504 506 513 501 508 522 524 521 517 512 519 536 525 512 525 506 538 528 536 499 527 531 510 541 517 515 536 554 541 526 541 553 531 538 541 531 518 532 531 541 570 0 0 0 0 0 0
0 0 0 0 0 0 0 0 0 0 0 0 0 0 0 0 0 0 0 0 0 454 482 474 484 480 474 491 476 479 482 479 483 492 488 482 484 486 486 496 488 487 492 495 489 485 489 493 498 489 496 497 495 495 490 495 491 496 504 497 502 499 498 494 505 502 500 496 498 499 504 501 495 502 499 497 496 501 495 510 479 494 508 531 502 506 506 490 503 495 518 504 490 510 516 515 489 520 510 483 514 487 502 499 515 484 488 492 507 498 529 487 489 0 0 0 0 0 0 0
0 0 0 0 0 0 0 0 0 0 0 0 0 0 0 0 0 0 0 0 0 454 480 480 475 475 474 477 485 479 489 480 486 487 489 483 487 493 493 490 489 491 491 492 490 492 497 496 497 494 493 494 497 498 500 497 499 495 499 501 499 497 499 502 494 503 497 499 492 498 500 505 497 505 509 495 499 492 509 500 497 489 502 502 520 507 510 515 521 503 511 492 489 509 487 502 506 518 483 511 500 521 521 492 484 462 505 525 467 512 506 490 473 506 0 0 0 0 0 0
0 0 0 0 0 0 0 0 0 0 0 0 0 0 0 0 0 0 0 0 0 461 484 483 477 476 473 483 484 480 488 485 480 484 490 489 486 493 487 489 496 488 491 492 491 490 493 493 494 496 498 495 493 496 490 500 496 498 502 495 494 496 506 503 505 497 501 496 499 505 499 499 499 508 504 511 505 496 513 492 512 499 497 526 527 523 513 529 496 524 557 527 519 534 488 529 551 526 517 531 567 533 552 543 536 525 520 499 503 524 537 534 600 504 0 0 0 0 0 0
0 0 0 0 0 0 0 0 0 0 0 0 0 0 0 0 0 0 0 0 0 424 478 470 469 475 477 479 471 473 479 483 484 482 482 481 489 481 487 494 485 486 486 490 486 487 489 492 491 491 483 494 496 492 497 492 495 494 499 498 495 496 495 499 502 502 496 502 498 497 505 497 489 495 495 495 499 500 493 485 493 485 484 491 478 491 498 488 488 497 497 488 491 482 477 479 484 482 460 463 491 493 466 480 456 476 491 465 493 447 453 455 455 0 0 0 0 0 0 0
0 0 0 0 0 0 0 0 0 0 0 0 0 0 0 0 0 0 0 0 0 461 482 472 474 479 480 478 482 482 479 491 484 484 484 487 484 487 492 489 490 489 489 492 493 494 492 492 494 489 493 494 490 498 497 497 493 496 495 500 494 497 501 496 500 500 497 502 495 499 502 498 494 499 493 492 504 492 497 512 516 492 515 495 497 493 491 499 518 535 501 490 501 523 493 518 499 498 522 526 499 479 504 524 478 515 496 487 504 539 509 495 518 498 0 0 0 0 0 0
0 0 0 0 0 0 0 0 0 0 0 0 0 0 0 0 0 0 0 0 0 479 478 469 472 474 477 477 484 480 480 481 484 484 484 488 486 480 482 486 483 488 488 492 488 491 491 490 485 494 492 492 500 491 501 501 495 500 497 501 494 499 499 501 501 505 500 501 494 502 501 494 501 503 497 507 499 497 509 518 529 513 525 491 500 489 521 498 514 515 529 519 498 515 515 516 550 483 510 535 529 507 522 530 565 538 538 522 566 544 542 533 530 534 0 0 0 0 0 0
0 0 0 0 0 0 0 0 0 0 0 0 0 0 0 0 0 0 0 0 0 472 481 471 479 472 485 474 475 475 475 481 485 484 482 481 486 484 486 485 485 488 491 491 485 490 491 493 493 491 486 494 491 493 486 493 489 496 491 496 497 506 499 500 506 502 498 495 498 495 501 497 499 498 500 496 494 491 506 491 501 495 488 491 490 482 494 492 509 499 488 477 497 485 485 476 484 482 513 510 500 485 494 510 489 503 481 500 506 505 492 517 486 535 0 0 0 0 0 0
0 0 0 0 0 0 0 0 0 0 0 0 0 0 0 0 0 0 0 0 0 0 478 477 479 481 483 477 482 486 480 481 486 480 483 478 487 483 490 484 490 488 492 491 487 488 493 489 498 495 490 497 495 498 500 492 490 497 498 495 500 505 499 503 499 501 495 493 496 498 500 500 498 503 495 503 496 498 486 506 505 506 510 510 489 508 523 511 486 497 514 513 517 520 520 497 535 554 527 503 513 513 542 510 520 514 530 499 523 520 512 487 506 541 0 0 0 0 0 0
0 0 0 0 0 0 0 0 0 0 0 0 0 0 0 0 0 0 0 0 0 0 492 475 465 475 476 472 481 474 477 473 481 484 476 484 484 486 494 482 490 484 486 484 486 493 490 485 490 489 492 495 493 495 492 491 496 494 494 498 501 497 495 502 498 499 500 494 494 498 499 492 498 495 495 490 495 501 493 493 500 504 523 511 497 496 489 489 497 499 526 510 491 510 497 509 493 518 493 461 487 492 489 474 469 482 511 491 476 490 467 464 475 465 0 0 0 0 0 0
0 0 0 0 0 0 0 0 0 0 0 0 0 0 0 0 0 0 0 0 0 0 538 474 468 478 478 479 479 474 482 484 486 487 481 482 484 485 481 488 484 483 484 491 487 483 490 489 489 491 490 496 490 492 494 492 493 491 491 494 499 490 494 492 498 491 496 496 492 494 493 500 499 501 495 493 496 493 500 487 512 501 517 494 497 487 498 494 510 508 506 532 494 511 507 490 508 493 506 523 483 487 498 485 513 522 488 473 508 448 463 470 493 438 492 432 0 0 0 0
0 0 0 0 0 0 0 0 0 0 0 0 0 0 0 0 0 0 0 0 0 0 604 481 474 478 474 477 477 476 478 474 475 476 482 488 485 483 485 488 482 487 489 490 486 489 492 492 491 491 493 495 495 495 497 497 495 492 496 498 494 494 503 500 498 495 495 496 494 496 497 490 497 500 500 494 498 491 488 501 534 503 507 524 528 508 506 497 525 545 518 544 505 531 541 528 538 527 539 528 509 521 498 497 518 498 487 506 507 515 485 535 536 530 558 0 0 0 0 0
0 0 0 0 0 0 0 0 0 0 0 0 0 0 0 0 0 0 0 0 0 0 0 474 471 470 475 474 470 475 486 479 477 486 476 475 480 482 480 485 486 485 486 487 489 485 486 492 496 486 488 492 498 494 490 494 496 494 495 496 494 496 494 491 493 498 490 495 495 495 497 498 497 490 500 493 487 482 484 509 495 485 487 486 489 486 483 504 476 483 479 491 468 491 500 501 475 482 486 510 494 493 490 447 480 480 494 475 520 462 493 441 448 0 0 0 0 0 0 0
0 0 0 0 0 0 0 0 0 0 0 0 0 0 0 0 0 0 0 0 0 0 0 485 474 468 477 475 479 481 475 473 477 478 480 475 480 481 488 480 480 488 489 485 489 489 491 491 494 493 493 492 489 495 494 495 496 495 494 491 490 493 495 498 495 494 496 498 498 493 497 494 494 495 487 492 488 491 493 496 500 500 503 491 499 502 492 503 500 514 498 505 509 513 503 527 501 503 516 522 504 528 483 502 516 487 458 499 467 489 469 467 457 496 0 0 0 0 0 0
0 0 0 0 0 0 0 0 0 0 0 0 0 0 0 0 0 0 0 0 0 0 0 505 467 476 470 478 472 473 479 471 480 477 480 483 484 480 482 484 484 478 485 483 491 494 488 488 490 487 493 494 489 489 495 490 495 494 488 492 494 491 491 497 496 496 497 497 491 498 493 491 493 499 496 493 499 508 496 499 510 513 521 507 496 529 515 504 513 504 504 520 503 511 504 494 504 508 520 523 514 541 496 482 489 478 479 520 489 506 498 507 491 574 0 0 0 0 0 0
0 0 0 0 0 0 0 0 0 0 0 0 0 0 0 0 0 0 0 0 0 0 0 0 465 466 461 469 472 474 478 467 477 480 482 479 472 481 482 480 474 482 479 480 489 487 486 487 492 490 492 491 493 491 487 491 490 491 490 491 493 495 493 490 497 493 494 493 494 492 502 492 495 493 497 493 494 492 489 500 489 486 490 497 489 514 492 481 491 485 498 518 517 477 491 499 473 495 478 470 488 488 465 459 472 453 467 483 458 462 470 469 450 412 445 442 0 0 0 0
0 0 0 0 0 0 0 0 0 0 0 0 0 0 0 0 0 0 0 0 0 0 0 0 522 474 471 477 475 474 481 475 479 477 481 475 481 483 477 485 490 484 480 485 486 486 487 485 489 494 490 491 492 495 495 491 492 495 494 496 489 489 491 493 494 492 497 491 497 493 497 492 492 494 493 498 499 498 488 486 497 523 503 501 527 521 520 512 528 525 528 515 527 515 537 503 548 527 518 509 498 513 506 500 487 514 504 468 501 509 506 521 497 507 486 573 0 0 0 0
0 0 0 0 0 0 0 0 0 0 0 0 0 0 0 0 0 0 0 0 0 0 0 0 0 473 468 468 465 465 473 474 473 478 470 474 477 476 478 481 479 478 483 483 488 483 487 487 483 484 490 483 483 490 485 487 487 487 490 490 494 493 495 491 496 492 493 494 489 499 494 495 495 494 490 487 479 486 484 490 487 488 498 488 485 485 497 483 485 492 494 467 482 494 480 493 474 520 492 485 471 517 489 486 496 447 476 490 452 462 437 430 458 476 0 0 0 0 0 0
0 0 0 0 0 0 0 0 0 0 0 0 0 0 0 0 0 0 0 0 0 0 0 0 0 532 472 466 474 474 466 469 474 471 477 475 478 471 479 476 480 480 484 483 484 482 478 483 485 487 485 485 484 489 485 490 491 484 488 491 492 493 494 488 489 496 493 493 492 489 498 487 491 490 485 487 496 480 485 476 486 495 492 480 487 501 476 485 500 491 483 488 483 485 502 489 487 465 496 506 488 498 468 455 456 451 451 456 443 470 455 451 475 440 468 0 0 0 0 0
0 0 0 0 0 0 0 0 0 0 0 0 0 0 0 0 0 0 0 0 0 0 0 0 0 0 489 471 466 471 465 473 475 479 477 479 476 480 480 479 474 481 480 485 485 482 484 485 488 483 484 484 487 486 487 492 492 491 491 492 492 491 495 495 499 491 493 492 495 494 496 492 494 491 487 497 483 490 512 494 501 519 495 503 490 495 500 488 491 492 485 513 500 508 506 509 506 473 495 496 486 513 519 477 511 486 489 473 468 477 487 533 523 556 0 0 0 0 0 0
0 0 0 0 0 0 0 0 0 0 0 0 0 0 0 0 0 0 0 0 0 0 0 0 0 0 0 465 464 466 469 471 479 475 475 473 474 474 477 476 473 482 475 477 476 482 482 481 482 484 481 483 480 481 486 478 483 488 481 492 489 491 491 492 490 491 487 494 494 487 490 484 489 483 489 472 469 491 484 481 471 484 488 474 488 480 485 480 488 490 480 499 498 494 474 481 475 493 471 481 487 465 464 451 461 489 468 472 461 439 464 502 452 435 485 0 0 0 0 0
0 0 0 0 0 0 0 0 0 0 0 0 0 0 0 0 0 0 0 0 0 0 0 0 0 0 0 494 466 466 472 471 474 472 472 476 476 474 474 478 471 477 479 481 480 483 483 479 481 487 485 490 485 482 484 487 488 483 484 487 489 488 491 485 488 487 492 488 491 490 486 492 483 482 507 487 475 492 485 499 474 494 493 491 496 519 485 481 515 496 485 525 486 513 466 526 498 496 502 500 484 510 508 484 517 479 463 509 502 486 488 487 481 478 0 0 0 0 0 0
0 0 0 0 0 0 0 0 0 0 0 0 0 0 0 0 0 0 0 0 0 0 0 0 0 0 0 0 518 469 469 462 468 470 477 467 472 472 475 476 475 476 478 481 480 483 480 481 480 487 479 483 484 491 484 483 481 484 484 488 487 486 487 484 487 487 492 488 486 486 491 481 484 486 495 497 485 492 486 481 498 478 484 479 495 495 498 501 495 493 494 489 505 477 496 493 476 488 483 485 502 490 497 484 507 500 467 477 491 472 456 491 493 470 468 0 0 0 0 0
0 0 0 0 0 235 235 253 304 0 0 0 0 0 0 0 0 0 0 0 0 0 0 0 0 0 0 0 0 475 463 469 469 469 463 472 472 470 469 471 474 475 474 473 476 478 480 479 479 478 480 480 476 485 483 484 484 481 486 483 488 486 485 482 490 488 483 482 479 484 475 485 472 480 483 489 484 493 483 478 480 471 479 480 472 485 477 480 467 481 475 481 479 477 490 464 484 486 481 467 470 470 465 478 464 451 483 476 487 482 446 471 444 434 477 0 0 0 0 0
0 0 0 0 253 235 234 235 235 305 405 0 0 0 0 0 0 0 0 0 0 2336 0 0 0 0 0 0 0 0 468 465 469 470 470 473 475 472 474 473 475 476 472 473 479 473 477 478 485 477 477 481 483 483 481 486 485 484 482 483 484 485 483 493 486 488 482 491 482 485 484 488 486 481 488 494 492 483 475 480 486 479 490 490 495 490 501 496 496 513 497 497 493 487 480 501 507 488 506 507 472 499 501 509 489 505 490 491 476 460 494 481 504 487 0 0 0 0 0 0
0 0 0 212 217 223 220 225 234 240 316 0 0 0 0 0 0 0 0 0 0 0 0 0 0 0 0 0 0 0 0 468 456 468 466 463 465 468 469 473 468 468 467 468 468 475 469 480 476 474 475 479 480 477 483 475 488 478 481 480 477 483 480 484 480 476 484 478 477 472 466 478 477 483 479 467 468 479 458 470 477 479 480 468 474 462 479 477 449 480 476 463 472 470 469 474 465 462 459 465 473 474 479 454 416 444 463 465 442 456 442 436 465 440 407 0 0 0 0 0
200 232 262 254 260 276 267 234 230 238 319 0 421 409 406 405 417 412 434 410 461 444 438 437 431 446 460 446 450 446 457 469 465 465 463 466 460 463 465 469 465 472 469 466 477 472 472 470 476 480 482 475 477 481 479 476 476 477 476 481 469 479 481 474 475 477 479 477 484 481 473 466 471 465 475 464 479 472 470 469 469 456 466 470 465 472 464 490 473 476 467 485 478 471 486 471 464 482 467 482 481 464 456 461 460 484 465 459 455 452 439 434 471 450 437 445 0 0 0 0
193 195 241 248 270 250 257 231 227 260 408 400 381 411 409 404 402 431 416 412 421 437 418 433 447 439 421 439 441 445 458 458 458 458 457 459 460 460 465 459 464 468 460 467 462 466 467 474 477 474 469 471 470 466 473 468 475 474 470 470 475 474 467 477 467 473 470 480 476 472 474 472 475 468 462 464 466 461 447 465 458 468 466 469 454 463 461 459 456 461 449 449 456 448 457 468 470 455 452 472 468 464 467 491 469 475 439 461 439 452 465 445 447 484 447 479 446 0 0 0
165 174 180 201 226 212 229 228 220 256 331 345 369 369 356 353 367 371 354 380 378 371 384 389 396 397 408 417 427 427 440 442 443 440 439 445 435 450 442 442 437 444 450 446 447 453 445 453 454 456 451 452 448 454 451 459 451 453 460 462 459 456 457 459 457 458 457 457 454 459 454 447 444 434 433 434 425 424 429 437 433 427 428 429 413 417 431 430 425 421 423 423 417 408 419 396 415 422 415 408 411 411 425 403 417 398 385 416 406 399 397 395 378 393 383 418 376 417 361 0
267 303 251 229 228 228 235 237 256 323 337 338 341 350 338 337 354 347 351 355 361 359 356 368 369 389 397 402 421 424 420 422 422 431 437 436 436 433 436 435 432 432 436 431 430 444 436 442 444 439 444 440 443 441 445 448 442 443 448 447 449 443 442 443 440 445 442 440 438 445 440 436 430 424 419 419 408 393 410 395 406 392 389 389 394 406 397 400 402 403 403 395 401 402 401 388 390 391 384 400 389 396 393 392 398 404 395 386 386 402 391 396 391 403 433 416 390 400 431 459
272 294 282 243 227 234 230 243 276 298 297 286 316 296 312 316 315 304 323 313 321 331 329 343 356 369 364 380 396 396 396 398 400 403 407 404 409 419 407 411 405 415 411 412 412 413 415 418 420 416 415 416 411 422 424 421 417 425 417 421 423 425 411 426 419 418 431 418 418 409 406 405 399 400 397 398 379 366 363 360 368 351 361 363 363 368 366 359 370 367 358 352 357 368 362 363 355 353 362 369 356 357 348 366 358 358 367 354 350 338 344 360 371 342 333 355 355 381 358 376
264 271 276 263 260 255 253 291 262 276 284 282 277 286 285 288 282 295 282 283 301 304 312 319 323 340 353 368 367 383 378 383 386 393 387 387 390 399 391 394 397 386 394 392 386 396 394 389 390 393 389 405 396 399 396 392 394 400 398 402 400 398 391 396 398 390 401 398 393 393 384 394 395 385 373 367 353 349 339 326 336 325 328 331 335 338 336 342 324 332 322 321 336 325 328 342 333 324 339 329 332 325 335 344 337 330 331 327 331 333 316 338 334 339 333 330 318 326 329 341
259 253 247 257 250 250 257 260 261 276 268 264 259 261 257 264 269 265 272 273 274 287 293 293 312 319 339 354 349 360 361 367 359 369 359 372 367 370 374 369 372 374 370 371 371 376 367 372 360 376 372 373 372 377 378 382 377 373 374 382 382 370 377 372 377 380 375 374 374 373 369 367 364 365 351 338 332 313 316 313 311 301 315 304 314 311 306 308 300 289 305 303 314 306 303 312 305 306 297 311 308 318 323 308 304 314 306 300 308 303 312 325 339 325 308 299 332 312 328 297
218 228 226 227 228 230 242 237 238 237 240 249 241 243 232 243 242 240 249 243 251 262 265 274 290 296 316 330 328 325 335 336 340 334 340 341 343 337 340 343 348 342 347 347 345 348 347 339 348 338 334 351 349 352 346 351 344 348 352 352 356 351 355 343 345 351 346 349 351 341 343 343 337 329 326 325 301 292 293 291 284 280 283 278 276 276 283 280 279 280 277 287 282 278 272 270 279 279 276 276 278 275 278 266 274 280 276 277 274 273 267 274 273 273 278 276 266 267 266 277
214 221 227 226 231 218 224 227 235 223 237 230 220 234 229 231 230 229 234 232 247 245 259 263 275 283 297 291 304 303 310 318 320 316 318 326 319 322 323 325 324 327 319 319 327 328 327 327 328 326 321 328 327 329 330 325 320 315 328 323 326 329 329 332 326 332 324 331 316 320 321 322 319 312 313 297 286 277 272 269 261 262 255 261 268 260 264 259 255 256 258 261 264 257 255 252 264 249 257 265 260 252 254 269 255 257 255 258 265 271 269 261 275 255 264 254 268 263 276 260
206 212 203 217 217 215 216 214 217 212 208 216 211 210 211 212 216 215 219 225 224 235 245 250 260 268 273 276 282 284 292 293 294 292 296 301 297 302 299 300 298 294 301 300 304 306 307 305 307 307 301 305 302 301 297 305 304 305 310 307 304 309 308 307 307 309 302 299 303 300 297 303 300 293 291 280 263 265 258 260 252 248 249 245 247 247 250 237 247 248 249 242 245 250 245 238 236 241 248 244 236 239 248 251 240 238 245 240 251 246 248 254 263 259 255 263 251 268 248 280
183 194 191 200 193 204 204 206 178 187 186 200 190 189 186 194 206 189 205 209 217 216 230 233 237 244 253 256 266 264 271 270 273 268 277 281 282 279 284 284 279 282 285 284 276 283 282 285 280 285 278 277 280 280 276 282 288 283 282 286 281 284 282 286 286 285 283 283 284 280 284 278 279 270 265 259 253 248 238 231 227 231 226 233 232 229 222 223 231 224 229 221 224 220 220 225 225 217 219 219 223 219 222 230 227 221 229 231 228 227 238 230 236 226 246 235 226 213 222 208
178 181 177 191 182 198 185 201 181 187 190 181 179 178 183 177 189 187 185 205 214 212 222 230 226 234 238 244 251 252 255 254 262 257 265 256 255 266 268 269 267 262 265 271 264 265 267 271 265 266 270 270 267 270 267 265 264 269 266 273 268 271 266 273 268 271 268 269 270 268 273 260 256 259 259 247 242 233 224 219 218 227 220 218 220 221 218 214 218 221 215 218 223 211 215 220 210 198 211 218 217 212 208 215 220 214 215 213 216 224 227 228 236 229 225 228 230 229 226 241
169 174 173 181 174 179 179 181 181 183 179 174 179 181 181 176 183 187 186 179 179 190 192 212 213 218 224 222 234 231 233 239 238 245 240 236 239 245 247 247 244 244 245 244 250 253 250 243 245 252 242 253 246 245 244 248 252 249 255 251 252 245 251 249 247 253 254 248 246 240 247 243 240 243 235 226 226 220 215 212 193 197 186 187 191 188 196 196 192 190 189 187 194 180 184 187 189 205 191 193 190 205 187 186 189 197 188 205 206 188 209 197 206 214 207 207 217 211 204 210
172 170 178 178 176 173 173 169 176 180 179 176 177 171 180 174 176 180 185 182 183 186 190 187 208 194 214 218 217 224 228 227 225 225 226 234 229 233 230 231 228 231 235 229 233 235 229 229 233 233 234 234 236 232 232 233 238 234 237 239 235 240 238 236 230 235 233 227 230 232 236 230 229 223 217 217 198 198 187 198 195 196 190 191 189 192 185 194 192 192 189 188 183 189 191 182 180 191 185 179 187 180 178 178 183 189 184 182 182 189 177 199 178 200 203 201 201 194 196 205
170 163 169 173 169 166 173 168 163 170 168 167 168 169 171 169 177 173 175 184 177 180 191 192 189 187 189 190 193 210 197 215 192 214 216 218 214 215 213 197 215 219 220 215 219 222 218 220 224 221 217 218 220 220 219 221 220 222 222 224 219 223 225 221 220 216 220 222 224 221 219 216 217 212 194 195 199 196 192 188 185 185 186 183 182 186 184 186 183 183 185 185 186 182 178 183 185 180 183 182 182 186 185 186 180 180 181 180 179 181 176 181 173 173 180 196 199 206 192 184
145 155 157 161 160 159 157 164 166 164 154 158 159 161 164 163 165 171 168 175 175 173 180 182 184 186 184 192 191 188 192 185 183 185 184 190 186 187 188 188 194 193 191 194 201 196 197 197 191 192 197 195 198 201 192 193 191 195 194 197 204 198 194 188 192 195 191 195 193 194 200 196 193 191 189 196 193 188 184 177 176 179 176 171 171 170 173 175 180 175 175 173 171 167 171 170 168 172 169 172 170 172 167 167 174 172 168 165 167 174 168 178 168 180 178 171 177 172 163 175
147 149 154 155 153 158 158 156 162 160 158 158 156 154 159 160 156 160 155 169 168 166 175 176 180 179 179 179 182 185 191 187 189 192 186 186 190 194 191 189 192 196 191 198 193 196 195 199 195 193 194 198 194 197 200 196 198 200 200 199 197 197 200 199 194 195 196 198 200 192 195 193 191 190 188 184 188 185 177 173 171 169 165 168 167 166 172 167 167 169 174 168 173 170 167 171 163 163 162 169 169 168 171 168 163 163 160 162 172 169 168 161 171 173 174 161 163 167 173 167
149 144 147 145 148 151 146 148 154 154 150 149 150 151 148 145 157 149 152 160 161 162 163 173 173 172 174 175 175 179 177 176 180 183 177 182 184 180 183 185 184 185 186 183 181 186 186 187 187 185 183 188 190 187 188 187 188 189 0 187 191 187 184 189 189 186 190 188 184 186 186 185 183 179 176 177 176 172 170 165 165 162 165 159 158 163 164 159 166 162 157 162 165 165 161 164 157 161 163 164 160 168 160 156 156 161 160 157 158 161 159 157 159 157 160 169 158 160 175 163
138 136 138 137 142 150 147 145 145 145 143 145 141 142 142 147 145 147 150 152 155 160 159 164 167 165 168 166 168 172 171 172 175 173 170 173 175 173 172 177 175 182 176 176 174 179 175 180 178 177 178 177 180 181 182 181 181 0 0 179 179 180 180 181 179 179 178 178 179 174 175 174 171 175 170 172 171 166 162 159 159 156 155 152 159 158 157 155 154 154 149 151 156 151 153 153 151 154 152 151 155 158 157 155 148 149 145 153 160 151 153 154 141 151 148 153 144 146 144 153
140 137 130 142 144 141 150 143 144 138 141 140 144 144 143 141 144 149 147 146 151 156 155 158 159 158 161 164 168 167 165 167 168 171 165 164 166 170 167 170 172 0 172 0 173 173 174 173 171 172 173 176 174 173 176 0 175 173 0 176 178 0 175 178 174 170 173 173 172 173 170 166 171 172 167 164 166 161 156 152 150 157 154 151 153 150 151 146 153 152 146 154 149 147 150 148 151 152 153 149 152 149 147 147 146 146 146 144 146 149 151 147 149 157 153 154 153 162 160 164
133 112 129 115 133 135 140 138 134 122 137 133 134 126 136 135 138 137 139 138 136 143 146 150 150 154 156 154 158 161 161 154 155 160 157 156 162 163 0 0 0 0 0 0 0 0 0 163 167 165 167 166 166 168 0 0 0 168 165 0 0 0 0 0 164 169 170 0 161 163 162 164 158 158 155 157 155 157 149 149 150 145 147 148 146 148 144 147 143 143 147 145 143 145 142 141 142 147 144 143 135 140 138 138 134 138 135 136 135 138 143 141 144 146 139 142 142 142 136 144
115 129 112 124 127 134 134 131 136 131 127 132 127 128 132 127 121 138 132 135 139 138 145 147 150 150 152 152 152 153 153 153 157 155 154 153 153 0 0 0 0 0 0 0 0 0 0 0 0 159 159 161 0 0 0 0 0 0 0 0 0 0 0 0 0 158 0 0 0 0 0 155 159 155 154 152 150 149 151 146 144 144 143 142 139 139 144 138 143 142 137 138 140 145 138 139 141 136 137 136 134 138 139 134 121 133 132 136 139 143 133 149 142 134 138 137 136 131 141 145
114 107 117 123 126 125 119 129 127 129 129 123 122 121 117 132 124 134 132 134 128 134 136 143 143 140 143 146 148 149 150 149 152 153 149 149 0 0 0 0 0 0 0 0 0 0 0 0 152 154 158 0 0 0 0 0 0 0 0 0 0 0 0 0 0 0 0 0 0 0 0 0 150 150 149 147 144 143 140 145 131 142 137 137 128 129 136 141 137 130 139 140 129 127 117 137 140 136 134 135 135 138 136 124 134 135 129 132 134 133 135 137 137 138 143 126 138 132 118 137
108 110 115 110 106 110 121 120 115 121 117 113 119 114 125 123 122 118 118 118 131 123 127 122 135 139 137 139 143 143 141 142 142 143 145 140 0 0 0 0 0 0 0 0 0 0 0 0 0 0 0 0 0 0 0 0 0 0 0 0 0 0 0 0 0 0 0 0 0 0 0 0 0 141 140 142 140 130 127 130 126 122 120 121 127 118 123 125 124 128 123 121 115 126 125 128 125 123 120 117 119 129 131 115 115 120 117 119 131 134 115 132 114 128 112 127 108 110 105 100
110 112 116 116 115 116 116 126 116 116 118 117 117 117 120 123 121 120 122 116 120 114 121 118 138 128 141 139 0 133 0 0 0 137 141 0 0 0 0 0 0 0 0 0 0 0 0 0 0 0 0 0 0 0 0 0 0 0 0 0 0 0 0 0 0 0 0 0 0 0 0 0 0 141 137 124 126 127 123 129 121 121 122 127 114 121 115 119 117 118 117 124 116 116 112 120 120 116 123 124 121 133 130 124 118 113 113 125 112 126 129 126 119 123 129 129 113 131 139 142
103 102 110 114 107 102 105 106 102 102 111 105 107 107 108 110 107 114 118 111 115 116 110 117 118 118 126 119 120 126 0 0 0 0 128 0 0 0 0 0 0 0 0 0 0 0 0 0 0 0 0 0 0 0 0 0 0 0 0 0 0 0 0 0 0 0 0 0 0 0 0 0 130 0 123 127 119 122 122 117 118 115 111 119 113 119 109 112 112 116 110 117 113 110 110 106 112 117 115 109 112 109 112 116 111 115 107 109 109 102 111 108 105 111 120 92 108 121 122 135
96 99 94 96 98 100 102 97 103 102 100 99 106 104 107 105 107 108 113 107 110 110 104 108 116 109 116 119 118 120 0 126 0 0 0 0 0 0 0 0 0 0 0 0 0 0 0 0 0 0 0 0 0 0 0 0 0 0 0 0 0 0 0 0 0 0 0 0 0 0 0 0 0 126 0 114 122 117 113 112 114 111 104 104 109 108 106 120 106 110 116 110 111 115 106 114 105 105 101 118 109 102 110 105 106 115 109 109 109 112 109 102 110 102 102 120 128 100 133 120
96 103 100 105 99 101 103 93 92 99 98 98 102 98 96 94 103 105 112 118 112 109 97 111 112 108 115 115 112 122 121 120 122 0 0 0 0 0 0 0 0 0 0 0 0 0 0 0 0 0 0 0 0 0 0 0 0 0 0 0 0 0 0 0 0 0 0 0 0 0 0 0 123 124 111 120 113 115 119 117 104 110 102 121 107 109 103 102 101 107 108 109 112 96 98 101 105 102 113 105 111 113 109 112 110 114 104 96 104 98 96 105 104 101 109 98 140 117 136 132
88 85 85 86 81 84 81 93 90 83 90 95 96 96 92 91 92 94 90 88 92 88 102 107 101 103 114 105 0 116 108 108 116 0 0 0 0 0 0 0 0 0 0 0 0 0 0 0 0 0 0 0 0 0 0 0 0 0 0 0 0 0 0 0 0 0 0 0 0 0 0 0 113 111 108 112 106 105 103 101 102 107 99 94 100 99 88 100 105 100 89 95 102 84 83 98 92 99 86 95 92 94 90 91 88 90 93 91 90 86 88 91 84 92 101 94 79 90 103 124
93 84 89 90 98 98 94 107 91 95 95 92 93 93 96 94 100 91 101 95 98 105 107 105 102 102 111 106 0 105 112 110 116 113 119 106 0 0 110 0 0 117 0 0 0 0 0 0 0 0 0 0 0 0 0 0 0 0 0 0 114 0 0 0 113 0 0 0 113 0 111 110 114 110 114 110 110 113 101 98 108 105 109 88 96 104 101 105 99 104 107 105 110 101 101 102 98 91 103 108 101 98 99 102 93 103 100 89 95 84 94 95 88 92 103 90 94 114 112 150
87 92 94 90 97 96 90 94 83 92 88 90 88 92 88 86 96 104 100 95 99 95 100 111 96 104 104 102 105 106 93 0 108 105 100 106 0 116 115 0 107 0 0 0 0 0 0 0 0 0 0 0 0 0 0 0 0 109 0 0 0 108 107 108 114 113 107 102 113 108 110 106 104 101 113 110 100 93 105 95 97 95 100 87 94 89 94 104 106 94 99 106 109 84 86 86 90 93 95 85 95 88 92 93 94 93 102 96 93 91 90 97 93 107 100 89 131 154 133 151
84 85 83 85 90 93 102 87 89 79 87 86 86 93 93 93 87 89 90 87 80 88 97 83 85 95 91 91 104 88 96 101 98 98 94 108 99 105 103 103 104 96 99 108 106 90 0 0 96 0 0 106 104 93 102 110 105 101 106 104 98 108 111 99 99 110 101 96 96 107 99 106 102 99 103 94 95 95 99 91 94 90 92 96 96 91 89 89 96 96 99 87 94 94 94 93 94 94 90 83 88 87 91 92 90 80 97 84 76 94 86 96 86 96 88 85 83 67 104 98
84 80 87 84 83 86 99 103 88 85 88 84 84 88 86 93 90 92 93 97 86 99 95 86 90 99 93 89 98 98 94 88 98 93 93 97 99 100 94 111 102 97 99 107 103 96 105 0 102 102 100 106 99 100 104 103 104 107 99 108 106 98 96 105 103 104 99 102 94 105 102 104 105 94 105 88 92 96 93 98 101 97 97 91 95 94 86 89 95 90 85 101 94 92 95 81 93 93 99 87 93 98 93 92 84 96 96 92 86 91 87 96 99 104 106 95 107 115 93 128
82 73 71 69 79 82 88 89 86 81 91 81 85 78 90 85 83 88 86 83 94 88 83 91 87 87 92 94 86 95 93 93 82 91 93 87 97 86 91 97 93 93 84 92 96 97 90 103 93 90 95 85 96 91 88 84 100 89 100 96 96 83 84 97 98 82 98 91 98 89 96 86 93 93 90 91 96 97 91 94 89 94 85 90 86 93 91 88 85 87 79 79 91 84 87 87 84 78 80 89 81 89 81 70 82 78 86 84 83 82 77 89 80 90 124 89 128 74 124 80
75 73 82 86 74 88 81 88 85 79 82 90 81 83 85 88 89 88 83 88 85 92 86 93 86 95 93 85 92 91 95 95 92 94 87 91 85 96 92 94 95 94 96 89 85 101 90 98 101 86 94 97 97 86 98 97 88 85 89 94 99 83 91 93 93 95 89 96 105 94 97 98 82 97 93 95 96 85 94 93 93 85 88 89 80 86 90 80 95 95 79 91 78 80 93 83 94 88 79 81 82 84 79 77 79 83 83 88 83 85 81 84 77 82 97 98 103 92 104 214
