0 0 0 0 0 0 0 0 0 0 0 0 0 0 0 0 0 0 0 0 0 0 0 0 0 0 0 0 0 0 0 0 0 0 0 0 0 0 0 0 0 0 0 0 0 0 0 0 0 0 0 0 0 0 0 0 0 0 0 0 0 0 0 0 0 0 0 0 0 0 0 0 0 0 0 0 0 0 0 0 0 0 0 0 0 0 0 0 0 0 0 0 0 0 0 0 0 0 0 0 0 0 0 0 0 0 0 0 0 0 0 0 0 0 0 0 0 0 0 0
0 0 0 0 0 0 0 0 0 0 0 0 0 0 0 0 0 0 0 0 0 0 0 0 0 0 0 0 0 0 0 0 0 0 0 0 0 0 0 0 0 0 0 0 0 0 0 0 0 0 0 0 0 0 0 0 0 0 0 0 0 0 0 0 0 0 0 0 0 0 0 0 0 0 0 0 0 0 0 0 0 0 0 0 0 0 0 0 0 0 0 0 0 0 0 0 0 0 0 0 0 0 0 0 0 0 0 0 0 0 0 0 0 0 0 0 0 0 0 0
0 0 0 0 0 0 0 0 0 0 0 0 0 0 0 0 0 0 0 0 0 0 0 0 0 0 0 0 0 0 0 0 0 0 0 0 0 0 0 0 0 0 0 0 0 0 0 0 0 0 0 0 0 0 0 0 0 0 0 0 0 0 0 0 0 0 0 0 0 0 0 0 0 0 0 0 0 0 0 0 0 0 0 0 0 0 0 0 0 0 0 0 0 0 0 0 0 0 0 0 0 0 0 0 0 0 0 0 0 0 0 0 0 0 0 0 0 0 0 0
0 0 0 0 0 0 0 0 0 0 0 0 0 0 0 0 0 0 0 0 0 0 0 0 0 0 0 0 0 0 0 0 0 0 0 0 0 0 0 0 0 0 0 0 0 0 0 0 0 0 0 0 0 0 0 0 0 0 0 0 0 0 0 0 0 0 0 0 0 0 0 0 0 0 0 0 0 0 0 0 0 0 0 0 0 0 0 0 0 0 0 0 0 0 0 0 0 0 0 0 0 0 0 0 0 0 0 0 0 0 0 0 0 0 0 0 0 0 0 0
0 0 0 0 0 0 0 0 0 0 0 0 0 0 0 0 0 0 0 0 0 0 0 0 0 0 0 0 0 0 0 0 0 0 0 0 0 0 0 0 0 0 0 0 0 0 0 0 0 0 0 0 0 0 0 0 0 0 0 0 0 0 0 0 0 0 0 0 0 0 0 0 0 0 0 0 0 0 0 0 0 0 0 0 0 0 0 0 0 0 0 0 0 0 0 0 0 0 0 0 0 0 0 0 0 0 0 0 0 0 0 0 0 0 0 0 0 0 0 0
0 0 0 0 0 0 0 0 0 0 0 0 0 0 0 0 0 0 0 0 0 0 0 0 0 0 0 0 0 0 0 0 0 0 0 0 0 0 0 482 482 514 500 494 484 522 492 494 496 529 509 497 497 509 554 499 0 0 0 0 0 0 0 0 0 0 0 0 0 0 0 0 0 0 0 0 0 0 0 0 0 0 0 0 0 0 0 0 0 0 0 0 0 0 0 0 0 0 0 0 0 0 0 0 0 0 0 0 0 0 0 0 0 0 0 0 0 0 0 0
0 0 0 0 0 0 0 0 0 0 0 0 0 0 0 0 0 0 0 0 0 0 0 0 0 0 0 0 0 0 0 0 0 0 0 0 0 513 529 509 493 485 494 509 480 497 504 510 509 506 504 508 502 508 523 506 491 490 517 481 0 0 0 0 0 0 0 0 0 0 0 0 0 0 0 0 0 0 0 0 0 0 0 0 0 0 0 0 0 0 0 0 0 0 0 0 0 0 0 0 0 0 0 0 0 0 0 0 0 0 0 0 0 0 0 0 0 0 0 0
0 0 0 0 0 0 0 0 0 0 0 0 0 0 0 0 0 0 0 0 0 0 0 0 0 0 0 0 0 0 0 0 0 0 0 494 499 487 490 494 503 500 501 506 487 504 495 506 501 504 505 492 509 504 511 503 493 493 507 501 489 496 501 495 470 0 0 0 0 0 0 0 0 0 0 0 0 0 0 0 0 0 0 0 0 0 0 0 0 0 0 0 0 0 0 0 0 0 0 0 0 0 0 0 0 0 0 0 0 0 0 0 0 0 0 0 0 0 0 0
0 0 0 0 0 0 0 0 0 0 0 0 0 0 0 0 0 0 0 0 0 0 0 0 0 0 0 0 0 0 0 0 0 505 510 499 495 511 503 501 502 501 509 510 505 501 493 505 501 514 503 496 504 498 507 509 504 497 516 503 506 512 501 516 526 508 499 538 576 557 574 604 531 0 577 576 598 594 0 598 0 0 0 0 0 0 0 0 0 0 0 0 0 0 0 0 0 0 0 0 0 0 0 0 0 0 0 0 0 0 0 0 0 0 0 0 0 0 0 0
0 0 0 0 0 0 0 0 0 0 0 0 0 0 0 0 0 0 0 0 0 0 0 0 0 0 0 0 0 0 0 548 511 519 498 507 512 498 500 502 514 511 517 500 506 501 507 504 516 508 511 509 519 510 501 512 514 518 514 515 506 510 505 510 508 525 516 528 535 546 564 623 572 586 617 617 621 589 582 586 578 580 639 0 0 616 0 661 618 612 580 663 613 611 675 606 627 615 638 646 0 596 633 605 0 0 0 0 0 0 0 0 0 0 0 0 0 0 0 0
0 0 0 0 0 0 0 0 0 0 0 0 0 0 0 0 0 0 0 0 0 0 0 0 0 0 0 0 0 0 496 492 495 494 484 494 489 508 506 510 510 494 497 500 491 512 512 505 506 508 500 515 502 504 507 508 499 515 501 506 509 507 496 512 508 506 512 513 513 519 522 520 539 592 565 552 537 567 558 560 554 535 566 549 573 518 579 544 582 599 509 524 602 606 555 541 610 623 542 537 592 570 611 536 547 535 565 0 612 0 0 0 0 0 0 0 0 0 0 0
0 0 0 0 0 0 0 0 0 0 0 0 0 0 0 0 0 0 0 0 0 0 0 0 0 0 0 0 503 515 516 502 503 512 523 495 507 502 516 511 509 507 508 504 517 518 511 516 497 517 500 506 505 507 508 511 509 506 499 515 511 511 511 514 510 514 515 500 510 515 522 566 580 587 605 640 589 583 598 590 584 613 621 608 568 611 627 598 607 619 611 617 606 597 618 608 564 581 593 636 588 577 572 567 627 583 546 612 611 0 0 0 0 0 0 0 0 0 0 0
0 0 0 0 0 0 0 0 0 0 0 0 0 0 0 0 0 0 0 0 0 0 0 0 0 0 0 502 504 502 506 497 499 509 497 506 496 499 507 495 501 504 504 507 500 502 504 503 496 506 495 510 504 501 502 515 506 514 503 508 513 501 502 512 505 501 506 515 509 507 511 517 528 565 553 532 583 587 597 570 519 582 537 565 610 565 558 601 607 582 549 550 580 586 565 555 570 534 562 543 561 563 564 541 562 567 544 604 0 0 0 0 0 0 0 0 0 0 0 0
0 0 0 0 0 0 0 0 0 0 0 0 0 0 0 0 0 0 0 0 0 0 0 0 0 0 475 494 494 498 499 498 500 495 493 485 499 496 502 493 495 502 504 498 505 512 496 501 499 499 503 503 506 501 504 500 497 509 505 506 496 506 502 502 501 503 504 510 505 488 515 519 525 547 528 543 537 516 551 537 554 531 569 525 542 528 506 494 536 512 572 527 515 519 523 531 557 539 511 527 511 514 538 549 559 538 507 502 517 400 0 0 0 0 0 0 0 0 0 0
0 0 0 0 0 0 0 0 0 0 0 0 0 0 0 0 0 0 0 0 0 0 0 0 0 498 502 495 506 497 495 502 498 500 494 489 513 490 503 503 499 506 500 504 506 499 500 501 502 501 502 509 505 503 503 508 500 507 499 497 503 504 508 514 506 501 505 500 508 515 511 502 509 541 545 554 565 523 550 535 558 572 575 561 567 544 551 555 563 552 549 551 548 539 571 508 564 558 573 559 547 596 526 606 591 563 549 575 519 553 549 0 0 0 0 0 0 0 0 0
0 0 0 0 0 0 0 0 0 0 0 0 0 0 0 0 0 0 0 0 0 0 0 0 0 475 486 492 497 485 475 492 494 490 485 495 495 495 491 496 504 497 501 497 502 489 502 498 489 496 498 499 501 502 496 495 506 510 500 503 514 497 513 511 505 503 502 510 509 500 503 505 504 494 503 498 484 484 515 521 528 510 514 527 467 500 522 545 511 529 538 521 525 516 537 479 503 520 514 510 476 525 498 489 538 517 502 504 528 492 0 0 0 479 0 0 0 0 0 0
0 0 0 0 0 0 0 0 0 0 0 0 0 0 0 0 0 0 0 0 0 0 0 0 502 497 494 497 495 492 495 492 495 490 501 503 500 491 501 501 498 501 494 506 499 505 504 499 496 509 500 500 508 509 494 502 500 507 503 507 505 507 509 511 503 510 499 506 512 503 506 505 511 509 542 526 531 556 544 527 534 552 555 543 552 546 554 541 538 525 541 542 549 558 557 518 553 551 543 531 544 545 577 576 547 548 562 535 521 506 566 0 0 0 0 0 0 0 0 0
0 0 0 0 0 0 0 0 0 0 0 0 0 0 0 0 0 0 0 0 0 0 0 0 490 487 506 485 502 493 492 497 505 499 496 496 506 494 492 506 495 492 495 500 504 508 502 498 509 508 510 513 509 507 507 504 513 508 502 504 509 507 512 512 506 514 507 503 509 513 506 514 505 506 504 534 528 533 558 532 545 553 550 557 557 550 523 586 566 519 570 564 541 572 556 585 572 552 571 536 560 551 578 565 541 565 561 553 584 537 0 0 0 0 0 0 0 0 0 0
0 0 0 0 0 0 0 0 0 0 0 0 0 0 0 0 0 0 0 0 0 0 0 497 488 503 486 499 489 490 496 492 502 494 493 497 497 494 496 495 499 493 500 504 505 505 503 499 501 508 503 501 508 503 498 502 504 508 506 503 506 506 505 504 506 498 517 508 506 504 499 504 509 497 514 519 506 546 538 535 562 543 531 520 517 550 533 549 525 543 539 532 557 548 562 512 545 549 566 535 550 549 546 527 562 574 563 510 545 518 531 0 0 0 0 0 0 0 0 0
0 0 0 0 0 0 0 0 0 0 0 0 0 0 0 0 0 0 0 0 0 0 0 504 497 493 495 492 489 497 499 500 494 496 488 492 490 500 496 505 489 503 503 496 499 505 503 504 504 509 497 507 501 503 504 506 500 507 504 506 510 503 510 509 499 504 504 515 509 515 506 507 506 523 513 503 544 561 538 552 571 529 548 568 527 596 550 563 552 540 550 587 572 541 563 576 558 540 543 546 603 560 570 570 547 592 565 557 524 574 611 0 0 0 0 0 0 0 0 0
0 0 0 0 0 0 0 0 0 0 0 0 0 0 0 0 0 0 0 0 0 0 428 496 491 488 494 496 493 487 490 496 494 498 484 496 486 486 495 488 499 498 496 498 496 488 499 497 497 501 495 498 500 501 507 500 502 500 500 496 503 500 501 496 499 503 504 510 502 503 502 503 507 504 506 505 507 533 519 511 516 535 560 535 529 538 500 508 539 529 550 534 510 539 530 526 519 526 526 539 524 521 541 491 498 537 546 543 497 472 492 0 563 0 0 0 0 0 0 0
0 0 0 0 0 0 0 0 0 0 0 0 0 0 0 0 0 0 0 0 0 0 490 486 482 486 491 495 493 496 481 493 489 490 497 489 488 499 492 496 493 494 494 503 494 497 499 492 507 502 496 496 499 508 499 508 505 499 500 504 505 498 509 507 504 507 513 511 511 492 504 504 513 512 499 494 507 504 534 512 512 494 517 516 518 527 516 522 528 498 527 515 498 552 522 519 523 538 530 498 527 531 515 514 518 519 539 503 502 493 459 505 0 0 0 0 0 0 0 0
0 0 0 0 0 0 0 0 0 0 0 0 0 0 0 0 0 0 0 0 0 0 504 483 490 485 483 495 489 481 490 489 489 483 488 485 485 504 494 501 499 501 496 500 493 500 497 500 494 496 499 498 500 496 505 498 503 502 505 498 504 506 506 504 506 506 512 503 502 509 509 502 506 502 505 512 502 535 536 517 508 526 520 495 520 532 513 527 523 541 559 530 541 526 534 558 533 550 548 545 527 524 529 548 539 569 525 562 536 513 540 541 537 0 0 0 0 0 0 0
0 0 0 0 0 0 0 0 0 0 0 0 0 0 0 0 0 0 0 0 0 0 490 485 493 477 484 486 487 481 498 486 481 486 481 485 482 489 494 489 493 492 500 498 491 493 498 495 493 503 501 497 498 496 495 500 501 503 498 502 503 503 504 509 495 504 504 497 500 497 516 502 503 503 496 504 503 483 494 497 485 506 490 514 505 505 532 499 500 504 467 482 461 487 517 476 465 537 468 487 498 511 490 483 515 541 503 506 452 445 479 529 493 0 0 0 0 0 0 0
0 0 0 0 0 0 0 0 0 0 0 0 0 0 0 0 0 0 0 0 0 0 483 490 479 485 489 490 497 495 488 486 498 484 487 493 493 492 492 499 505 490 500 499 496 502 493 502 500 501 502 502 500 499 504 508 499 502 503 498 509 509 503 504 501 510 499 511 503 507 511 501 500 507 507 501 511 514 514 513 536 561 517 526 526 542 511 519 508 506 513 519 550 529 561 527 538 498 542 543 512 518 575 518 524 495 517 535 529 559 553 606 533 0 0 0 0 0 0 0
0 0 0 0 0 0 0 0 0 0 0 0 0 0 0 0 0 0 0 0 0 0 485 483 497 494 483 485 492 484 486 492 484 488 498 491 493 492 493 496 492 496 498 491 492 503 500 497 499 501 501 500 500 504 507 509 510 500 502 501 509 501 504 498 509 498 505 501 495 503 497 502 503 504 512 507 507 522 518 529 516 519 533 548 521 555 520 547 527 530 528 534 561 536 538 575 542 560 535 533 536 521 560 553 583 537 535 564 0 0 577 0 542 0 0 0 0 0 0 0
0 0 0 0 0 0 0 0 0 0 0 0 0 0 0 0 0 0 0 0 0 424 475 486 482 485 490 487 492 499 482 487 485 487 496 484 497 490 498 493 489 503 494 495 494 496 492 497 489 498 499 500 500 506 500 501 501 509 499 499 501 503 497 503 499 501 502 501 506 509 501 499 504 505 505 503 504 496 511 525 523 520 519 476 502 492 522 521 506 524 533 508 508 494 519 502 497 522 496 516 539 499 477 483 521 491 499 514 487 509 486 0 0 0 0 0 0 0 0 0
0 0 0 0 0 0 0 0 0 0 0 0 0 0 0 0 0 0 0 0 0 475 491 484 488 487 489 492 480 481 488 482 501 494 491 493 491 490 486 488 498 500 490 493 497 497 497 489 491 495 499 502 498 501 506 500 502 503 509 503 502 497 497 494 503 505 510 499 499 508 509 501 498 504 510 507 513 497 518 525 524 553 544 548 541 508 525 541 526 536 526 520 548 520 542 516 536 504 529 536 542 532 567 505 535 542 558 558 541 521 544 547 528 0 0 0 0 0 0 0
0 0 0 0 0 0 0 0 0 0 0 0 0 0 0 0 0 0 0 0 0 453 467 485 484 483 483 480 475 482 493 483 487 487 488 488 482 490 488 495 491 495 493 493 491 488 494 496 493 495 496 498 503 501 501 503 494 500 500 497 502 499 500 497 494 501 509 507 499 498 495 497 499 506 507 501 502 507 506 511 506 505 497 533 493 504 511 520 509 510 507 506 486 498 499 510 536 519 524 532 527 520 497 506 525 525 504 493 523 476 535 542 517 0 0 0 0 0 0 0
0 0 0 0 0 0 0 0 0 0 0 0 0 0 0 0 0 0 0 0 0 460 471 471 486 478 482 477 489 483 481 486 481 488 485 488 485 488 488 495 490 487 490 493 493 492 489 497 498 495 494 498 498 506 502 499 499 495 496 502 496 495 497 496 499 504 509 502 499 500 496 500 506 496 497 506 508 500 503 484 497 492 493 503 511 493 498 491 512 524 513 512 491 517 509 525 505 499 496 505 490 512 520 483 519 508 493 506 479 494 519 472 473 435 0 0 0 0 0 0
0 0 0 0 0 0 0 0 0 0 0 0 0 0 0 0 0 0 0 0 0 477 488 483 480 473 477 488 479 485 484 480 482 484 484 486 484 487 486 487 493 488 487 492 488 483 490 494 491 497 496 494 497 496 496 494 492 497 493 501 499 501 495 498 500 501 501 503 502 504 497 503 499 501 501 497 502 504 534 506 508 488 503 501 536 517 485 535 506 503 493 517 500 526 492 485 478 531 520 496 540 490 483 541 528 507 501 519 483 525 486 461 518 0 0 0 0 0 0 0
0 0 0 0 0 0 0 0 0 0 0 0 0 0 0 0 0 0 0 0 0 454 476 479 474 487 475 477 478 479 477 480 482 481 489 487 479 491 487 488 485 483 493 487 491 491 492 496 495 487 490 494 500 501 488 493 494 492 497 494 493 498 498 496 500 499 498 500 500 497 499 499 497 498 506 494 499 490 491 488 479 487 492 490 490 494 478 502 492 488 489 472 501 495 481 475 466 478 473 486 491 520 471 464 505 491 474 506 506 460 442 499 481 0 0 0 0 0 0 0
0 0 0 0 0 0 0 0 0 0 0 0 0 0 0 0 0 0 0 0 0 461 480 476 470 477 474 479 483 484 492 480 487 481 484 488 484 489 488 489 493 489 489 496 492 490 491 495 494 495 495 496 492 500 498 497 495 505 498 494 502 501 498 499 495 496 498 503 504 505 507 499 506 499 496 506 500 499 510 508 521 507 512 509 510 510 534 523 528 497 507 514 510 483 513 505 484 539 502 522 515 536 532 528 541 523 505 507 493 510 480 541 511 0 0 0 0 0 0 0
0 0 0 0 0 0 0 0 0 0 0 0 0 0 0 0 0 0 0 0 0 449 480 479 474 477 479 483 477 479 485 484 481 486 483 484 480 485 488 490 491 489 495 492 491 493 493 491 487 489 492 495 497 496 496 497 493 497 493 498 500 500 503 501 503 500 502 500 499 497 500 503 492 498 497 495 502 499 504 496 508 529 490 503 510 512 491 534 518 507 497 494 519 530 498 499 527 486 493 526 538 537 530 510 533 493 494 501 504 542 526 511 628 0 0 0 0 0 0 0
0 0 0 0 0 0 0 0 0 0 0 0 0 0 0 0 0 0 0 0 0 428 474 475 471 478 470 475 479 481 480 479 482 482 477 485 488 488 489 490 487 487 489 492 489 493 488 493 498 490 489 494 494 494 495 495 496 495 494 495 499 498 497 496 502 495 498 499 498 501 499 500 497 504 501 501 500 500 494 503 495 501 500 508 509 517 508 490 503 512 524 503 498 499 502 501 491 502 513 495 514 525 482 517 498 530 507 491 507 505 502 461 493 501 0 0 0 0 0 0
0 0 0 0 0 0 0 0 0 0 0 0 0 0 0 0 0 0 0 0 0 456 470 472 478 477 482 481 480 481 480 480 481 483 484 483 489 488 485 486 489 487 487 491 490 489 491 486 493 495 491 493 494 492 499 495 492 496 500 495 496 497 500 501 500 501 499 503 501 499 499 498 502 496 499 494 503 506 514 517 524 528 534 529 517 498 544 504 518 514 504 530 513 521 519 531 530 525 539 514 493 510 499 513 518 535 505 554 519 523 558 540 505 558 0 0 0 0 0 0
0 0 0 0 0 0 0 0 0 0 0 0 0 0 0 0 0 0 0 0 0 456 477 470 474 472 478 483 477 482 480 481 476 487 482 487 483 481 481 491 485 485 490 486 486 493 491 492 492 489 493 496 496 496 493 494 490 493 489 496 497 494 499 498 498 497 500 498 494 493 493 491 498 494 504 496 495 501 502 488 503 479 492 479 492 487 478 496 488 481 484 508 501 473 507 505 477 467 487 494 484 509 476 509 489 492 464 492 477 556 527 457 529 0 0 0 0 0 0 0
0 0 0 0 0 0 0 0 0 0 0 0 0 0 0 0 0 0 0 0 0 0 466 473 471 480 473 475 481 477 475 477 484 484 482 480 482 479 483 483 487 481 483 492 490 489 492 489 499 489 493 495 495 489 491 491 486 494 490 495 495 501 497 495 492 500 493 495 498 493 496 498 494 494 496 495 492 496 491 471 498 497 503 484 494 490 495 480 484 495 483 509 499 498 489 496 505 485 495 488 475 485 469 502 489 459 470 479 485 451 478 450 398 460 461 0 0 0 0 0
0 0 0 0 0 0 0 0 0 0 0 0 0 0 0 0 0 0 0 0 0 0 488 471 466 483 481 471 476 483 480 480 481 483 475 482 484 486 489 483 487 489 485 483 490 490 483 487 489 488 495 494 496 490 489 491 488 491 491 495 494 494 491 501 492 495 496 496 493 492 503 491 499 491 493 493 495 495 514 504 494 498 527 504 512 534 513 493 512 504 520 513 525 521 516 522 530 494 487 509 506 502 507 519 519 498 498 515 511 490 513 531 531 537 0 0 0 0 0 0
0 0 0 0 0 0 0 0 0 0 0 0 0 0 0 0 0 0 0 0 0 0 509 466 468 473 475 477 476 470 478 479 478 477 477 481 480 485 478 480 483 485 489 486 489 487 488 486 489 490 492 493 490 499 494 492 492 493 495 495 492 495 493 494 493 493 497 497 490 495 492 489 496 495 489 490 494 500 488 491 491 489 493 502 501 484 509 486 487 484 500 504 473 477 506 475 487 460 500 492 472 475 479 457 458 450 466 469 470 456 448 457 462 463 449 0 0 0 0 0
0 0 0 0 0 0 0 0 0 0 0 0 0 0 0 0 0 0 0 0 0 0 597 470 475 479 480 477 476 477 480 479 477 480 480 488 481 483 484 484 486 490 490 484 487 485 490 485 491 495 495 494 493 496 493 500 492 488 491 494 493 492 499 494 496 495 497 496 492 496 493 494 497 495 496 491 497 489 495 491 494 507 492 495 508 524 523 491 523 506 524 509 497 522 501 533 547 501 511 529 521 507 507 466 501 487 472 499 477 499 476 483 439 522 462 0 0 0 0 0
0 0 0 0 0 0 0 0 0 0 0 0 0 0 0 0 0 0 0 0 0 0 0 488 468 474 479 475 473 473 477 483 480 476 479 479 481 480 480 487 485 486 485 492 493 487 489 492 494 490 492 493 497 495 490 492 498 498 498 499 494 497 491 489 497 493 494 496 499 496 494 493 500 493 494 493 492 496 504 498 523 511 493 499 507 492 501 495 500 519 517 509 501 530 498 520 495 546 526 535 507 537 515 498 525 490 502 493 542 526 586 458 553 0 0 0 0 0 0 0
0 0 0 0 0 0 0 0 0 0 0 0 0 0 0 0 0 0 0 0 0 0 0 488 475 468 474 470 475 477 480 477 474 478 479 477 478 484 482 481 481 487 489 487 486 487 486 493 494 488 496 489 492 493 493 493 496 491 491 493 491 493 491 493 494 493 498 500 494 492 499 495 494 491 494 490 488 492 487 497 488 507 490 487 502 496 489 491 502 510 494 493 501 504 506 526 489 493 506 481 509 493 505 500 468 464 465 484 513 464 446 480 494 0 0 0 0 0 0 0
0 0 0 0 0 0 0 0 0 0 0 0 0 0 0 0 0 0 0 0 0 0 0 528 466 481 477 479 474 479 477 476 481 478 479 479 478 482 476 485 488 486 487 485 488 487 494 487 489 486 489 493 485 489 492 488 494 499 490 495 494 497 495 499 495 497 496 498 494 492 493 498 494 500 494 492 498 509 518 521 525 526 525 504 525 506 512 519 531 510 510 520 495 506 523 521 532 504 503 533 506 529 501 520 492 495 507 497 497 506 538 497 550 483 599 0 0 0 0 0
0 0 0 0 0 0 0 0 0 0 0 0 0 0 0 0 0 0 0 0 0 0 0 0 473 470 468 471 471 471 471 476 476 478 476 478 478 482 483 480 486 483 484 485 484 484 489 484 492 492 490 493 488 489 486 490 490 494 490 493 490 492 490 493 495 495 497 493 493 498 500 490 490 496 496 491 493 485 499 489 489 493 493 492 496 494 515 503 502 492 496 484 524 485 513 487 480 499 503 486 494 490 506 478 457 476 480 446 462 496 459 473 493 465 458 0 0 0 0 0
0 0 0 0 0 0 0 0 0 0 0 0 0 0 0 0 0 0 0 0 0 0 0 0 541 467 469 473 469 471 478 469 472 481 479 482 482 476 479 480 478 484 486 482 482 484 484 485 487 487 489 491 492 494 491 485 490 490 495 487 493 492 493 494 490 489 495 495 499 488 494 491 491 493 488 492 486 492 473 499 482 480 479 491 484 513 485 496 488 482 502 487 499 472 522 499 498 518 500 485 495 497 492 480 499 441 484 468 496 485 495 463 440 492 474 487 0 0 0 0
0 0 0 0 0 0 0 0 0 0 0 0 0 0 0 0 0 0 0 0 0 0 0 0 0 480 471 472 469 469 468 468 475 474 470 478 477 479 479 484 480 478 483 485 486 481 487 482 487 489 491 483 488 491 491 490 490 491 488 486 490 492 492 494 490 496 489 497 494 495 490 493 495 490 489 491 485 481 493 479 502 487 494 491 508 486 498 491 496 487 510 510 495 475 516 484 505 489 491 488 525 508 481 466 500 451 499 464 460 487 492 455 503 472 0 0 0 0 0 0
0 0 0 0 0 0 0 0 0 0 0 0 0 0 0 0 0 0 0 0 0 0 0 0 0 490 469 463 465 473 468 469 473 474 476 475 474 474 478 473 477 477 478 484 480 482 486 484 484 483 482 487 485 490 487 490 494 486 491 492 487 490 496 487 485 491 491 488 487 490 492 488 492 492 494 475 485 481 488 470 479 480 481 477 482 471 488 472 475 485 491 480 482 491 480 470 470 468 464 467 464 507 473 445 454 455 475 454 456 449 435 416 438 435 0 0 0 0 0 0
0 0 0 0 0 0 0 0 0 0 0 0 0 0 0 0 0 0 0 0 0 0 0 0 0 0 482 473 461 473 465 470 466 473 472 475 480 478 476 478 476 477 482 482 484 483 482 486 485 486 487 487 487 491 486 488 489 489 493 488 486 484 484 488 490 489 485 486 494 493 493 487 491 493 491 491 488 491 494 481 496 502 490 491 502 500 508 489 478 496 491 489 499 497 483 509 485 496 512 479 506 502 486 499 513 475 495 494 480 441 491 494 519 493 0 0 0 0 0 0
0 0 0 0 0 0 0 0 0 0 0 0 0 0 0 0 0 0 0 0 0 0 0 0 0 0 0 471 467 468 477 473 473 475 474 472 477 477 473 478 479 482 476 478 477 484 484 484 486 481 483 488 484 482 485 486 487 488 480 493 488 486 490 489 484 490 494 493 491 489 490 487 486 488 495 483 490 488 499 492 488 495 492 481 500 497 506 499 483 490 485 504 499 497 488 519 496 515 539 519 510 490 532 493 502 504 488 514 485 485 484 466 516 521 0 0 0 0 0 0
0 0 0 0 0 0 0 0 0 0 0 0 0 0 0 0 0 0 0 0 0 0 0 0 0 0 0 475 467 461 464 465 470 474 472 474 475 475 473 472 476 475 476 481 480 478 479 480 477 482 485 481 484 488 483 484 484 480 486 494 491 488 486 488 484 486 490 490 487 485 486 485 488 474 490 478 493 475 491 485 491 471 479 485 501 486 489 469 475 493 464 490 474 474 492 504 471 504 489 488 472 486 474 476 462 461 472 490 463 454 473 490 455 480 0 0 0 0 0 0
0 0 0 0 0 0 0 0 0 0 0 0 0 0 0 0 0 0 0 0 0 0 0 0 0 0 0 0 537 464 468 468 469 471 473 470 476 471 473 481 478 475 482 476 473 479 476 481 483 486 480 487 485 488 483 484 485 482 490 491 487 486 485 489 487 485 489 486 490 491 488 491 473 490 504 503 492 503 493 486 495 488 505 495 507 496 516 502 491 514 500 505 479 524 506 504 479 501 504 501 511 497 491 492 496 497 481 454 506 492 519 508 528 503 495 0 0 0 0 0
0 0 0 0 0 248 228 255 285 0 0 0 0 0 0 0 0 0 0 0 0 2346 0 0 0 0 0 0 0 484 457 466 471 468 464 475 474 471 469 471 470 475 473 477 477 477 480 483 480 481 480 481 483 482 482 479 485 486 485 484 484 482 482 487 486 483 485 480 476 485 479 488 481 474 492 487 490 484 487 484 484 475 491 492 502 484 503 483 476 501 474 515 497 485 518 476 489 480 467 484 485 472 485 511 476 490 476 472 500 457 470 470 481 446 453 0 0 0 0 0
0 0 0 0 241 230 235 233 234 285 353 0 0 0 0 0 0 0 0 0 0 0 0 0 0 0 0 0 0 0 439 465 461 467 467 471 471 475 472 472 474 467 471 475 477 478 480 472 474 477 474 482 481 480 483 480 482 477 480 482 485 478 483 491 481 481 482 487 478 483 471 472 473 469 479 477 471 465 473 466 481 483 482 471 474 490 473 484 468 467 464 473 473 464 493 465 478 471 466 474 450 470 468 459 465 448 424 441 460 441 429 438 412 397 0 0 0 0 0 0
0 0 0 217 230 226 224 225 233 239 331 0 0 0 0 0 0 0 0 0 0 0 0 0 0 0 0 0 0 0 0 465 454 469 461 467 468 469 464 469 469 469 473 471 471 478 473 478 477 475 473 478 477 470 477 480 482 476 481 480 476 485 478 480 483 481 482 474 476 485 481 481 472 477 491 481 469 485 478 478 482 474 476 468 469 486 485 475 473 483 479 473 513 489 476 472 465 519 489 507 479 496 466 462 455 458 454 475 471 479 465 423 449 471 439 0 0 0 0 0
212 193 201 208 252 263 256 233 235 235 303 0 416 391 405 410 398 417 412 440 452 415 419 432 433 435 446 439 445 460 441 461 465 468 465 467 464 469 464 471 463 472 469 466 469 469 470 470 473 472 475 478 473 474 478 478 475 478 475 478 474 486 481 475 483 477 478 473 478 472 467 466 478 465 471 459 464 461 478 459 480 449 466 461 475 468 469 477 466 467 473 472 478 478 476 476 439 451 466 481 462 435 464 441 464 440 458 452 444 424 474 423 420 426 460 0 0 0 0 0
208 218 206 212 204 212 253 228 230 257 381 360 390 408 390 404 398 400 406 417 397 410 408 423 427 420 431 435 442 444 454 459 453 455 453 453 456 456 463 454 462 456 460 470 461 462 466 472 473 470 467 474 469 471 467 471 476 470 471 471 470 476 466 477 467 471 470 474 474 467 465 463 469 461 462 452 465 452 453 455 463 449 451 451 446 454 440 453 465 448 458 463 448 448 459 429 448 458 456 460 450 453 444 453 471 466 455 434 451 438 422 425 441 451 456 419 468 459 0 0
207 173 208 224 218 229 232 230 232 322 401 366 355 372 396 367 374 387 377 367 376 372 399 401 405 412 411 419 428 433 440 449 444 444 437 444 440 439 454 451 449 447 453 446 447 451 452 452 456 456 452 460 458 460 459 456 458 453 461 456 459 460 460 463 456 459 455 455 457 455 456 459 447 442 437 437 437 440 429 439 427 429 421 424 425 427 419 426 435 434 434 429 430 434 428 421 431 426 428 427 436 413 447 424 426 426 432 430 414 418 426 419 417 437 435 433 415 446 0 0
246 271 244 221 241 228 232 234 267 350 345 322 343 336 348 329 342 349 349 357 344 359 361 380 385 384 391 411 417 417 411 427 414 432 427 432 436 431 428 428 431 431 424 431 437 434 436 433 439 438 441 442 445 440 443 443 440 440 442 443 442 444 441 446 436 445 434 439 443 433 433 432 428 431 420 411 401 407 405 401 401 381 391 391 391 405 407 399 389 390 394 396 388 389 397 394 389 393 394 381 400 387 394 389 392 378 389 383 363 396 373 395 382 398 390 377 371 397 402 420
289 303 279 248 239 234 232 249 305 315 309 317 299 317 312 315 315 315 309 331 331 333 334 349 355 365 386 380 404 397 398 406 410 412 407 412 409 413 413 412 419 414 414 415 419 416 419 425 414 424 413 417 412 418 423 421 421 426 419 427 424 421 417 425 419 423 424 422 418 418 415 413 408 406 399 390 382 377 363 378 355 364 366 371 362 367 356 369 368 367 371 366 368 373 372 371 363 379 375 375 370 360 372 382 383 362 356 365 367 371 365 367 361 371 375 367 376 368 375 384
296 261 266 258 266 249 261 284 264 279 268 278 286 293 283 289 296 288 290 288 291 307 306 325 329 348 351 365 366 368 380 386 393 388 381 384 391 391 393 394 397 392 396 392 388 398 388 391 399 393 392 398 399 392 398 382 397 399 399 398 395 397 400 399 395 385 400 391 393 401 390 390 388 377 370 364 360 352 338 332 337 323 337 336 333 327 334 325 338 325 327 346 333 342 335 332 322 326 329 314 336 324 331 321 336 339 340 334 329 327 319 320 341 343 333 321 347 315 302 335
243 246 241 246 246 246 248 254 260 257 253 256 250 261 260 251 269 262 266 268 274 279 281 298 315 313 333 344 343 353 352 361 365 366 364 362 367 364 366 367 363 366 371 372 370 375 370 370 367 370 375 372 373 374 381 378 372 372 379 377 380 374 369 377 369 373 367 378 368 368 375 362 357 354 341 339 329 321 313 308 314 300 300 289 296 297 300 298 285 296 306 300 308 303 299 292 301 292 289 312 306 307 299 303 306 318 302 318 304 303 297 287 318 297 313 293 314 304 297 286
228 242 233 230 238 234 239 234 242 238 242 244 249 244 242 240 248 248 249 250 251 259 272 283 299 301 316 329 324 329 325 337 348 345 340 340 345 349 339 344 349 347 352 344 352 341 346 353 342 344 343 352 349 352 351 357 347 350 354 349 355 351 349 349 348 348 346 347 351 348 344 341 335 337 327 317 308 300 294 288 289 276 278 284 281 277 282 280 273 272 273 276 271 278 281 272 267 279 278 284 285 286 275 285 275 284 272 269 272 293 270 291 280 292 284 279 261 278 285 319
209 213 219 218 216 217 222 215 223 227 225 227 222 229 221 216 235 227 226 236 237 239 253 255 273 276 290 292 302 303 303 316 315 317 316 316 317 318 320 324 315 314 314 318 325 319 324 328 322 326 321 326 331 323 326 321 327 319 331 320 324 332 321 321 319 325 329 324 319 313 318 320 314 311 301 296 284 275 276 263 262 262 260 261 254 254 250 257 250 248 250 264 259 243 260 251 254 244 254 250 255 267 260 265 250 251 259 255 266 257 258 255 267 250 260 253 239 258 262 225
192 212 210 210 209 207 215 217 211 215 210 207 212 219 225 215 221 218 224 217 224 230 246 250 249 256 273 278 280 285 290 292 294 291 296 296 297 306 298 298 302 297 296 298 300 299 303 302 303 303 306 297 303 303 298 303 305 306 309 304 307 306 306 300 307 308 308 303 302 296 297 295 297 294 290 277 267 268 255 254 245 247 248 246 246 239 244 241 241 238 250 246 245 242 239 232 236 235 241 243 244 239 252 249 248 236 244 251 239 241 245 242 253 251 253 228 260 237 234 231
199 195 205 200 200 197 203 204 197 204 208 200 203 188 184 206 206 209 212 213 214 225 236 236 238 251 252 261 268 270 267 270 272 277 278 279 277 275 282 284 279 285 288 288 283 278 287 280 287 284 285 282 279 283 281 286 288 281 282 288 284 288 289 286 285 290 286 284 281 282 283 277 279 270 265 255 252 244 240 235 232 232 226 227 230 229 227 226 233 228 228 233 229 230 220 226 229 222 224 223 225 235 224 226 222 213 223 232 232 230 239 227 239 229 248 254 233 213 256 251
181 173 176 176 185 179 179 203 183 181 183 182 186 198 181 177 183 189 185 190 210 209 217 233 226 232 237 239 247 246 256 253 253 257 262 256 261 258 264 265 264 265 261 270 265 260 265 275 266 266 262 262 266 265 266 264 268 268 263 274 266 268 262 275 268 266 272 267 269 264 267 256 260 250 249 241 236 232 228 223 221 222 216 220 217 220 217 211 214 221 218 220 219 197 213 214 213 200 211 217 221 212 211 207 208 213 215 210 216 216 212 227 220 221 213 213 237 217 216 239
176 178 172 180 172 171 180 181 177 171 184 183 175 183 181 183 187 179 182 184 189 189 204 215 214 221 222 223 233 228 234 242 244 241 244 239 242 246 250 248 245 244 250 247 253 251 250 249 249 252 250 253 247 250 244 253 252 250 249 250 252 252 252 248 246 253 249 249 243 250 244 246 240 237 236 226 220 218 216 212 200 198 185 184 191 193 190 196 196 191 190 211 196 184 194 188 184 207 204 193 203 209 206 191 208 191 189 198 202 203 208 211 216 220 214 213 210 218 228 229
169 171 173 176 178 173 172 172 175 178 177 172 172 173 180 180 177 183 179 185 186 186 187 191 207 193 210 217 215 223 228 227 223 225 230 225 228 236 228 228 227 230 232 231 233 238 228 228 237 232 231 234 235 230 234 229 230 238 237 236 238 236 235 232 231 231 235 231 237 235 234 230 230 224 221 214 198 195 188 198 196 196 193 195 195 186 196 192 191 187 191 182 191 188 191 191 190 188 187 179 174 182 181 187 183 179 186 184 176 179 174 204 175 188 201 177 205 206 192 202
166 161 168 172 175 166 166 164 166 164 167 164 171 166 171 176 176 173 172 183 175 185 179 181 183 186 186 189 192 209 211 197 207 210 213 213 214 201 199 213 213 219 217 217 220 219 218 221 219 219 216 225 220 221 217 222 219 221 220 221 217 223 217 219 218 217 217 221 223 215 223 201 217 193 191 192 190 195 191 186 186 180 184 183 184 182 182 182 180 186 185 182 177 184 185 183 182 179 176 186 184 181 174 182 183 176 180 174 174 183 179 178 178 172 197 191 177 166 170 203
148 154 157 159 163 161 160 164 163 167 156 158 162 160 157 164 164 172 168 173 171 172 178 179 183 183 184 184 184 184 194 185 182 185 193 192 191 190 186 190 194 193 190 193 197 197 194 195 193 197 195 195 194 199 193 192 196 192 192 196 200 199 197 189 195 194 194 192 197 195 197 193 196 189 197 197 195 191 185 179 175 177 180 176 169 174 175 176 175 179 174 175 167 170 171 175 171 166 167 174 169 173 170 168 171 168 168 169 171 175 171 173 170 174 171 168 167 175 165 168
144 149 153 150 152 154 155 158 157 155 160 153 154 156 156 158 158 160 159 163 163 166 176 173 180 177 176 179 180 184 191 189 186 190 187 187 188 191 191 189 194 193 191 196 195 196 195 197 194 191 191 196 196 198 198 194 197 200 196 189 199 196 197 198 193 194 196 197 197 194 193 192 191 193 188 183 186 183 177 173 171 172 164 169 165 165 172 169 170 166 169 166 171 163 170 163 162 168 159 167 166 161 171 167 164 161 161 159 164 167 166 162 163 168 166 166 154 165 161 148
144 142 149 146 148 147 147 150 153 151 147 152 151 157 151 152 152 149 154 160 160 165 165 175 170 172 174 175 173 179 176 180 179 182 178 181 182 178 183 185 183 182 187 186 184 184 185 187 188 184 184 191 188 187 190 186 187 189 0 190 188 187 185 187 189 187 188 185 185 184 187 182 182 181 178 177 175 173 172 165 161 158 162 161 157 161 165 161 166 161 160 163 158 160 160 159 157 159 165 162 161 162 161 158 154 162 155 156 160 155 157 159 163 159 164 168 170 167 164 173
135 141 136 138 143 150 147 149 142 147 144 144 143 143 144 147 143 149 148 153 156 161 161 161 166 167 169 166 168 170 171 171 178 172 170 170 175 175 175 175 176 183 176 177 174 177 172 179 179 178 180 176 182 179 180 183 183 0 0 178 178 178 177 179 180 176 178 179 180 173 177 176 174 176 173 168 169 164 160 161 161 156 157 154 154 158 155 152 157 155 150 152 159 155 154 148 152 153 156 155 160 152 151 153 148 145 150 149 164 149 161 152 147 149 152 150 152 149 160 155
137 134 133 140 143 144 148 141 143 139 140 141 146 143 139 137 142 146 146 147 150 155 156 156 160 159 162 161 164 162 165 163 168 168 166 166 165 171 165 171 173 0 172 0 171 173 170 171 177 171 173 171 178 176 176 0 175 169 0 0 0 0 0 173 175 172 172 170 172 170 169 168 169 165 162 163 161 159 156 154 154 154 154 151 153 155 150 149 150 153 149 149 149 149 151 145 151 149 153 148 147 144 145 149 145 145 139 146 148 143 145 147 150 164 148 159 148 171 155 173
129 125 127 126 133 135 141 140 133 130 133 130 135 133 139 135 136 135 140 141 140 142 150 152 151 159 159 154 156 161 161 158 158 160 159 156 163 163 0 0 0 0 0 0 0 0 0 165 165 167 168 161 169 167 0 0 0 168 168 0 0 0 0 0 165 165 165 0 161 163 165 160 159 159 156 153 153 158 147 148 146 146 146 147 145 148 139 146 149 145 144 147 141 144 142 139 141 146 140 145 139 139 145 134 136 135 138 133 143 140 144 138 152 151 151 145 132 148 161 141
116 126 126 125 127 131 132 131 137 129 125 131 132 127 124 124 120 135 136 135 140 141 145 147 146 149 151 153 153 154 150 156 157 157 153 155 155 0 0 0 0 0 0 0 0 0 0 0 0 161 164 162 0 0 0 0 0 0 0 0 0 0 0 0 0 160 0 0 0 0 0 158 157 156 153 150 148 152 146 145 139 140 144 144 140 143 146 138 143 138 137 138 138 139 138 139 143 143 137 139 137 134 139 136 131 129 133 131 142 140 136 145 144 138 128 135 139 134 125 149
113 104 119 123 127 126 129 127 127 128 130 124 118 119 122 133 131 131 128 129 134 124 133 142 140 137 144 144 147 151 148 147 151 150 150 149 0 0 0 0 0 0 0 0 0 0 0 0 151 155 156 0 0 0 0 0 0 0 0 0 0 0 0 0 0 0 0 0 0 0 0 0 145 150 150 145 147 144 142 141 127 138 127 130 123 125 136 138 136 137 138 136 130 127 122 135 137 139 134 132 130 138 136 122 123 133 131 131 133 138 135 137 135 143 140 126 139 125 115 124
103 108 112 110 105 111 122 117 112 119 115 112 118 117 128 121 119 118 116 118 122 126 127 123 136 139 141 138 142 143 144 142 143 142 148 142 0 0 0 0 0 0 0 0 0 0 0 0 146 0 0 0 0 0 0 0 0 0 0 0 0 0 0 0 0 0 0 0 0 0 0 0 143 142 140 138 138 131 126 131 128 121 122 122 127 121 125 122 124 129 123 123 115 128 124 128 125 121 121 118 121 120 132 116 119 122 116 122 132 135 133 130 108 110 112 133 117 102 118 122
109 106 113 114 113 113 117 125 115 115 115 119 114 114 118 122 119 119 120 114 117 114 121 120 129 136 138 138 0 131 0 0 0 140 139 140 0 0 0 0 0 0 0 0 0 0 0 0 0 0 0 0 0 0 0 0 0 0 0 0 0 0 0 0 0 0 0 0 0 0 0 0 0 141 137 126 126 124 116 122 117 117 122 124 111 122 116 119 118 117 116 121 116 115 111 118 117 121 118 120 120 121 130 124 116 114 127 119 109 121 119 112 127 118 129 127 107 127 142 129
99 99 108 111 108 105 109 108 102 103 111 104 104 105 104 110 106 115 116 113 116 117 109 118 120 120 124 119 0 128 126 0 0 0 127 0 0 0 0 0 0 0 0 0 0 0 0 0 0 0 0 0 0 0 0 0 0 0 0 0 0 0 0 0 0 0 0 0 0 0 0 0 129 0 0 123 117 120 123 114 117 116 108 113 112 116 110 114 108 116 115 116 111 111 109 105 111 114 110 106 114 108 107 116 113 117 109 109 123 112 104 114 96 126 117 109 101 129 121 142
97 101 90 98 104 100 102 101 104 102 102 101 105 106 110 104 104 107 112 107 109 107 111 108 116 110 117 116 119 121 0 126 0 0 0 0 0 0 0 0 0 0 0 0 0 0 0 0 0 0 0 0 0 0 0 0 0 0 0 0 0 0 0 0 0 0 0 0 0 0 0 0 0 121 0 116 120 112 112 110 113 111 103 102 108 109 109 115 104 110 112 113 111 112 106 115 110 107 101 114 109 107 109 100 110 111 108 111 110 113 109 104 114 101 107 137 126 106 103 147
95 103 99 104 98 97 101 95 95 100 98 96 100 93 100 97 102 103 110 114 111 108 98 106 114 107 111 112 112 121 119 122 122 0 0 0 0 0 0 0 0 0 0 0 0 0 0 0 0 0 0 0 0 0 0 0 0 0 0 0 0 0 0 0 0 0 0 0 0 0 0 0 124 123 109 121 114 118 119 117 104 111 104 120 108 110 101 104 104 106 109 108 108 96 99 101 107 102 112 103 108 108 107 108 103 107 105 93 105 98 101 107 102 96 124 91 132 134 99 112
88 85 82 86 81 85 84 96 93 82 90 92 97 93 91 89 77 94 92 90 93 85 100 103 102 103 113 108 0 113 107 106 116 0 0 0 0 0 113 0 0 0 0 0 0 0 0 0 0 0 0 0 0 0 0 0 0 0 0 0 0 0 0 0 0 0 0 0 0 0 0 0 111 110 105 115 107 107 101 100 101 100 95 89 102 95 91 99 106 101 92 96 105 84 82 97 95 100 88 97 92 93 97 90 86 91 97 97 95 90 81 76 87 99 87 108 94 96 110 131
95 85 91 91 99 98 94 107 91 96 95 95 92 91 97 98 98 91 105 98 98 101 104 103 103 105 109 110 0 105 112 110 115 111 121 107 113 0 111 0 0 117 0 0 0 0 0 0 0 0 0 0 0 0 0 0 0 0 0 0 117 0 0 0 111 0 0 0 111 0 110 108 114 110 112 108 107 110 104 99 113 105 106 90 99 101 104 102 102 102 106 107 111 99 100 104 100 95 101 105 100 99 95 99 97 103 98 91 85 85 91 92 91 97 105 99 101 127 114 102
86 89 91 92 96 95 91 89 85 97 88 91 87 91 87 86 93 100 99 97 98 92 98 111 91 101 104 103 103 107 92 99 105 101 99 101 0 116 116 0 110 0 0 0 0 0 0 0 0 0 0 0 0 0 0 0 0 113 0 0 110 107 105 110 112 112 103 99 111 106 107 104 105 98 111 109 100 92 105 96 97 93 103 88 97 89 96 103 104 94 97 105 110 87 85 85 90 90 95 84 92 86 95 98 89 89 97 90 96 85 96 92 86 94 92 91 110 106 100 97
85 84 82 85 90 89 102 90 89 82 89 90 84 89 92 90 88 89 93 86 80 93 93 86 85 91 91 91 105 90 94 99 96 94 94 110 99 100 104 99 106 96 98 109 109 89 0 0 94 0 0 107 107 91 102 108 109 100 107 100 99 104 110 104 100 110 102 95 97 107 97 104 106 96 104 92 95 95 103 90 94 94 96 96 95 92 87 90 93 93 101 87 94 93 93 90 84 84 92 87 88 89 90 94 87 81 95 84 83 88 88 97 97 110 78 96 100 94 99 110
82 80 87 84 84 84 94 101 88 88 81 81 90 83 84 88 90 91 90 98 86 97 93 87 92 93 95 89 95 99 96 85 95 94 96 97 99 100 93 106 102 96 98 107 101 95 102 0 102 101 98 104 100 96 100 98 100 107 98 107 101 94 92 103 100 96 98 98 96 103 98 103 101 93 104 87 95 94 98 96 101 95 95 89 96 97 87 85 92 89 87 96 87 92 91 92 94 92 96 93 92 98 82 90 88 101 88 89 85 84 86 86 104 87 88 131 113 85 101 70
81 73 71 68 80 82 87 87 86 82 86 80 85 77 87 84 85 87 86 87 85 84 93 87 87 84 92 94 94 93 91 93 80 94 94 96 95 85 90 83 90 89 97 90 98 92 90 102 92 89 93 97 96 90 92 85 101 90 99 94 96 98 83 94 97 80 96 90 97 86 93 84 97 93 97 95 92 92 90 96 85 93 84 90 84 91 87 91 83 87 93 80 91 81 88 87 82 94 80 89 77 89 84 72 78 83 80 84 85 75 75 89 88 88 89 123 120 78 92 74
71 71 84 84 72 84 87 86 82 80 84 89 80 80 83 87 87 88 84 87 83 93 85 90 85 94 89 83 93 90 94 93 92 94 86 93 97 93 96 95 95 81 95 89 87 94 88 86 102 91 92 95 87 84 98 97 92 83 87 96 99 85 92 93 93 96 87 95 104 94 93 95 82 97 94 84 97 83 95 95 91 87 89 88 79 86 91 80 93 92 79 90 76 82 92 81 92 84 83 82 82 78 83 77 77 87 85 88 89 93 89 88 87 103 80 115 103 87 95 195
