0 0 0 0 0 0 0 0 0 0 0 0 0 0 0 0 0 0 0 0 0 0 0 0 0 0 0 0 0 0 0 0 0 0 0 0 0 0 0 0 0 0 0 0 0 0 0 0 0 0 0 0 0 0 0 0 0 0 0 0 0 0 0 0 0 0 0 0 0 0 0 0 0 0 0 0 0 0 0 0 0 0 0 0 0 0 0 0 0 0 0 0 0 0 0 0 0 0 0 0 0 0 0 0 0 0 0 0 0 0 0 0 0 0 0 0 0 0 0 0
0 0 0 0 0 0 0 0 0 0 0 0 0 0 0 0 0 0 0 0 0 0 0 0 0 0 0 0 0 0 0 0 0 0 0 0 0 0 0 0 0 0 0 0 0 0 0 0 0 0 0 0 0 0 0 0 0 0 0 0 0 0 0 0 0 0 0 0 0 0 0 0 0 0 0 0 0 0 0 0 0 0 0 0 0 0 0 0 0 0 0 0 0 0 0 0 0 0 0 0 0 0 0 0 0 0 0 0 0 0 0 0 0 0 0 0 0 0 0 0
0 0 0 0 0 0 0 0 0 0 0 0 0 0 0 0 0 0 0 0 0 0 0 0 0 0 0 0 0 0 0 0 0 0 0 0 0 0 0 0 0 0 0 0 0 0 0 0 0 0 0 0 0 0 0 0 0 0 0 0 0 0 0 0 0 0 0 0 0 0 0 0 0 0 0 0 0 0 0 0 0 0 0 0 0 0 0 0 0 0 0 0 0 0 0 0 0 0 0 0 0 0 0 0 0 0 0 0 0 0 0 0 0 0 0 0 0 0 0 0
0 0 0 0 0 0 0 0 0 0 0 0 0 0 0 0 0 0 0 0 0 0 0 0 0 0 0 0 0 0 0 0 0 0 0 0 0 0 0 0 0 0 0 0 0 0 0 0 0 0 0 0 0 0 0 0 0 0 0 0 0 0 0 0 0 0 0 0 0 0 0 0 0 0 0 0 0 0 0 0 0 0 0 0 0 0 0 0 0 0 0 0 0 0 0 0 0 0 0 0 0 0 0 0 0 0 0 0 0 0 0 0 0 0 0 0 0 0 0 0
0 0 0 0 0 0 0 0 0 0 0 0 0 0 0 0 0 0 0 0 0 0 0 0 0 0 0 0 0 0 0 0 0 0 0 0 0 0 0 0 0 0 0 0 0 0 0 0 0 0 0 0 0 0 0 0 0 0 0 0 0 0 0 0 0 0 0 0 0 0 0 0 0 0 0 0 0 0 0 0 0 0 0 0 0 0 0 0 0 0 0 0 0 0 0 0 0 0 0 0 0 0 0 0 0 0 0 0 0 0 0 0 0 0 0 0 0 0 0 0
0 0 0 0 0 0 0 0 0 0 0 0 0 0 0 0 0 0 0 0 0 0 0 0 0 0 0 0 0 0 0 0 0 0 0 0 0 0 0 498 492 525 510 481 506 526 523 522 517 495 490 508 556 551 527 0 0 0 0 0 0 0 0 0 0 0 0 0 0 0 0 0 0 0 0 0 0 0 0 0 0 0 0 0 0 0 0 0 0 0 0 0 0 0 0 0 0 0 0 0 0 0 0 0 0 0 0 0 0 0 0 0 0 0 0 0 0 0 0 0
0 0 0 0 0 0 0 0 0 0 0 0 0 0 0 0 0 0 0 0 0 0 0 0 0 0 0 0 0 0 0 0 0 0 0 0 0 468 501 509 499 508 509 492 501 500 502 501 506 510 505 506 504 500 499 518 491 477 496 487 0 0 0 0 0 0 0 0 0 0 0 0 0 0 0 0 0 0 0 0 0 0 0 0 0 0 0 0 0 0 0 0 0 0 0 0 0 0 0 0 0 0 0 0 0 0 0 0 0 0 0 0 0 0 0 0 0 0 0 0
0 0 0 0 0 0 0 0 0 0 0 0 0 0 0 0 0 0 0 0 0 0 0 0 0 0 0 0 0 0 0 0 0 0 0 508 513 518 512 511 508 503 503 516 494 502 501 519 507 510 519 498 510 509 519 509 527 510 521 500 536 511 515 517 532 0 0 0 0 0 0 0 0 0 0 0 0 0 0 0 0 0 0 0 0 0 0 0 0 0 0 0 0 0 0 0 0 0 0 0 0 0 0 0 0 0 0 0 0 0 0 0 0 0 0 0 0 0 0 0
0 0 0 0 0 0 0 0 0 0 0 0 0 0 0 0 0 0 0 0 0 0 0 0 0 0 0 0 0 0 0 0 0 517 503 512 510 506 503 497 508 517 500 499 505 499 517 516 513 508 505 497 525 507 503 510 510 514 500 511 514 523 514 522 515 523 524 564 585 609 590 608 582 0 597 627 627 577 0 596 0 0 0 0 0 0 0 0 0 0 0 0 0 0 0 0 0 0 0 0 0 0 0 0 0 0 0 0 0 0 0 0 0 0 0 0 0 0 0 0
0 0 0 0 0 0 0 0 0 0 0 0 0 0 0 0 0 0 0 0 0 0 0 0 0 0 0 0 0 0 0 503 483 503 498 499 481 494 508 489 503 485 499 503 490 508 512 510 517 503 508 499 514 495 504 507 501 508 494 507 511 503 510 498 500 509 514 528 517 497 502 535 543 576 586 586 569 526 571 584 547 551 563 541 0 545 530 516 573 545 555 514 563 622 501 572 542 526 573 490 0 568 541 572 0 0 0 0 0 0 0 0 0 0 0 0 0 0 0 0
0 0 0 0 0 0 0 0 0 0 0 0 0 0 0 0 0 0 0 0 0 0 0 0 0 0 0 0 0 0 540 519 515 495 514 497 509 510 512 519 517 501 515 511 514 511 507 507 501 511 506 518 506 506 512 524 515 523 503 517 523 507 517 510 518 510 515 516 512 534 570 585 517 608 595 601 609 544 569 582 609 595 617 592 577 617 598 570 588 586 630 598 588 611 611 586 634 617 647 647 571 615 585 615 622 576 568 613 610 0 0 0 0 0 0 0 0 0 0 0
0 0 0 0 0 0 0 0 0 0 0 0 0 0 0 0 0 0 0 0 0 0 0 0 0 0 0 0 487 477 487 494 496 488 499 500 502 499 497 507 499 512 498 498 509 514 509 487 497 507 502 506 499 497 508 509 512 509 501 502 507 503 503 508 511 500 498 500 500 514 492 516 529 558 573 553 571 535 593 551 562 529 552 561 536 529 547 513 543 547 533 534 518 538 541 540 558 509 602 570 522 561 548 542 508 537 554 569 514 0 0 0 0 0 0 0 0 0 0 0
0 0 0 0 0 0 0 0 0 0 0 0 0 0 0 0 0 0 0 0 0 0 0 0 0 0 0 517 496 508 497 504 492 501 501 504 489 496 502 498 508 506 494 504 502 500 496 503 495 507 508 504 515 504 508 501 503 507 505 510 513 505 515 512 515 504 510 501 511 504 511 511 512 575 580 529 522 552 552 537 534 570 573 584 536 546 569 557 553 532 575 529 559 510 540 553 582 549 532 548 547 536 522 538 597 527 558 533 559 0 0 0 0 0 0 0 0 0 0 0
0 0 0 0 0 0 0 0 0 0 0 0 0 0 0 0 0 0 0 0 0 0 0 0 0 0 498 494 507 507 496 491 499 503 505 497 503 497 497 500 500 507 507 505 503 514 502 502 507 506 509 506 506 503 513 503 502 507 504 506 508 516 512 504 509 518 516 510 518 505 518 506 540 548 554 549 601 581 569 549 546 560 620 600 546 619 571 557 554 554 593 573 563 572 580 582 578 570 535 566 556 566 576 535 585 578 550 530 524 0 0 0 0 0 0 0 0 0 0 0
0 0 0 0 0 0 0 0 0 0 0 0 0 0 0 0 0 0 0 0 0 0 0 0 0 418 493 486 507 503 491 492 489 491 491 493 493 491 489 491 504 505 509 500 501 501 497 502 492 496 501 504 510 499 509 508 503 500 501 502 505 501 504 510 497 514 505 493 500 510 505 502 489 515 502 522 557 508 537 512 518 495 514 524 553 504 521 525 542 474 551 507 511 534 550 555 526 539 510 533 541 512 472 543 531 503 532 497 560 451 534 0 0 0 0 0 0 0 0 0
0 0 0 0 0 0 0 0 0 0 0 0 0 0 0 0 0 0 0 0 0 0 0 0 0 483 500 507 499 499 491 491 495 502 492 499 492 497 501 499 510 499 505 504 500 505 508 511 489 505 509 501 502 506 504 506 501 503 501 507 510 506 511 505 506 505 507 516 512 504 507 513 502 517 537 529 534 547 558 582 550 584 542 572 522 523 540 557 540 574 554 535 573 557 540 560 540 556 569 568 590 546 544 513 568 564 565 517 558 602 560 0 527 583 0 0 0 0 0 0
0 0 0 0 0 0 0 0 0 0 0 0 0 0 0 0 0 0 0 0 0 0 0 0 499 496 506 498 490 491 494 501 483 494 506 503 504 501 509 496 504 503 491 503 499 499 502 492 495 506 502 502 505 505 504 508 498 508 504 513 505 504 504 506 506 510 512 516 502 503 510 513 522 511 533 536 531 536 549 533 547 543 542 581 560 576 565 561 568 552 551 549 577 572 551 580 557 548 538 540 539 590 584 559 561 541 535 557 584 549 560 0 0 0 0 0 0 0 0 0
0 0 0 0 0 0 0 0 0 0 0 0 0 0 0 0 0 0 0 0 0 0 0 0 478 489 486 493 494 496 497 489 488 479 490 496 496 490 491 490 493 499 502 498 493 505 499 510 510 499 501 497 498 499 502 501 502 497 510 503 499 501 509 506 505 507 513 500 502 512 501 508 512 511 500 504 533 514 520 507 512 545 543 542 548 536 514 532 500 527 532 537 505 508 537 526 520 552 542 532 535 531 527 588 475 511 537 499 564 482 0 0 0 0 0 0 0 0 0 0
0 0 0 0 0 0 0 0 0 0 0 0 0 0 0 0 0 0 0 0 0 0 0 509 492 501 490 499 491 492 492 499 497 492 507 493 504 494 503 498 502 495 498 507 497 513 500 504 499 505 510 492 502 512 506 505 502 508 503 509 509 499 499 506 507 502 518 505 506 505 508 510 507 504 510 526 545 536 530 574 545 566 522 532 546 552 567 549 551 528 570 559 535 562 538 564 525 514 549 561 536 511 521 528 558 542 554 574 551 532 526 0 0 0 0 0 0 0 0 0
0 0 0 0 0 0 0 0 0 0 0 0 0 0 0 0 0 0 0 0 0 0 0 485 493 492 495 496 489 489 497 485 494 504 483 494 489 492 492 499 494 503 498 497 509 492 497 508 498 497 503 499 502 502 500 509 506 510 512 500 502 498 504 502 505 503 502 502 500 514 511 507 508 503 506 501 525 535 514 537 534 530 517 552 517 532 489 505 519 530 544 521 496 506 527 514 545 528 526 513 496 571 534 524 540 530 503 525 505 523 518 0 0 0 0 0 0 0 0 0
0 0 0 0 0 0 0 0 0 0 0 0 0 0 0 0 0 0 0 0 0 0 452 483 485 490 486 492 488 490 495 497 494 487 484 496 493 487 485 486 500 501 509 498 494 502 506 494 503 500 495 493 500 495 508 499 506 502 500 506 497 504 506 504 502 500 503 502 507 503 505 509 513 510 501 492 505 534 503 533 507 505 508 530 512 517 514 530 500 538 498 536 533 509 536 530 500 517 558 528 532 515 503 560 513 547 501 539 533 547 517 445 530 0 0 0 0 0 0 0
0 0 0 0 0 0 0 0 0 0 0 0 0 0 0 0 0 0 0 0 0 0 505 502 498 491 494 496 494 495 496 495 498 488 493 497 491 497 502 505 491 499 501 495 500 504 499 496 504 494 502 496 500 505 500 506 504 503 505 508 507 499 510 502 510 512 509 519 514 503 506 504 514 507 505 507 513 517 553 532 534 526 508 536 509 524 536 536 547 579 537 551 523 560 536 552 536 527 559 535 540 575 535 529 550 552 537 537 546 512 505 561 0 0 0 0 0 0 0 0
0 0 0 0 0 0 0 0 0 0 0 0 0 0 0 0 0 0 0 0 0 0 496 476 483 485 486 492 488 488 485 492 493 485 491 489 491 493 483 488 491 493 497 496 497 497 497 494 497 498 492 502 494 499 497 494 501 506 508 498 494 506 507 501 500 499 505 510 498 498 500 502 506 501 513 498 509 515 511 487 507 524 502 502 499 563 488 504 501 531 514 537 517 518 517 530 520 502 516 534 523 516 545 513 483 513 509 551 546 484 557 529 502 0 0 0 0 0 0 0
0 0 0 0 0 0 0 0 0 0 0 0 0 0 0 0 0 0 0 0 0 0 503 491 497 495 489 493 483 490 489 484 491 496 488 491 489 495 493 492 495 490 497 492 495 499 500 497 496 499 495 503 501 496 504 506 503 500 500 504 503 509 505 512 502 499 505 504 504 504 512 505 505 505 503 510 503 524 522 546 529 532 538 510 490 563 509 543 529 528 521 524 567 492 498 544 525 511 523 536 534 536 524 541 519 526 536 519 543 520 487 519 556 536 0 0 0 0 0 0
0 0 0 0 0 0 0 0 0 0 0 0 0 0 0 0 0 0 0 0 0 0 511 493 484 488 496 496 496 493 503 493 495 489 481 490 492 495 497 491 497 492 507 501 498 500 495 498 503 498 500 503 497 500 509 500 506 504 509 504 506 509 505 504 506 508 502 499 510 502 507 507 520 503 511 500 507 524 517 527 544 526 536 548 534 510 581 527 533 533 523 534 532 537 523 529 544 539 537 528 548 531 551 550 535 503 541 539 553 538 534 511 562 0 0 0 0 0 0 0
0 0 0 0 0 0 0 0 0 0 0 0 0 0 0 0 0 0 0 0 0 0 489 474 490 490 487 486 488 493 491 490 490 485 493 486 487 487 497 495 493 493 498 495 492 487 494 503 497 498 502 498 504 499 497 499 498 500 494 495 498 504 506 506 502 504 500 502 493 498 493 496 497 499 502 504 505 517 515 524 510 493 529 517 521 526 512 539 515 499 514 495 545 520 491 543 537 495 502 516 531 538 483 490 516 498 492 489 496 477 483 0 493 0 0 0 0 0 0 0
0 0 0 0 0 0 0 0 0 0 0 0 0 0 0 0 0 0 0 0 0 464 479 496 491 497 495 489 497 483 483 488 480 498 495 486 499 499 497 498 495 502 495 495 498 493 488 502 493 492 499 505 501 501 507 496 504 502 505 496 500 509 503 502 503 508 506 508 502 512 505 507 511 508 505 507 504 506 519 533 516 514 537 511 520 505 525 521 524 532 524 506 538 527 521 494 551 503 559 554 535 527 514 529 561 543 520 541 487 523 549 495 0 0 0 0 0 0 0 0
0 0 0 0 0 0 0 0 0 0 0 0 0 0 0 0 0 0 0 0 0 447 484 477 490 487 487 483 491 476 476 485 492 487 487 494 488 484 488 492 497 496 496 492 492 496 496 490 490 498 497 496 497 499 498 506 501 500 499 500 502 498 506 492 504 501 502 500 501 498 503 493 501 501 509 505 500 502 497 505 484 513 520 521 527 501 497 491 500 511 497 491 515 500 495 501 472 480 492 485 479 495 540 492 496 532 521 520 522 484 503 498 0 0 0 0 0 0 0 0
0 0 0 0 0 0 0 0 0 0 0 0 0 0 0 0 0 0 0 0 0 456 477 485 487 480 486 486 480 480 481 486 485 483 483 487 487 488 495 485 490 488 490 495 493 490 494 490 495 494 494 496 496 494 498 501 497 496 499 502 506 501 502 502 500 503 507 503 506 504 502 496 502 505 503 500 502 505 496 508 509 516 498 500 523 506 499 501 532 497 479 501 508 504 513 479 484 525 526 517 521 509 479 499 507 511 488 504 456 490 505 504 479 510 517 0 0 0 0 0
0 0 0 0 0 0 0 0 0 0 0 0 0 0 0 0 0 0 0 0 0 466 490 471 483 482 484 483 490 486 490 485 487 484 493 491 490 486 489 493 489 490 493 490 495 494 495 491 494 494 494 499 502 504 500 504 503 500 503 501 495 503 503 503 502 499 504 501 495 507 505 503 507 508 502 501 508 509 504 517 510 527 501 508 518 518 534 510 498 530 499 519 521 502 493 518 515 519 515 533 514 538 513 550 541 502 553 490 489 503 505 515 580 0 0 0 0 0 0 0
0 0 0 0 0 0 0 0 0 0 0 0 0 0 0 0 0 0 0 0 0 453 491 481 476 479 480 482 487 481 485 480 486 487 484 483 484 487 485 484 488 490 489 489 493 490 496 492 491 493 497 502 497 498 490 496 494 501 498 499 502 505 501 496 500 504 495 507 502 500 499 503 499 505 497 503 491 497 509 495 511 503 520 503 530 483 505 485 531 480 496 487 496 496 488 507 492 520 518 474 488 491 509 494 494 511 519 498 503 526 493 496 0 0 0 0 0 0 0 0
0 0 0 0 0 0 0 0 0 0 0 0 0 0 0 0 0 0 0 0 0 474 475 481 482 479 483 483 487 485 480 481 484 489 488 482 485 489 493 489 491 494 493 491 490 494 494 496 496 496 498 497 499 501 496 493 498 493 503 500 499 506 497 502 503 502 506 502 504 501 504 503 506 508 506 504 499 498 502 516 509 516 531 520 538 519 521 493 501 529 526 517 524 520 542 524 501 524 486 506 513 566 518 527 516 519 544 508 572 546 532 559 507 0 0 0 0 0 0 0
0 0 0 0 0 0 0 0 0 0 0 0 0 0 0 0 0 0 0 0 0 478 488 482 477 483 476 477 486 474 492 482 484 486 486 491 482 489 489 491 492 486 493 491 492 494 497 496 493 500 498 498 496 500 490 500 498 499 502 496 496 502 499 495 499 501 503 499 500 507 506 500 510 501 496 500 505 506 499 516 513 515 515 538 508 543 522 530 511 532 515 527 529 546 531 513 507 510 527 506 497 533 547 535 535 519 515 513 523 508 504 525 566 0 0 0 0 0 0 0
0 0 0 0 0 0 0 0 0 0 0 0 0 0 0 0 0 0 0 0 0 447 472 480 475 475 479 480 479 476 480 484 483 482 490 483 478 479 482 491 488 485 487 492 490 490 492 490 491 493 492 498 495 497 496 496 500 497 496 495 501 495 497 501 498 504 497 504 500 501 497 497 499 498 494 502 500 495 499 483 512 505 502 499 506 517 485 500 527 520 499 476 494 489 480 490 490 497 528 498 515 513 491 502 509 502 498 521 508 494 473 498 528 0 0 0 0 0 0 0
0 0 0 0 0 0 0 0 0 0 0 0 0 0 0 0 0 0 0 0 0 462 483 474 478 478 476 477 480 484 482 490 482 488 487 490 490 488 488 489 485 490 489 488 491 499 493 498 492 494 501 492 498 496 499 497 493 498 498 497 498 502 502 498 503 501 497 503 499 502 501 499 503 502 504 497 499 500 504 503 511 507 521 513 493 504 511 524 511 495 487 486 502 529 526 507 516 497 520 501 520 504 528 523 544 499 509 521 526 532 528 540 528 519 0 0 0 0 0 0
0 0 0 0 0 0 0 0 0 0 0 0 0 0 0 0 0 0 0 0 0 463 472 469 475 474 476 475 475 473 479 477 483 481 480 475 483 482 482 488 488 487 487 491 491 492 486 491 491 498 491 497 495 495 495 494 494 501 494 497 499 492 493 491 496 498 498 495 491 491 495 498 496 498 498 500 501 506 502 494 508 504 506 487 506 501 497 493 514 490 477 503 492 508 511 485 498 496 505 490 481 490 467 505 492 506 461 512 484 488 508 521 522 439 0 0 0 0 0 0
0 0 0 0 0 0 0 0 0 0 0 0 0 0 0 0 0 0 0 0 0 484 472 478 473 473 483 477 478 479 475 478 480 483 486 481 477 483 483 486 484 491 491 487 490 489 486 494 493 491 490 492 497 494 494 496 493 495 492 495 495 495 499 497 504 496 496 501 498 494 497 495 500 494 497 498 496 497 502 489 506 479 491 492 487 500 491 481 506 481 496 500 482 487 475 483 495 525 500 488 490 499 521 494 505 507 491 486 510 476 465 482 448 502 500 0 0 0 0 0
0 0 0 0 0 0 0 0 0 0 0 0 0 0 0 0 0 0 0 0 0 0 478 477 481 481 478 480 475 485 479 486 484 477 486 482 488 482 488 488 482 483 490 489 492 494 493 496 489 495 497 495 497 497 495 496 491 491 493 495 500 501 495 501 500 500 495 497 496 499 497 497 495 500 496 500 496 503 493 503 517 498 502 491 511 508 495 506 527 499 532 512 523 518 515 501 533 504 519 541 528 526 537 551 543 516 547 515 514 517 494 530 509 510 0 0 0 0 0 0
0 0 0 0 0 0 0 0 0 0 0 0 0 0 0 0 0 0 0 0 0 0 487 475 471 477 476 473 478 476 479 479 476 480 487 484 480 489 494 481 483 481 485 485 486 489 483 490 492 485 491 493 492 493 492 491 490 490 494 498 494 493 495 497 496 495 500 499 492 493 494 494 499 497 493 491 496 498 489 495 496 495 492 506 503 509 489 477 494 481 505 511 502 490 513 488 502 492 489 461 491 494 474 498 499 480 504 471 498 493 470 503 443 419 0 0 0 0 0 0
0 0 0 0 0 0 0 0 0 0 0 0 0 0 0 0 0 0 0 0 0 0 533 474 466 475 477 475 476 474 480 481 477 483 478 489 486 487 478 482 487 483 485 490 491 493 490 490 487 495 488 493 495 494 491 493 494 493 488 495 499 499 497 491 496 496 501 497 493 501 494 497 497 495 496 497 497 507 503 497 497 521 505 517 534 500 501 494 519 512 510 512 512 518 501 514 499 523 544 514 507 498 509 522 527 492 506 536 502 478 463 506 498 522 497 537 0 0 0 0
0 0 0 0 0 0 0 0 0 0 0 0 0 0 0 0 0 0 0 0 0 0 612 473 477 479 476 473 475 474 475 481 483 478 488 485 485 479 486 486 488 488 488 491 486 485 488 486 495 491 489 493 494 491 493 494 492 495 494 495 496 494 496 500 493 496 500 495 498 495 491 495 497 500 499 492 499 492 495 500 521 512 497 516 539 503 508 511 513 523 519 517 541 523 523 533 484 504 536 502 524 514 502 509 491 513 511 491 493 502 518 499 507 516 0 0 0 0 0 0
0 0 0 0 0 0 0 0 0 0 0 0 0 0 0 0 0 0 0 0 0 0 0 481 473 474 477 474 468 474 473 483 475 479 478 482 477 481 477 487 489 490 485 484 488 476 486 486 488 490 488 492 494 487 496 490 492 493 492 490 493 495 494 496 493 495 494 493 492 496 500 494 500 490 493 497 488 494 489 494 497 511 487 499 497 491 496 497 501 492 488 480 486 491 505 522 477 485 497 510 474 492 479 504 482 485 459 526 493 496 481 449 445 0 0 0 0 0 0 0
0 0 0 0 0 0 0 0 0 0 0 0 0 0 0 0 0 0 0 0 0 0 0 490 478 475 476 472 476 476 479 478 477 476 479 479 479 479 481 482 485 485 486 488 486 486 489 491 492 494 490 488 488 489 496 495 492 492 499 489 493 491 493 495 493 498 494 498 496 493 494 497 496 494 489 489 491 495 490 508 503 501 500 497 499 499 503 484 510 512 502 510 508 520 529 514 511 503 521 500 558 555 510 495 531 512 510 501 487 506 525 534 506 522 0 0 0 0 0 0
0 0 0 0 0 0 0 0 0 0 0 0 0 0 0 0 0 0 0 0 0 0 0 510 468 477 470 474 472 476 473 473 481 476 480 481 472 475 479 482 484 480 490 486 488 487 488 484 491 489 490 490 488 484 495 490 495 496 488 490 495 493 494 498 495 489 492 498 495 493 497 491 495 503 493 493 493 486 484 512 496 490 485 518 517 511 497 487 511 518 517 519 503 493 499 484 506 509 503 510 489 500 483 479 486 506 487 492 481 478 504 481 431 478 0 0 0 0 0 0
0 0 0 0 0 0 0 0 0 0 0 0 0 0 0 0 0 0 0 0 0 0 0 0 465 469 466 470 467 474 476 478 471 478 479 473 479 479 478 485 479 482 481 483 484 487 488 485 488 488 488 495 489 493 491 491 490 494 486 495 492 500 490 492 495 489 491 493 494 494 494 495 493 491 489 491 491 486 484 492 510 496 489 495 487 493 482 497 498 512 480 499 503 489 508 511 497 513 476 494 490 498 468 508 467 479 440 466 488 466 477 504 498 470 456 428 0 0 0 0
0 0 0 0 0 0 0 0 0 0 0 0 0 0 0 0 0 0 0 0 0 0 0 0 510 468 468 475 472 474 474 471 476 477 482 479 485 477 480 484 484 481 481 484 487 483 488 488 483 488 488 492 492 495 490 491 494 493 495 492 492 492 495 493 499 495 492 494 496 495 493 491 493 497 496 494 495 484 491 508 494 515 496 498 495 520 494 489 504 512 515 488 534 521 546 534 521 516 545 500 505 549 460 502 510 494 496 493 511 510 504 496 509 502 465 459 0 0 0 0
0 0 0 0 0 0 0 0 0 0 0 0 0 0 0 0 0 0 0 0 0 0 0 0 0 470 466 469 466 472 468 473 477 475 478 476 474 476 481 482 477 476 479 484 485 478 484 481 484 482 485 484 490 493 487 493 489 490 484 492 490 488 490 494 494 488 489 492 493 493 489 491 490 489 491 486 479 472 489 484 483 487 475 488 483 499 476 483 480 480 494 487 498 489 526 493 502 484 474 487 489 496 482 472 444 486 464 478 487 463 435 477 465 454 0 0 0 0 0 0
0 0 0 0 0 0 0 0 0 0 0 0 0 0 0 0 0 0 0 0 0 0 0 0 0 535 469 469 468 475 468 476 474 471 475 476 479 474 477 477 482 484 476 481 483 485 480 484 484 488 486 484 485 489 490 491 495 491 488 494 487 490 486 490 494 497 495 489 494 490 493 488 492 491 491 491 498 482 493 480 485 494 491 491 484 484 491 509 488 489 493 493 482 492 506 501 494 496 488 492 488 500 503 511 468 492 492 497 501 476 501 485 478 534 0 0 0 0 0 0
0 0 0 0 0 0 0 0 0 0 0 0 0 0 0 0 0 0 0 0 0 0 0 0 0 0 490 468 462 468 466 468 471 472 477 478 476 475 481 479 477 480 483 482 489 484 481 484 487 485 486 494 491 489 493 492 489 489 488 485 487 486 487 494 498 489 485 489 494 491 499 497 492 487 487 498 486 492 492 494 483 499 497 496 494 500 489 495 485 518 486 497 504 509 491 486 487 490 497 482 495 509 503 499 502 489 499 508 456 444 498 484 487 473 0 0 0 0 0 0
0 0 0 0 0 0 0 0 0 0 0 0 0 0 0 0 0 0 0 0 0 0 0 0 0 0 0 468 470 460 470 472 472 470 472 473 475 472 474 480 480 483 476 481 482 481 480 479 485 481 481 482 484 484 488 484 486 487 481 487 485 485 488 487 487 493 488 491 490 491 487 484 486 493 480 487 474 473 497 485 468 479 486 490 492 500 496 486 478 467 475 489 491 471 473 510 489 494 500 496 506 491 490 450 457 463 466 453 505 431 442 454 466 482 466 0 0 0 0 0
0 0 0 0 0 0 0 0 0 0 0 0 0 0 0 0 0 0 0 0 0 0 0 0 0 0 0 502 473 467 463 472 476 470 472 473 476 474 476 478 479 478 480 482 480 477 482 486 480 484 486 486 484 490 487 488 489 481 491 491 485 490 488 491 490 486 491 492 490 490 487 485 484 489 477 493 475 496 505 498 494 490 507 508 491 518 515 495 497 487 497 509 483 504 515 493 483 494 525 513 497 469 520 465 480 489 460 500 474 497 536 476 465 494 497 0 0 0 0 0
0 0 0 0 0 0 0 0 0 0 0 0 0 0 0 0 0 0 0 0 0 0 0 0 0 0 0 0 502 471 464 462 471 467 476 473 472 471 475 474 474 477 475 480 477 478 474 478 475 479 483 485 485 482 485 485 488 485 480 482 484 487 487 489 482 487 486 486 487 487 486 482 473 486 484 486 482 481 492 485 492 479 486 482 508 490 483 506 477 477 496 478 477 500 482 485 471 493 487 479 488 484 483 463 462 480 462 457 459 454 475 506 434 437 472 0 0 0 0 0
0 0 0 0 0 242 235 245 265 0 0 0 0 0 0 0 0 0 0 0 0 0 0 0 0 0 0 0 0 502 462 470 469 470 461 474 474 469 472 473 473 475 478 479 478 476 477 480 479 481 478 479 482 487 484 482 484 483 482 486 484 483 485 483 483 490 486 485 475 486 479 488 477 479 489 478 484 468 472 477 481 484 485 483 466 484 490 481 490 462 466 496 489 478 505 476 479 480 471 467 495 480 495 473 453 483 456 466 479 450 438 440 451 482 428 0 0 0 0 0
0 0 0 0 252 230 234 235 234 287 384 0 0 0 0 0 0 0 0 0 0 2342 0 0 0 0 0 0 0 0 463 465 463 470 468 476 475 470 473 471 473 476 477 472 477 475 479 472 476 477 476 479 485 485 480 485 483 482 487 484 482 481 482 493 486 488 483 482 483 485 476 481 493 477 484 483 487 471 484 482 502 485 498 483 474 499 472 487 491 492 501 486 494 495 486 496 467 491 502 528 493 496 484 486 478 462 488 486 476 467 462 505 445 515 0 0 0 0 0 0
0 0 0 210 225 228 222 226 238 239 335 0 0 0 0 0 0 0 0 0 0 0 0 0 0 0 0 0 0 0 0 465 461 465 460 467 462 467 466 471 466 472 472 472 468 471 468 474 470 476 475 475 481 476 479 476 479 478 477 479 480 483 482 480 480 476 485 480 482 473 477 481 472 472 467 480 479 475 484 480 481 472 491 482 479 485 468 469 465 486 482 485 474 464 472 467 462 473 485 473 470 467 446 438 449 444 423 443 441 439 445 437 421 404 458 0 0 0 0 0
261 227 274 255 283 295 285 232 240 244 323 0 427 414 415 438 436 435 434 452 443 460 443 444 441 440 457 448 456 453 457 463 463 464 459 472 462 469 473 469 468 470 476 474 478 469 473 474 485 474 473 475 479 480 483 479 480 478 484 484 478 479 477 481 484 477 479 482 485 475 482 475 470 468 482 463 474 493 491 477 469 479 473 478 467 461 496 488 469 470 478 488 485 481 482 479 482 473 457 476 494 485 472 467 469 468 466 480 462 502 442 495 467 479 494 531 0 0 0 0
196 198 228 235 239 262 261 224 228 262 391 399 378 402 394 383 418 400 405 400 402 407 418 436 420 438 421 435 431 446 453 456 458 455 450 458 456 458 464 456 461 463 460 466 465 474 473 469 469 474 471 471 470 469 472 470 467 471 466 470 466 475 477 475 469 473 487 474 474 470 471 473 468 473 451 456 460 456 459 461 469 461 452 466 458 438 454 453 460 466 456 442 448 468 444 457 454 452 468 444 444 452 438 444 451 425 467 454 448 428 444 425 447 434 435 480 446 440 0 0
181 198 223 215 232 237 237 228 234 306 396 366 386 360 367 356 361 357 379 385 374 385 387 382 420 415 413 427 427 438 438 447 444 446 443 447 439 451 442 450 445 446 445 443 460 454 452 461 461 456 452 453 457 463 459 459 456 459 464 461 462 465 458 460 460 460 457 457 463 455 459 453 446 438 441 439 428 437 429 431 430 438 424 436 427 427 423 432 433 435 432 427 427 430 440 436 428 440 427 413 421 436 437 431 426 399 400 433 431 418 425 423 403 439 411 430 410 388 444 413
269 267 244 228 243 228 232 231 267 344 339 337 351 348 345 328 355 345 343 358 356 368 372 384 372 389 401 405 423 418 415 425 423 435 429 438 436 433 437 426 436 439 435 435 436 437 438 443 443 435 447 437 444 442 448 443 443 444 441 445 447 443 446 444 440 446 445 443 433 433 441 437 427 430 417 419 417 402 410 407 379 398 392 399 409 408 408 397 397 397 403 398 402 404 410 402 396 404 400 412 399 403 396 410 403 395 377 396 388 387 414 398 402 408 443 399 438 409 431 425
292 285 285 238 233 230 234 242 307 293 288 302 315 313 308 321 311 307 319 325 324 323 328 347 351 362 377 384 392 394 400 401 404 410 410 406 410 416 410 410 411 418 414 414 412 413 415 424 415 415 418 415 417 421 418 422 428 418 425 423 419 423 418 418 420 418 421 412 414 420 413 409 403 398 402 393 382 367 376 367 378 360 358 373 357 362 353 353 361 372 359 356 349 357 376 358 358 360 355 363 360 358 358 359 354 367 349 361 359 346 360 346 354 351 358 351 358 370 323 329
279 280 287 269 282 255 267 282 268 284 276 290 279 291 284 283 291 297 281 282 300 314 317 319 325 349 355 369 369 382 384 383 391 385 388 387 390 401 395 398 400 383 396 391 393 395 393 393 392 396 392 396 405 402 397 393 396 399 402 401 398 394 393 394 384 385 394 397 392 397 387 385 386 387 380 364 358 347 335 332 344 323 330 337 337 325 323 337 334 329 323 336 333 335 334 340 317 324 331 330 336 325 346 337 335 351 328 339 337 320 332 344 332 309 354 349 335 311 318 328
244 251 248 242 240 251 255 259 265 263 253 271 261 251 262 268 257 260 279 276 264 284 298 296 314 322 332 341 352 359 356 370 363 360 367 367 361 370 368 372 376 378 375 373 372 378 368 370 365 374 373 366 376 380 384 378 374 377 381 375 381 377 378 377 369 375 376 369 368 367 368 369 362 357 345 340 331 318 312 316 307 294 306 303 302 305 304 302 298 302 302 300 303 313 319 308 303 302 294 309 304 305 316 303 314 308 317 299 317 307 307 314 337 318 323 316 306 355 322 313
236 216 214 221 233 230 233 235 249 232 237 243 244 243 246 241 242 244 245 246 260 265 274 279 288 294 311 321 326 333 334 336 340 341 340 339 341 342 337 349 347 342 346 346 351 346 343 340 350 339 340 350 352 350 347 348 344 351 349 352 350 345 348 343 350 349 347 348 342 343 343 343 335 328 325 317 303 290 291 287 285 278 280 271 284 278 269 284 276 268 276 273 286 281 278 265 271 269 272 280 275 260 273 269 269 277 264 269 283 273 268 281 265 268 274 262 291 300 247 265
226 213 230 234 230 222 224 224 227 232 238 240 233 239 234 227 237 228 233 245 243 249 259 263 274 281 291 288 307 306 314 319 320 321 318 323 318 323 323 329 319 325 320 323 331 325 325 326 323 323 329 324 334 327 331 327 327 330 329 329 325 329 328 326 327 323 324 330 330 322 325 321 323 312 307 292 287 278 279 276 271 263 264 271 259 264 254 263 263 262 257 260 258 260 262 261 257 258 266 259 257 269 263 266 269 257 261 270 271 279 271 277 279 279 282 265 260 273 295 316
208 210 212 212 216 211 215 213 207 218 216 214 208 211 213 215 214 215 221 220 231 236 248 250 254 264 277 277 281 282 287 295 291 297 298 295 296 296 301 306 297 297 296 303 309 296 305 297 313 305 303 301 302 305 303 306 304 300 305 307 304 303 308 304 309 307 306 304 307 303 295 302 299 291 290 281 266 258 257 250 250 247 250 249 243 249 247 242 241 245 244 248 249 247 239 245 241 240 246 240 248 243 243 247 245 245 244 238 240 241 236 240 265 263 248 259 249 255 244 236
184 197 206 206 201 199 200 204 204 200 202 175 205 191 186 191 206 205 213 213 216 227 227 231 236 249 253 256 265 265 267 270 273 267 278 282 282 283 283 283 277 285 288 287 280 275 281 281 286 285 283 279 276 286 276 282 284 287 285 288 282 283 283 285 285 286 280 282 283 283 283 279 277 276 269 257 254 240 238 234 230 229 228 227 227 230 223 221 225 227 226 228 227 232 221 225 221 224 226 220 226 226 234 232 233 220 224 233 231 239 223 235 241 234 235 227 233 221 232 231
176 193 193 197 186 198 185 188 186 187 179 185 179 183 183 181 185 188 189 191 214 209 223 235 227 235 243 242 246 251 259 255 259 260 258 257 259 263 267 265 265 269 265 269 265 271 267 268 266 266 265 265 266 266 266 268 265 268 268 274 267 270 264 268 266 271 271 272 266 268 269 257 257 257 254 246 242 235 231 222 214 221 220 216 217 221 217 212 214 214 217 226 219 218 212 214 215 217 210 221 219 219 211 219 211 215 220 214 216 224 228 232 232 237 230 216 236 229 224 233
170 177 168 175 180 178 179 175 182 180 181 175 177 179 183 185 182 186 179 181 182 185 191 212 217 217 220 223 228 231 233 244 240 244 245 237 241 246 249 248 245 243 249 246 257 254 247 247 244 246 244 247 248 248 243 251 251 249 252 254 250 245 249 247 241 246 250 250 249 247 248 247 243 236 235 223 220 219 196 212 198 193 196 183 198 186 189 198 194 192 191 191 189 188 188 191 181 188 191 196 191 208 189 190 205 194 183 200 187 187 203 205 210 199 200 200 197 201 184 210
171 176 174 178 177 176 173 175 176 178 177 174 174 177 176 176 183 183 188 184 189 186 187 190 194 193 196 218 217 225 221 224 222 227 228 229 230 229 226 226 228 232 233 236 234 235 226 231 235 228 234 236 237 232 238 233 235 239 238 236 236 237 234 232 238 236 234 227 231 231 232 235 229 224 218 216 197 195 188 198 191 197 191 194 194 185 189 190 192 188 191 191 189 189 191 191 190 189 185 179 188 185 188 186 184 179 186 176 181 181 174 183 195 182 203 194 181 208 170 195
163 161 169 170 168 171 174 168 171 167 169 162 170 172 171 168 176 173 174 181 176 183 179 190 187 181 182 191 193 210 197 212 209 210 211 218 217 214 213 199 217 224 218 221 220 224 220 218 221 223 217 221 222 222 219 222 219 224 222 225 219 222 221 221 217 219 220 219 219 219 223 213 216 196 189 191 189 194 191 189 185 185 188 185 187 188 186 186 186 186 185 180 181 181 182 184 180 181 183 186 188 187 180 186 181 182 182 173 182 183 174 174 176 174 174 177 171 175 173 198
149 153 159 159 157 162 154 162 162 163 160 161 158 163 164 163 160 168 167 171 173 176 179 181 183 185 182 184 194 185 193 187 185 184 194 192 186 188 189 189 194 192 190 191 193 193 194 191 189 193 195 196 195 200 197 191 194 192 192 194 199 196 196 196 191 196 192 193 195 195 198 196 196 193 195 195 190 189 183 176 175 176 175 176 175 173 174 178 178 176 175 175 171 174 174 168 171 167 163 172 169 174 169 169 173 166 167 168 169 171 169 165 172 173 176 170 169 170 166 177
142 151 150 152 152 160 154 158 161 157 162 161 157 156 160 156 160 162 159 167 166 166 178 179 180 181 178 180 181 192 190 191 188 191 191 188 190 194 192 192 196 195 191 196 193 188 196 196 196 194 194 198 194 197 198 194 197 201 195 199 198 196 198 196 195 194 195 188 198 196 194 195 192 190 189 186 190 182 175 172 173 173 171 167 170 168 173 167 172 168 171 168 170 167 169 165 165 164 165 172 167 168 172 167 168 154 162 167 169 164 171 166 171 174 176 170 172 173 163 164
144 144 147 144 149 150 149 147 151 150 150 152 150 152 147 149 155 152 157 156 160 165 167 171 171 172 174 176 174 178 177 179 183 181 180 182 185 180 183 181 182 184 186 188 182 185 184 187 190 185 184 191 186 190 186 186 187 190 0 188 189 189 183 187 187 190 191 189 186 186 186 186 183 179 177 177 175 173 171 164 163 163 165 160 161 162 164 160 166 161 158 162 160 164 161 162 157 160 165 164 158 160 164 158 155 157 158 161 153 157 158 158 162 163 154 176 161 164 163 163
133 139 132 142 138 152 151 142 147 149 144 145 138 147 140 148 143 149 145 151 155 160 162 164 170 167 169 164 168 171 172 173 176 169 170 173 176 172 176 174 172 179 176 177 175 178 176 178 176 175 183 179 181 182 182 183 183 0 0 179 177 179 179 181 180 177 176 181 179 173 177 177 173 175 171 169 174 166 164 160 163 156 155 156 156 155 155 151 156 155 150 154 157 155 153 154 152 152 156 155 157 153 152 154 149 147 144 147 159 153 155 148 153 150 151 162 154 143 143 167
139 133 131 138 143 143 152 142 139 138 139 143 143 146 145 143 142 152 146 145 150 154 156 160 163 159 164 162 165 166 163 164 168 168 165 165 166 169 168 169 172 0 172 0 171 175 171 173 171 173 174 172 174 174 174 0 173 173 0 176 174 0 175 173 174 173 175 168 174 171 171 168 170 173 168 165 166 161 157 153 153 156 153 155 155 151 152 148 152 153 150 151 150 151 149 148 153 152 154 149 150 150 150 147 148 149 145 149 154 147 153 148 150 154 155 155 160 168 158 174
131 124 129 115 133 135 143 138 129 122 135 131 132 126 137 136 134 137 135 140 139 146 150 153 148 156 157 154 156 159 160 155 159 159 158 157 163 162 0 0 0 0 0 0 0 0 0 164 164 165 167 164 169 163 0 0 0 168 167 0 0 0 0 0 167 166 168 0 163 163 164 161 159 161 155 158 152 154 149 149 150 149 147 146 140 148 142 146 143 146 147 146 144 146 140 141 140 147 140 140 138 142 142 137 135 137 133 136 139 139 139 145 143 141 140 140 133 140 150 126
123 128 126 118 126 134 134 133 136 131 132 130 126 128 124 128 120 139 139 138 139 142 145 146 150 150 152 155 152 154 154 155 157 159 157 155 156 0 0 0 0 0 0 0 0 0 0 0 0 160 163 161 0 0 0 0 0 0 0 0 0 0 0 0 0 162 0 0 0 0 0 157 159 155 152 152 150 153 149 143 142 143 144 141 140 142 142 139 146 141 135 139 140 141 136 139 144 142 140 141 138 137 139 135 120 129 135 137 140 141 133 144 140 137 137 139 135 129 135 161
114 107 119 125 126 128 131 133 128 126 131 120 122 118 118 130 131 131 130 134 134 134 136 141 141 141 142 145 147 150 149 148 151 152 151 149 0 0 0 0 0 0 0 0 0 0 0 0 154 154 155 0 0 0 0 0 0 0 0 0 0 0 0 0 0 0 0 0 0 0 0 0 150 149 149 147 145 146 145 142 130 142 138 140 128 138 136 139 138 132 141 139 131 129 121 129 140 138 136 136 130 138 135 124 134 134 130 134 134 142 141 137 139 141 136 139 137 130 115 140
104 112 113 114 109 115 121 115 115 122 114 112 117 113 128 120 119 122 116 116 130 123 125 120 134 138 138 141 142 143 140 142 142 145 146 141 0 0 0 0 0 0 0 0 0 0 0 0 0 0 0 0 0 0 0 0 0 0 0 0 0 0 0 0 0 0 0 0 0 0 0 0 145 140 139 141 140 130 131 130 124 120 123 125 128 119 120 124 123 128 121 123 116 126 126 133 125 134 120 119 117 131 121 122 119 122 118 122 128 130 118 132 118 129 104 124 119 105 123 112
107 113 118 118 113 112 116 125 117 117 113 121 117 116 118 124 120 120 123 117 120 119 121 118 136 136 137 138 0 133 0 0 0 139 140 0 0 0 0 0 0 0 0 0 0 0 0 0 0 0 0 0 0 0 0 0 0 0 0 0 0 0 0 0 0 0 0 0 0 0 0 0 0 140 137 127 125 121 124 123 119 116 122 129 117 120 120 123 120 117 118 129 117 117 112 122 119 118 123 121 115 126 130 121 123 116 129 118 125 129 119 123 135 126 128 123 117 138 141 160
103 102 107 109 106 101 109 105 105 103 109 104 109 108 103 110 106 113 119 113 112 114 109 116 118 120 124 120 121 135 0 0 0 0 0 0 0 0 0 0 0 0 0 0 0 0 0 0 0 0 0 0 0 0 0 0 0 0 0 0 0 0 0 0 0 0 0 0 0 0 0 0 131 0 0 125 123 119 119 117 116 114 108 114 115 119 114 115 111 115 115 116 111 110 109 107 112 117 114 110 111 113 111 115 113 117 107 112 104 108 111 114 105 119 118 104 103 121 134 142
97 99 94 93 101 102 104 98 102 100 101 105 104 107 105 102 107 110 115 105 112 113 107 109 116 109 114 117 119 122 0 128 0 0 0 0 0 0 0 0 0 0 0 0 0 0 0 0 0 0 0 0 0 0 0 0 0 0 0 0 0 0 0 0 0 0 0 0 0 0 0 0 0 122 0 115 119 116 114 112 109 112 107 101 111 106 109 115 105 108 111 111 109 114 108 114 107 106 98 118 109 105 109 105 102 120 110 108 112 112 105 105 107 90 108 115 111 93 124 118
98 104 98 105 101 99 99 93 95 102 101 100 103 97 100 94 105 104 114 113 113 105 101 111 114 110 116 115 115 122 120 120 122 0 0 0 0 0 0 0 0 0 0 0 0 0 0 0 0 0 0 0 0 0 0 0 0 0 0 0 0 0 0 0 0 0 0 0 0 0 0 0 124 123 114 122 116 118 119 118 105 111 104 122 106 105 104 105 102 109 103 106 113 96 103 102 106 101 113 102 107 111 113 110 110 109 115 98 104 98 107 115 107 98 107 100 115 143 132 136
88 84 85 84 83 82 87 94 91 83 92 92 96 93 90 87 78 93 88 86 90 84 97 105 101 101 114 109 0 0 107 107 115 0 0 0 0 0 0 115 0 0 0 0 0 0 0 0 0 0 0 0 0 0 0 0 0 0 0 0 0 0 0 0 0 0 0 0 0 0 0 115 112 110 105 112 104 106 104 98 103 105 95 93 102 99 91 99 107 100 91 97 103 84 84 95 93 102 84 95 87 99 90 91 84 87 93 91 93 89 85 89 77 101 91 92 89 106 105 101
95 86 89 90 98 96 97 107 92 94 94 93 91 90 96 92 100 91 104 97 91 105 106 102 101 104 113 109 104 106 108 108 116 113 123 109 0 0 0 0 0 119 0 0 0 0 0 0 0 0 0 0 0 0 0 0 0 0 0 0 116 0 0 115 109 0 0 0 110 0 111 108 114 112 114 104 108 108 99 98 111 104 102 89 98 101 102 105 98 102 107 106 110 101 99 104 100 94 99 110 100 97 94 101 91 100 96 84 87 84 87 89 89 98 108 108 99 115 122 127
84 93 90 90 98 97 91 90 85 98 85 86 86 91 88 85 94 98 95 93 99 90 98 114 93 104 105 103 101 107 95 103 104 102 103 107 0 118 118 0 109 0 0 0 0 0 0 0 0 0 0 0 0 0 0 0 0 110 0 0 0 103 103 111 116 111 107 101 113 105 109 109 99 102 113 108 101 92 105 94 96 96 101 86 95 93 94 102 107 93 99 104 110 90 93 86 93 92 95 88 89 83 86 95 92 87 99 90 98 86 91 92 82 92 95 93 113 132 139 105
85 86 83 87 92 93 103 88 89 81 87 86 92 91 87 90 88 88 93 88 79 94 93 84 85 93 92 91 106 87 94 100 96 94 93 111 99 104 103 103 105 98 98 107 106 91 0 0 95 0 0 107 105 94 101 108 108 103 107 106 100 104 112 103 100 113 101 99 98 107 99 107 105 98 107 95 95 93 98 88 95 96 93 95 97 92 90 95 96 94 100 96 95 92 92 90 86 86 91 87 90 86 91 91 83 92 89 86 86 91 86 97 88 99 84 92 101 87 87 103
85 81 87 88 86 82 99 102 87 90 87 83 82 91 82 91 90 95 90 100 87 99 95 94 93 96 96 91 98 101 96 83 96 98 99 96 97 101 95 108 104 93 98 108 102 98 106 0 106 103 100 105 100 100 104 100 102 109 97 108 103 99 94 103 104 102 93 99 102 106 98 107 102 97 103 86 93 97 92 86 100 97 84 91 100 98 90 87 93 87 86 97 89 92 93 83 97 98 100 85 82 100 87 93 90 102 96 99 94 90 89 97 105 97 121 118 132 99 145 142
82 76 71 68 82 83 89 90 88 81 87 82 84 82 88 82 87 88 85 82 85 84 92 89 85 87 93 91 96 93 94 94 80 90 93 94 97 84 90 97 92 90 83 90 98 95 89 102 92 88 96 85 96 89 89 83 101 90 99 96 97 99 81 79 97 80 97 92 97 96 95 84 97 95 84 95 93 94 91 94 88 93 84 88 86 91 91 91 88 88 94 80 89 81 87 85 85 83 83 90 80 89 80 75 80 86 86 83 84 85 88 95 80 84 99 110 132 116 92 78
71 73 84 86 72 86 88 88 83 84 85 90 82 84 83 89 88 88 83 87 83 94 84 92 86 84 92 86 87 91 85 97 88 95 85 92 84 92 96 97 93 84 94 90 87 98 90 96 100 88 92 97 96 87 102 95 91 97 90 97 96 98 87 94 92 95 90 93 106 93 96 97 88 84 95 83 93 96 94 95 90 90 88 92 76 86 89 79 91 93 77 87 76 79 92 81 91 86 78 81 82 82 84 79 77 84 83 85 81 88 85 88 86 94 89 84 90 88 101 196
