0 0 0 0 0 0 0 0 0 0 0 0 0 0 0 0 0 0 0 0 0 0 0 0 0 0 0 0 0 0 0 0 0 0 0 0 0 0 0 0 0 0 0 0 0 0 0 0 0 0 0 0 0 0 0 0 0 0 0 0 0 0 0 0 0 0 0 0 0 0 0 0 0 0 0 0 0 0 0 0 0 0 0 0 0 0 0 0 0 0 0 0 0 0 0 0 0 0 0 0 0 0 0 0 0 0 0 0 0 0 0 0 0 0 0 0 0 0 0 0
0 0 0 0 0 0 0 0 0 0 0 0 0 0 0 0 0 0 0 0 0 0 0 0 0 0 0 0 0 0 0 0 0 0 0 0 0 0 0 0 0 0 0 0 0 0 0 0 0 0 0 0 0 0 0 0 0 0 0 0 0 0 0 0 0 0 0 0 0 0 0 0 0 0 0 0 0 0 0 0 0 0 0 0 0 0 0 0 0 0 0 0 0 0 0 0 0 0 0 0 0 0 0 0 0 0 0 0 0 0 0 0 0 0 0 0 0 0 0 0
0 0 0 0 0 0 0 0 0 0 0 0 0 0 0 0 0 0 0 0 0 0 0 0 0 0 0 0 0 0 0 0 0 0 0 0 0 0 0 0 0 0 0 0 0 0 0 0 0 0 0 0 0 0 0 0 0 0 0 0 0 0 0 0 0 0 0 0 0 0 0 0 0 0 0 0 0 0 0 0 0 0 0 0 0 0 0 0 0 0 0 0 0 0 0 0 0 0 0 0 0 0 0 0 0 0 0 0 0 0 0 0 0 0 0 0 0 0 0 0
0 0 0 0 0 0 0 0 0 0 0 0 0 0 0 0 0 0 0 0 0 0 0 0 0 0 0 0 0 0 0 0 0 0 0 0 0 0 0 0 0 0 0 0 0 0 0 0 0 0 0 0 0 0 0 0 0 0 0 0 0 0 0 0 0 0 0 0 0 0 0 0 0 0 0 0 0 0 0 0 0 0 0 0 0 0 0 0 0 0 0 0 0 0 0 0 0 0 0 0 0 0 0 0 0 0 0 0 0 0 0 0 0 0 0 0 0 0 0 0
0 0 0 0 0 0 0 0 0 0 0 0 0 0 0 0 0 0 0 0 0 0 0 0 0 0 0 0 0 0 0 0 0 0 0 0 0 0 0 0 0 0 0 0 0 0 0 0 0 0 0 0 0 0 0 0 0 0 0 0 0 0 0 0 0 0 0 0 0 0 0 0 0 0 0 0 0 0 0 0 0 0 0 0 0 0 0 0 0 0 0 0 0 0 0 0 0 0 0 0 0 0 0 0 0 0 0 0 0 0 0 0 0 0 0 0 0 0 0 0
0 0 0 0 0 0 0 0 0 0 0 0 0 0 0 0 0 0 0 0 0 0 0 0 0 0 0 0 0 0 0 0 0 0 0 0 0 0 0 536 552 516 518 523 509 539 536 517 524 513 516 523 554 531 551 544 0 0 0 0 0 0 0 0 0 0 0 0 0 0 0 0 0 0 0 0 0 0 0 0 0 0 0 0 0 0 0 0 0 0 0 0 0 0 0 0 0 0 0 0 0 0 0 0 0 0 0 0 0 0 0 0 0 0 0 0 0 0 0 0
0 0 0 0 0 0 0 0 0 0 0 0 0 0 0 0 0 0 0 0 0 0 0 0 0 0 0 0 0 0 0 0 0 0 0 0 0 485 507 497 496 497 492 501 508 509 503 494 502 525 498 508 521 507 490 502 492 509 518 463 0 0 0 0 0 0 0 0 0 0 0 0 0 0 0 0 0 0 0 0 0 0 0 0 0 0 0 0 0 0 0 0 0 0 0 0 0 0 0 0 0 0 0 0 0 0 0 0 0 0 0 0 0 0 0 0 0 0 0 0
0 0 0 0 0 0 0 0 0 0 0 0 0 0 0 0 0 0 0 0 0 0 0 0 0 0 0 0 0 0 0 0 0 0 0 485 504 514 491 482 494 500 481 517 501 508 496 503 508 497 498 495 487 490 503 517 507 498 513 519 516 522 499 477 488 0 0 0 0 0 0 0 0 0 0 0 0 0 0 0 0 0 0 0 0 0 0 0 0 0 0 0 0 0 0 0 0 0 0 0 0 0 0 0 0 0 0 0 0 0 0 0 0 0 0 0 0 0 0 0
0 0 0 0 0 0 0 0 0 0 0 0 0 0 0 0 0 0 0 0 0 0 0 0 0 0 0 0 0 0 0 0 0 519 501 508 502 511 499 505 515 502 500 507 499 504 505 508 514 516 508 499 515 507 507 517 503 519 517 513 514 515 509 514 510 515 544 575 557 597 589 615 593 0 560 578 658 611 0 696 0 0 0 0 0 0 0 0 0 0 0 0 0 0 0 0 0 0 0 0 0 0 0 0 0 0 0 0 0 0 0 0 0 0 0 0 0 0 0 0
0 0 0 0 0 0 0 0 0 0 0 0 0 0 0 0 0 0 0 0 0 0 0 0 0 0 0 0 0 0 0 488 492 498 486 503 492 503 512 497 501 496 498 492 490 504 506 494 503 508 510 504 502 499 494 495 504 512 495 505 502 496 498 493 488 506 500 510 513 510 510 517 509 556 580 575 548 582 533 542 543 517 540 553 0 495 0 543 520 521 560 492 513 594 575 526 564 521 561 560 520 534 536 513 0 0 0 0 0 0 0 0 0 0 0 0 0 0 0 0
0 0 0 0 0 0 0 0 0 0 0 0 0 0 0 0 0 0 0 0 0 0 0 0 0 0 0 0 0 0 520 507 502 503 505 508 523 513 495 509 506 500 513 506 498 515 510 509 501 509 502 504 507 527 521 508 513 511 502 515 514 510 516 516 520 510 525 512 516 505 541 563 587 565 579 554 596 598 588 565 603 551 596 580 581 599 574 563 574 562 623 600 604 547 602 604 606 560 569 590 579 564 592 547 588 584 522 556 613 0 0 0 0 0 0 0 0 0 0 0
0 0 0 0 0 0 0 0 0 0 0 0 0 0 0 0 0 0 0 0 0 0 0 0 0 0 0 0 485 510 500 501 494 503 501 494 505 495 503 498 506 497 495 498 509 506 504 506 502 504 499 515 508 497 508 501 504 513 503 509 511 506 506 511 516 501 512 508 510 526 530 576 550 572 554 619 571 566 571 550 574 597 597 558 614 569 576 552 575 628 582 575 574 614 596 633 592 558 627 582 570 548 566 569 603 548 639 556 556 0 0 0 0 0 0 0 0 0 0 0
0 0 0 0 0 0 0 0 0 0 0 0 0 0 0 0 0 0 0 0 0 0 0 0 0 0 0 478 498 502 497 486 494 507 489 492 496 501 505 491 500 500 500 506 505 506 499 498 495 503 503 503 503 503 498 507 499 509 504 508 506 496 507 512 511 505 499 501 504 500 514 515 527 547 547 534 541 517 558 502 560 535 536 568 536 504 523 552 537 566 560 541 538 555 539 549 519 558 545 541 560 537 555 491 528 499 567 500 533 0 0 0 0 0 0 0 0 0 0 0
0 0 0 0 0 0 0 0 0 0 0 0 0 0 0 0 0 0 0 0 0 0 0 0 0 0 490 503 498 501 511 498 497 498 490 492 500 498 501 492 503 492 491 499 505 511 503 505 507 500 510 494 505 507 509 507 508 502 516 513 506 518 510 506 511 513 518 503 516 518 506 519 532 564 592 560 559 542 574 564 593 554 582 566 556 586 564 586 584 583 600 565 595 547 553 595 594 602 581 575 570 581 610 537 529 604 538 569 568 520 0 0 0 0 0 0 0 0 0 0
0 0 0 0 0 0 0 0 0 0 0 0 0 0 0 0 0 0 0 0 0 0 0 0 0 440 500 492 497 495 501 498 495 501 490 488 496 491 495 493 496 501 500 500 493 502 504 506 498 506 499 504 500 500 501 509 503 506 505 500 505 499 507 521 512 507 500 502 508 507 501 503 516 535 529 550 521 518 534 549 535 556 534 542 554 504 544 541 529 530 558 557 542 567 544 533 532 530 533 510 549 569 530 502 526 497 581 552 574 523 546 0 0 0 0 0 0 0 0 0
0 0 0 0 0 0 0 0 0 0 0 0 0 0 0 0 0 0 0 0 0 0 0 0 0 484 489 482 498 500 493 493 493 502 481 500 489 498 500 492 495 503 505 501 501 504 508 504 493 501 505 502 501 500 503 506 503 502 497 510 503 507 508 506 506 512 506 512 505 501 517 508 509 505 568 522 524 547 557 532 525 539 550 548 504 544 526 528 528 545 536 557 561 539 528 526 536 576 544 541 532 535 519 530 565 530 556 518 583 526 506 0 535 531 0 0 0 0 0 0
0 0 0 0 0 0 0 0 0 0 0 0 0 0 0 0 0 0 0 0 0 0 0 0 507 499 507 487 492 493 494 492 499 499 489 504 502 495 507 501 499 493 499 502 498 505 504 502 495 495 499 501 501 507 504 505 502 508 503 503 499 500 507 505 508 511 503 502 513 512 506 518 509 509 532 517 516 550 533 552 536 537 515 544 523 543 511 556 580 507 558 561 555 542 540 557 529 539 606 544 536 565 559 533 553 582 542 544 603 534 522 0 0 0 0 0 0 0 0 0
0 0 0 0 0 0 0 0 0 0 0 0 0 0 0 0 0 0 0 0 0 0 0 0 477 487 493 496 493 495 491 492 496 479 482 487 491 489 497 485 493 488 504 496 493 503 499 496 498 504 510 500 504 499 500 504 500 505 501 504 506 503 507 504 501 502 503 504 495 506 499 502 504 518 498 512 516 511 514 521 484 493 508 522 534 528 497 547 524 517 546 520 514 525 517 542 541 525 542 502 501 520 503 500 549 526 544 551 525 525 0 0 0 0 0 0 0 0 0 0
0 0 0 0 0 0 0 0 0 0 0 0 0 0 0 0 0 0 0 0 0 0 0 471 491 494 495 490 483 495 497 493 496 497 504 494 501 494 501 504 495 493 497 493 501 505 504 501 501 501 503 501 505 505 504 510 503 504 511 504 513 502 494 504 501 502 511 513 506 502 507 509 512 506 511 515 531 544 524 538 510 539 517 544 537 542 552 524 557 529 544 566 535 559 542 533 522 536 540 525 512 547 568 572 535 573 551 533 493 511 575 0 0 0 0 0 0 0 0 0
0 0 0 0 0 0 0 0 0 0 0 0 0 0 0 0 0 0 0 0 0 0 0 502 490 510 504 490 493 493 491 497 497 498 497 496 488 485 488 499 487 493 501 500 510 499 502 515 499 496 505 506 495 503 499 504 508 508 508 505 502 504 502 502 507 504 503 509 508 507 503 506 514 510 517 517 525 543 545 542 532 561 560 542 530 576 550 556 544 525 553 537 573 550 571 559 572 567 560 531 556 587 562 559 581 594 568 560 571 582 589 0 0 0 0 0 0 0 0 0
0 0 0 0 0 0 0 0 0 0 0 0 0 0 0 0 0 0 0 0 0 0 444 486 501 494 488 485 488 487 492 498 498 498 489 487 488 491 495 494 501 497 491 500 499 497 504 493 491 503 497 494 502 505 505 499 504 503 503 495 506 511 506 507 504 500 504 514 501 508 507 501 504 495 498 502 537 493 536 535 548 514 518 499 487 513 516 527 503 518 568 546 521 509 531 518 527 536 509 506 512 539 515 526 508 500 525 512 515 518 538 502 494 0 0 0 0 0 0 0
0 0 0 0 0 0 0 0 0 0 0 0 0 0 0 0 0 0 0 0 0 0 517 494 496 492 491 485 499 496 496 493 500 491 500 488 484 500 495 486 496 498 498 507 497 505 508 495 502 493 495 510 509 501 501 514 497 507 506 508 505 509 504 507 514 505 508 520 509 505 506 511 512 507 512 512 523 528 526 537 546 555 519 534 559 532 527 550 527 534 542 526 525 543 533 547 566 519 579 533 543 572 563 528 523 532 501 556 550 504 522 549 0 0 0 0 0 0 0 0
0 0 0 0 0 0 0 0 0 0 0 0 0 0 0 0 0 0 0 0 0 0 464 489 484 487 494 490 480 481 488 490 492 491 489 489 490 500 488 489 490 497 503 493 491 500 494 497 494 497 493 500 500 492 498 501 501 500 504 501 500 497 503 502 504 506 502 501 504 505 505 497 509 497 507 508 498 512 487 517 524 510 490 491 502 507 499 490 517 508 496 496 522 539 522 508 506 513 513 520 511 516 512 495 505 530 524 494 523 487 458 544 474 436 0 0 0 0 0 0
0 0 0 0 0 0 0 0 0 0 0 0 0 0 0 0 0 0 0 0 0 0 505 489 493 486 488 491 491 496 489 491 491 487 494 484 484 489 492 491 497 492 500 501 500 495 493 496 497 494 501 500 500 501 498 501 503 502 501 497 500 509 501 506 502 507 501 504 500 503 508 496 503 501 506 500 506 526 525 531 520 494 520 523 510 504 524 510 524 536 525 523 545 542 532 521 535 522 517 509 521 543 504 487 525 497 502 491 518 489 504 495 494 525 0 0 0 0 0 0
0 0 0 0 0 0 0 0 0 0 0 0 0 0 0 0 0 0 0 0 0 0 497 486 483 490 489 496 491 498 498 488 493 485 492 489 488 495 491 493 489 498 504 498 498 504 494 498 501 506 506 497 498 497 500 503 500 502 505 500 506 506 501 500 499 504 497 503 512 500 505 511 506 506 512 504 509 528 507 550 514 506 530 504 522 552 574 538 544 529 505 517 512 511 530 516 516 536 511 555 549 534 519 527 538 516 545 505 545 522 505 530 507 0 0 0 0 0 0 0
0 0 0 0 0 0 0 0 0 0 0 0 0 0 0 0 0 0 0 0 0 0 480 472 482 485 489 488 480 490 491 484 492 487 498 486 486 496 499 494 495 490 490 495 494 494 495 496 498 498 498 494 496 505 493 493 499 504 499 496 505 501 503 502 495 497 498 510 497 505 492 512 495 502 503 512 503 500 510 523 520 508 517 510 519 492 490 510 517 521 492 498 488 507 514 520 502 517 491 475 514 503 541 519 502 503 473 498 454 0 483 456 489 0 0 0 0 0 0 0
0 0 0 0 0 0 0 0 0 0 0 0 0 0 0 0 0 0 0 0 0 472 480 494 487 481 491 485 484 488 484 488 488 494 486 481 496 488 492 501 492 496 495 491 494 495 491 498 492 497 497 502 495 509 502 502 498 501 510 503 504 499 496 502 509 501 500 497 501 496 506 499 501 509 505 514 507 508 494 521 509 524 493 503 507 525 531 506 526 517 515 525 511 499 534 504 533 547 550 538 519 525 534 534 523 518 529 518 516 534 497 493 0 0 0 0 0 0 0 0
0 0 0 0 0 0 0 0 0 0 0 0 0 0 0 0 0 0 0 0 0 474 490 486 484 475 492 491 486 482 481 481 485 492 487 497 490 488 492 493 491 497 488 492 495 494 498 493 498 498 497 502 503 498 495 501 502 510 503 503 496 496 498 503 505 498 501 503 502 505 500 497 502 501 502 504 508 502 522 502 509 542 491 520 537 551 512 521 534 514 524 547 522 536 500 498 530 514 544 519 510 514 556 530 485 550 542 555 535 579 533 508 550 0 0 0 0 0 0 0
0 0 0 0 0 0 0 0 0 0 0 0 0 0 0 0 0 0 0 0 0 456 479 483 480 478 487 481 483 480 493 485 488 481 482 486 486 493 490 490 498 491 491 490 497 493 495 495 496 496 491 495 496 494 500 501 496 501 501 498 507 500 501 496 499 501 506 499 499 501 495 500 500 504 508 501 502 503 508 496 478 505 486 498 499 485 511 504 510 487 483 492 484 501 505 508 506 508 480 514 503 478 469 512 473 519 505 500 482 505 456 493 500 0 460 0 0 0 0 0
0 0 0 0 0 0 0 0 0 0 0 0 0 0 0 0 0 0 0 0 0 483 475 476 487 481 481 481 494 488 488 481 487 486 486 486 486 492 489 490 491 491 493 495 498 495 498 499 495 498 494 499 506 499 502 500 501 504 504 503 500 506 498 502 502 499 505 505 499 509 499 504 509 500 515 498 504 511 527 514 533 511 509 493 504 518 514 529 526 491 521 527 532 524 491 540 535 549 510 546 550 568 559 548 539 497 582 540 545 569 581 540 541 0 0 0 0 0 0 0
0 0 0 0 0 0 0 0 0 0 0 0 0 0 0 0 0 0 0 0 0 433 484 476 486 481 480 482 479 485 488 476 485 489 488 491 481 490 484 490 492 492 490 492 490 494 488 492 490 493 495 499 497 497 497 487 495 494 501 495 498 505 498 494 499 506 499 505 501 498 498 498 501 499 495 499 495 515 519 520 475 532 514 512 522 487 501 503 507 505 527 486 508 497 520 533 513 491 507 511 498 495 471 515 474 501 509 501 509 523 496 514 473 0 0 0 0 0 0 0
0 0 0 0 0 0 0 0 0 0 0 0 0 0 0 0 0 0 0 0 0 460 474 477 480 485 477 479 481 482 488 483 486 481 489 484 479 489 488 487 491 492 492 494 491 494 497 496 495 493 490 493 494 497 495 498 491 501 500 498 496 498 504 501 499 502 502 503 498 497 497 498 501 498 505 499 502 492 493 489 493 503 500 492 505 506 510 492 489 510 503 527 509 473 506 476 484 495 501 509 474 513 477 494 495 509 533 536 505 523 508 484 458 472 0 0 0 0 0 0
0 0 0 0 0 0 0 0 0 0 0 0 0 0 0 0 0 0 0 0 0 441 479 491 473 487 487 476 482 479 481 487 486 480 482 490 483 494 485 491 490 492 491 495 486 484 487 492 497 495 498 493 495 501 499 501 497 498 502 500 503 496 499 497 500 496 501 500 499 501 505 498 505 500 493 506 501 512 520 503 519 508 497 501 522 537 505 501 506 522 527 510 533 497 552 530 522 510 512 538 546 561 534 545 512 521 527 510 541 538 545 516 511 516 0 0 0 0 0 0
0 0 0 0 0 0 0 0 0 0 0 0 0 0 0 0 0 0 0 0 0 453 477 471 470 473 478 477 475 477 480 483 482 490 480 483 482 485 483 492 487 487 488 493 490 486 487 490 492 489 490 496 498 493 498 494 496 497 498 495 499 498 498 499 497 495 501 497 499 500 499 496 494 491 496 494 500 499 494 489 484 485 496 485 505 525 503 508 519 487 512 488 478 484 497 506 486 466 472 465 475 496 490 514 469 482 496 484 463 458 503 502 464 0 0 0 0 0 0 0
0 0 0 0 0 0 0 0 0 0 0 0 0 0 0 0 0 0 0 0 0 460 483 473 473 478 478 475 484 485 480 486 483 486 481 485 483 489 489 490 490 485 490 493 494 490 494 489 495 493 491 495 492 495 495 498 497 494 497 499 497 500 495 497 498 506 497 493 501 495 500 501 498 506 499 500 510 502 501 500 503 519 516 504 513 485 533 509 515 493 502 516 495 512 502 484 493 513 503 535 521 532 521 546 514 555 526 534 513 515 468 503 518 534 0 0 0 0 0 0
0 0 0 0 0 0 0 0 0 0 0 0 0 0 0 0 0 0 0 0 0 476 471 472 470 492 480 483 483 480 477 483 478 481 483 482 487 490 484 484 486 490 485 489 490 484 489 491 489 500 492 495 491 489 496 499 496 504 500 499 499 499 497 495 498 502 503 502 498 500 498 498 497 492 499 496 499 503 505 522 497 531 500 509 508 497 503 507 511 491 522 516 507 505 533 516 484 510 525 502 511 517 494 535 530 518 510 526 530 558 529 551 522 516 0 0 0 0 0 0
0 0 0 0 0 0 0 0 0 0 0 0 0 0 0 0 0 0 0 0 0 454 474 470 479 478 478 470 482 479 479 483 486 487 486 485 484 482 483 487 486 489 487 484 487 489 483 492 491 494 489 492 492 491 493 491 494 489 492 495 495 500 503 503 498 497 499 496 499 495 498 498 496 499 495 491 496 492 506 495 496 496 493 490 487 488 488 488 476 489 507 496 489 486 513 495 466 493 500 492 490 511 477 532 510 480 464 478 474 474 538 474 570 466 0 0 0 0 0 0
0 0 0 0 0 0 0 0 0 0 0 0 0 0 0 0 0 0 0 0 0 0 477 479 480 481 474 480 481 485 480 485 482 484 483 478 485 488 487 484 486 480 490 492 491 489 487 491 494 496 493 497 488 497 502 499 493 496 493 496 502 499 496 501 497 502 501 499 499 497 497 499 499 495 498 497 497 493 514 505 508 501 513 507 511 513 509 507 515 532 539 521 527 533 538 519 518 518 513 530 510 567 536 545 509 563 505 514 510 526 547 502 514 535 0 0 0 0 0 0
0 0 0 0 0 0 0 0 0 0 0 0 0 0 0 0 0 0 0 0 0 0 501 473 474 475 480 478 477 478 479 479 478 484 479 478 480 481 487 482 487 485 488 484 478 486 489 490 491 488 489 490 492 492 493 491 494 492 496 495 495 496 498 498 499 497 497 500 494 500 500 491 499 498 490 494 498 504 490 499 512 496 505 513 505 507 509 511 510 490 506 501 495 512 510 494 487 484 505 480 492 487 497 497 506 528 467 505 485 481 452 467 495 489 0 0 0 0 0 0
0 0 0 0 0 0 0 0 0 0 0 0 0 0 0 0 0 0 0 0 0 0 535 472 471 475 477 480 479 477 479 474 482 484 474 484 484 484 481 485 483 484 488 488 485 488 490 485 492 488 486 498 493 493 491 490 497 489 492 494 494 498 492 495 495 496 496 496 492 497 494 494 496 492 493 489 495 502 502 497 497 483 495 504 493 505 514 499 509 504 510 491 510 511 499 479 494 505 493 521 490 463 511 509 446 514 454 493 510 474 486 489 480 497 486 515 0 0 0 0
0 0 0 0 0 0 0 0 0 0 0 0 0 0 0 0 0 0 0 0 0 0 602 474 473 478 478 476 476 480 478 477 480 475 486 480 484 485 484 485 487 487 487 493 490 487 495 488 495 491 492 491 493 490 496 497 494 496 493 495 495 492 501 497 495 497 498 496 497 496 495 495 496 501 495 496 500 489 505 517 523 509 509 518 511 536 521 512 522 530 517 532 538 527 537 523 522 542 497 550 532 522 530 539 511 501 494 514 525 543 567 495 522 569 557 492 0 0 0 0
0 0 0 0 0 0 0 0 0 0 0 0 0 0 0 0 0 0 0 0 0 0 0 477 463 465 477 469 475 469 478 481 478 482 476 482 479 482 480 483 486 483 485 488 487 488 487 491 490 491 489 490 496 493 492 495 490 491 494 494 492 494 491 492 493 498 495 496 495 494 500 493 496 491 496 490 489 487 489 489 506 491 477 483 495 503 500 487 492 506 491 502 483 500 486 478 483 485 489 513 488 470 511 481 479 464 465 488 468 471 487 494 455 0 0 0 0 0 0 0
0 0 0 0 0 0 0 0 0 0 0 0 0 0 0 0 0 0 0 0 0 0 0 495 479 475 476 475 479 477 482 478 475 483 481 480 479 474 484 484 486 483 487 489 487 487 495 493 495 492 492 497 497 494 497 492 494 494 493 491 493 497 496 494 494 496 497 503 495 495 500 496 493 497 492 494 492 509 498 493 490 484 493 491 497 494 492 507 516 509 501 484 503 508 524 509 496 524 525 512 494 525 522 511 472 506 498 495 480 492 522 474 519 483 0 0 0 0 0 0
0 0 0 0 0 0 0 0 0 0 0 0 0 0 0 0 0 0 0 0 0 0 0 549 475 473 468 473 474 476 482 474 484 481 474 482 481 482 484 486 487 479 487 484 484 491 489 489 493 486 494 492 489 487 494 487 492 493 489 489 498 492 492 498 494 492 495 491 496 495 491 494 494 498 497 490 492 491 506 494 505 531 491 502 509 512 497 499 532 518 497 520 513 506 523 498 498 507 510 507 499 521 525 485 490 496 501 488 487 528 490 516 511 537 0 0 0 0 0 0
0 0 0 0 0 0 0 0 0 0 0 0 0 0 0 0 0 0 0 0 0 0 0 0 467 469 466 465 465 472 475 469 475 478 475 478 477 476 476 481 476 480 481 483 486 483 485 487 491 492 491 490 491 489 489 490 491 492 484 495 489 494 492 491 498 496 495 494 495 492 497 490 494 492 495 488 488 496 494 502 496 485 494 491 515 485 490 511 486 499 496 488 494 490 505 513 472 499 496 489 491 499 468 475 457 472 454 459 479 486 491 453 496 441 435 500 0 0 0 0
0 0 0 0 0 0 0 0 0 0 0 0 0 0 0 0 0 0 0 0 0 0 0 0 532 466 473 473 476 478 478 476 475 477 480 479 484 482 480 485 483 484 482 489 485 484 487 486 487 490 488 494 490 495 491 493 495 493 496 492 494 491 496 500 494 495 497 495 499 494 496 490 492 494 494 494 494 502 504 487 493 506 489 510 521 510 526 499 516 498 500 526 510 510 527 526 504 548 499 524 508 515 533 490 507 484 483 489 498 514 521 524 473 502 485 556 0 0 0 0
0 0 0 0 0 0 0 0 0 0 0 0 0 0 0 0 0 0 0 0 0 0 0 0 0 465 468 470 464 464 469 467 476 476 473 475 476 478 480 483 476 481 479 482 486 481 485 482 479 486 489 486 488 483 483 488 490 488 487 494 493 494 493 491 492 490 485 497 493 494 496 492 492 486 489 480 481 484 492 488 485 484 482 476 488 486 492 488 494 486 510 487 492 489 491 480 487 479 481 503 504 484 485 447 457 459 484 457 481 492 445 475 432 474 447 0 0 0 0 0
0 0 0 0 0 0 0 0 0 0 0 0 0 0 0 0 0 0 0 0 0 0 0 0 0 522 469 464 466 472 469 469 472 475 474 477 477 474 479 479 483 478 481 483 480 478 480 485 488 485 484 484 479 490 489 486 493 484 488 496 489 490 496 485 492 496 496 486 490 490 493 492 494 489 487 479 490 480 482 462 486 494 492 482 485 503 490 485 482 477 488 484 483 487 480 485 498 492 485 505 485 504 493 478 464 468 507 466 477 466 466 456 480 463 0 0 0 0 0 0
0 0 0 0 0 0 0 0 0 0 0 0 0 0 0 0 0 0 0 0 0 0 0 0 0 0 487 464 465 473 472 468 470 475 475 476 478 474 477 478 476 481 482 479 486 486 482 484 485 480 489 485 483 485 483 489 490 484 493 491 489 494 490 490 496 493 493 491 492 495 494 492 490 490 494 498 479 492 479 490 491 475 494 495 491 490 485 497 484 498 488 496 514 502 489 511 490 469 497 504 516 515 496 461 480 475 506 476 492 470 491 507 480 505 0 0 0 0 0 0
0 0 0 0 0 0 0 0 0 0 0 0 0 0 0 0 0 0 0 0 0 0 0 0 0 0 0 470 466 465 470 471 472 470 473 475 474 476 475 478 476 479 475 476 479 479 480 480 486 480 478 480 478 485 482 480 487 484 487 488 485 485 495 489 492 491 482 487 490 485 488 488 483 478 476 475 481 488 481 473 485 483 479 474 485 483 493 469 453 473 482 498 487 479 483 506 484 492 497 484 457 496 466 474 463 469 441 491 446 430 452 444 434 471 441 0 0 0 0 0
0 0 0 0 0 0 0 0 0 0 0 0 0 0 0 0 0 0 0 0 0 0 0 0 0 0 0 526 471 461 468 470 473 475 473 472 473 476 478 479 476 476 478 478 479 475 481 477 481 484 480 479 483 485 482 487 484 486 490 489 491 490 490 489 490 488 493 493 489 487 483 490 485 482 495 494 486 488 484 491 479 518 495 495 491 486 481 487 513 489 479 493 481 492 486 511 512 505 508 494 484 527 474 508 459 514 464 498 489 506 499 493 480 531 465 0 0 0 0 0
0 0 0 0 0 0 0 0 0 0 0 0 0 0 0 0 0 0 0 0 0 0 0 0 0 0 0 0 520 472 459 464 469 468 467 472 474 468 477 473 478 473 478 477 478 481 478 474 483 481 482 481 482 482 480 480 484 484 488 485 488 485 486 484 487 487 491 491 489 483 488 489 487 484 485 490 484 475 477 486 482 475 487 493 490 492 502 496 498 484 492 497 481 490 501 501 476 491 492 478 478 481 501 481 471 465 471 445 464 495 476 495 496 526 508 0 0 0 0 0
0 0 0 0 0 246 238 252 318 0 0 0 0 0 0 0 0 0 0 0 0 0 0 0 0 0 0 0 0 475 459 466 464 468 468 474 475 472 469 474 475 475 474 477 474 480 479 478 478 478 476 479 478 488 477 480 484 484 486 483 485 487 487 482 483 486 478 480 476 486 478 484 481 479 473 485 479 473 475 487 479 477 465 468 482 482 473 481 478 476 485 480 506 461 470 475 482 483 471 503 469 510 453 477 463 473 466 460 468 446 435 437 464 439 443 0 0 0 0 0
0 0 0 0 250 233 234 233 238 290 393 0 0 0 0 0 0 0 0 0 0 2312 0 0 0 0 0 0 0 0 468 462 466 472 473 468 473 470 475 468 473 477 474 472 484 480 479 478 479 478 483 485 485 482 480 483 483 482 484 482 480 487 487 487 482 484 485 484 482 480 484 485 492 470 483 480 497 485 489 480 515 470 487 500 489 484 485 498 495 508 496 486 494 487 496 494 497 514 511 516 470 505 503 502 497 505 483 465 493 483 460 517 573 0 0 0 0 0 0 0
0 0 0 234 219 224 224 226 233 234 320 0 0 0 0 0 0 0 0 0 0 0 0 0 0 0 0 0 0 0 0 460 463 468 467 474 461 466 464 464 476 465 470 465 477 470 471 476 478 474 474 479 479 479 483 475 482 477 477 481 480 479 479 479 476 479 481 476 481 481 473 466 473 471 478 468 477 484 467 478 469 462 483 460 487 477 494 475 483 473 464 490 477 459 469 485 473 456 479 501 496 491 434 475 457 436 459 444 451 452 451 476 453 435 446 0 0 0 0 0
206 235 257 237 250 280 266 228 232 238 307 0 399 401 429 395 403 423 428 413 432 444 437 443 451 460 444 439 431 435 461 461 465 468 465 461 460 469 475 459 466 470 473 470 471 469 475 472 475 474 476 476 478 476 486 481 476 480 486 480 473 481 479 481 479 475 471 478 474 480 479 473 470 465 473 469 471 466 463 476 473 461 471 477 463 478 475 478 453 464 465 462 476 475 485 468 467 456 453 467 481 464 460 461 439 440 479 434 450 442 465 460 451 443 487 476 0 0 0 0
195 204 202 231 239 251 269 230 231 258 400 400 391 396 397 408 415 418 401 400 411 411 410 442 437 435 422 446 442 455 452 456 458 455 451 450 460 463 464 456 458 463 459 468 463 466 468 463 472 472 468 469 472 469 471 467 467 472 471 473 468 479 471 474 478 469 478 478 467 470 479 469 468 472 459 455 461 461 454 465 469 459 454 460 457 453 460 448 464 468 450 456 460 454 451 452 458 455 462 468 448 452 448 473 464 463 440 459 451 446 439 452 453 496 434 466 402 0 0 0
196 179 177 208 212 230 229 227 234 296 355 366 350 372 347 359 375 370 372 379 386 382 383 398 408 392 412 416 430 433 440 437 445 437 439 444 445 439 447 446 444 454 451 448 442 453 455 453 456 455 450 454 454 453 450 457 461 452 458 459 460 464 453 463 451 451 455 461 458 453 458 460 449 442 445 434 429 419 422 423 432 436 418 417 427 428 427 429 433 423 424 422 439 415 406 414 415 422 420 423 420 421 420 433 425 424 413 412 423 401 426 416 402 395 417 409 404 425 409 0
287 324 254 226 242 226 232 229 253 342 339 339 343 347 349 337 339 356 347 344 369 368 365 381 385 398 391 414 410 422 421 422 422 436 427 431 432 437 429 432 430 437 431 431 435 434 440 434 439 438 440 442 441 450 443 443 446 444 444 445 445 444 445 445 443 446 436 437 440 440 435 437 432 426 419 428 411 404 395 402 395 398 399 400 398 408 399 396 400 397 394 397 399 390 408 399 405 404 393 404 402 408 392 405 399 398 386 395 398 416 405 404 403 410 398 402 412 393 441 437
304 285 294 241 225 229 233 246 293 304 304 300 311 298 317 322 304 313 313 320 336 329 331 346 356 375 384 388 396 396 403 403 409 412 413 408 416 421 412 416 414 417 412 414 416 416 413 423 414 416 413 414 417 422 428 421 424 421 421 430 421 422 421 426 425 418 420 420 423 414 418 407 407 404 400 392 387 370 372 366 366 361 373 363 359 363 364 366 372 373 379 355 365 367 366 354 366 368 373 374 345 364 383 369 379 361 365 365 356 358 366 360 391 353 390 374 371 363 378 395
266 275 268 269 259 256 255 287 265 277 282 283 269 287 286 279 281 283 296 281 284 307 310 308 328 343 360 364 366 382 384 390 392 393 387 383 388 394 390 394 396 386 396 396 392 396 392 394 393 394 389 398 399 402 394 384 397 398 397 395 394 392 396 395 392 388 400 399 399 392 388 388 385 378 368 358 359 350 345 325 331 332 327 332 332 317 334 332 321 328 322 321 328 335 332 324 334 314 313 327 326 305 334 346 323 325 341 328 332 313 329 320 319 299 333 315 316 299 333 307
266 246 265 238 251 254 253 261 269 269 262 258 259 269 265 263 266 272 271 278 276 280 296 313 312 314 334 342 360 357 362 365 374 365 365 372 370 372 369 368 372 372 368 372 369 374 371 368 368 376 380 376 374 376 380 382 373 380 382 378 378 376 376 378 374 376 373 377 370 373 372 372 370 356 348 347 336 322 323 311 314 303 311 305 308 317 299 312 295 306 305 308 313 310 311 311 294 305 304 308 320 317 320 313 314 308 313 319 305 312 323 312 325 319 323 294 335 320 319 310
220 216 223 224 227 235 232 248 236 234 239 246 244 250 233 234 237 240 249 250 251 262 271 276 289 303 313 323 328 328 323 337 340 342 338 336 340 338 338 342 341 343 346 345 351 344 345 348 349 339 341 346 345 348 348 349 344 350 353 348 353 353 355 345 348 348 346 350 350 346 341 342 340 327 327 323 311 306 285 289 277 271 277 270 283 277 274 280 267 275 276 289 285 272 274 273 271 267 279 280 280 270 279 273 271 284 281 284 278 272 273 273 283 261 264 255 280 261 269 301
229 220 230 219 225 222 220 227 228 224 230 227 221 226 222 232 231 227 236 238 244 246 257 259 275 288 294 291 303 305 306 317 311 322 322 321 324 323 321 327 324 319 319 322 329 324 320 329 319 328 317 323 332 330 319 322 325 328 327 328 324 329 326 327 324 329 324 322 321 324 324 319 323 314 306 298 282 276 270 268 268 263 263 261 261 265 261 257 255 257 255 262 256 257 262 258 259 254 259 262 259 263 264 261 259 257 261 261 260 267 273 253 275 261 254 250 258 262 282 255
205 204 209 204 217 210 214 213 215 214 216 212 206 213 210 219 222 220 217 225 223 228 246 250 250 266 271 285 283 285 290 295 294 289 303 298 295 298 297 303 296 299 305 300 306 299 303 300 307 306 307 303 303 299 298 308 302 305 305 306 309 308 306 309 310 306 308 304 304 302 298 304 297 288 285 282 267 264 252 252 245 252 249 251 249 248 245 240 245 240 247 244 244 249 241 233 243 243 242 238 242 248 252 246 249 241 245 239 249 251 241 268 254 270 263 264 263 263 242 280
176 199 195 207 192 203 209 210 183 191 182 200 184 191 199 190 205 205 209 215 218 221 221 235 239 251 250 255 266 264 266 269 268 272 275 274 282 283 280 280 280 284 285 289 281 276 282 287 282 280 282 277 275 279 277 284 289 284 283 287 282 286 284 285 283 287 286 277 283 281 280 281 276 271 263 257 256 245 239 233 234 235 229 229 228 225 223 223 228 227 229 226 227 222 222 220 227 221 225 224 223 223 215 229 224 220 230 227 225 226 228 237 233 226 240 226 234 204 217 217
181 178 193 196 197 180 199 190 180 183 182 179 179 186 180 181 189 194 185 205 212 210 216 227 231 233 239 242 245 249 252 255 256 256 261 260 263 257 269 262 262 266 265 270 264 265 268 269 267 271 266 269 270 261 268 268 268 270 269 275 269 267 266 275 267 270 267 273 272 267 267 259 261 259 254 240 238 234 220 220 224 219 220 215 220 215 217 211 219 227 217 218 218 211 212 220 216 212 213 215 216 214 207 213 212 209 220 216 224 218 219 228 232 226 220 222 239 246 227 232
177 172 170 176 180 178 175 180 178 180 181 181 180 181 187 187 183 183 180 179 188 190 185 213 217 221 225 220 224 237 232 246 242 241 244 240 236 241 249 245 244 243 248 247 256 253 249 247 245 253 248 250 246 250 241 248 249 256 247 253 251 249 251 251 244 251 251 250 246 244 246 244 243 241 239 230 220 218 215 201 213 199 185 198 194 186 194 194 188 194 194 184 196 189 186 190 185 183 188 187 206 205 189 190 191 192 190 201 199 204 206 203 209 197 210 202 210 215 215 208
169 172 174 176 176 175 173 174 175 174 178 174 172 174 174 178 181 178 184 183 188 189 184 189 209 192 212 216 217 222 229 227 226 225 225 227 229 231 227 224 227 228 234 237 235 233 230 227 233 232 232 236 233 232 232 231 234 237 236 237 235 237 235 234 232 232 237 227 231 233 230 234 231 223 223 198 196 191 188 190 193 194 194 193 190 192 184 196 190 190 186 191 190 190 186 184 181 183 185 187 175 184 186 182 181 176 183 181 184 175 184 180 196 200 194 198 187 186 190 202
168 168 170 175 169 171 165 170 170 169 172 170 170 165 175 171 173 176 176 181 183 182 191 191 190 190 188 189 191 210 213 200 208 213 215 215 214 215 213 199 216 219 220 215 215 221 219 220 222 223 219 222 216 220 218 219 222 220 223 221 220 227 221 223 217 214 220 215 221 224 226 217 218 197 190 195 187 195 189 188 191 184 189 192 186 185 186 186 184 187 181 179 182 180 186 181 184 176 184 185 184 183 180 187 180 181 181 179 179 183 181 178 183 192 197 195 201 180 200 216
155 159 163 156 158 163 158 166 161 164 157 157 158 161 161 161 164 171 167 173 170 176 181 184 184 186 186 182 182 185 183 194 183 186 194 192 191 184 198 188 190 191 190 190 201 196 195 192 191 190 195 195 195 197 197 194 196 194 192 192 203 200 200 187 193 194 190 195 192 196 193 196 196 188 189 197 196 187 186 179 178 176 172 176 177 176 177 178 176 177 173 174 169 174 175 173 171 168 169 174 165 172 172 168 177 170 167 168 168 171 174 173 174 177 175 171 168 174 165 177
146 148 152 151 158 152 154 159 159 160 156 156 156 154 157 155 158 162 159 170 170 171 179 178 179 178 179 181 182 183 190 185 188 190 189 186 189 194 190 191 191 194 190 198 194 196 194 197 196 194 195 199 195 195 197 198 198 199 198 200 197 197 197 199 195 195 197 199 197 196 196 195 192 192 193 187 187 179 180 175 176 172 171 166 163 168 172 168 171 170 164 164 170 169 167 170 165 167 167 169 168 168 171 165 163 157 162 164 163 168 166 161 174 166 178 160 168 170 169 160
145 143 144 145 147 145 149 153 152 150 151 155 149 151 148 149 152 149 158 157 162 166 169 172 172 172 174 177 174 177 176 180 181 181 177 179 183 180 183 181 181 185 186 185 182 186 183 185 186 185 185 188 186 184 189 187 186 187 0 189 189 187 184 188 189 190 191 185 184 186 188 184 181 179 175 178 176 174 170 165 160 160 161 159 163 162 165 165 163 162 159 161 161 164 160 161 159 162 162 164 161 162 161 159 153 161 162 160 158 165 156 166 162 157 163 168 159 160 168 171
136 135 138 144 143 148 146 144 143 146 144 144 140 144 148 147 148 146 149 150 156 159 161 163 165 168 167 166 169 169 171 171 175 175 172 175 177 174 172 176 174 181 176 176 176 178 177 178 179 177 180 178 179 179 181 181 181 0 0 177 179 178 180 179 180 178 178 178 179 173 174 175 174 175 171 171 168 167 159 161 161 151 153 154 158 155 157 153 152 154 150 152 155 155 153 151 152 149 152 152 156 153 149 153 149 148 147 149 155 153 149 143 147 144 150 147 149 139 132 143
138 138 132 138 140 143 151 144 146 139 140 142 144 148 142 140 140 148 147 144 150 153 154 157 161 161 164 162 166 166 164 164 169 165 164 165 165 169 168 168 171 0 171 0 170 172 171 170 172 173 175 172 176 175 175 0 172 176 0 0 0 0 175 174 173 168 178 169 176 173 167 166 170 169 165 166 162 159 158 151 151 153 155 150 155 152 150 147 149 157 147 151 152 147 149 147 151 151 154 150 149 147 146 147 149 141 143 143 147 146 151 148 147 156 139 156 149 162 159 173
125 127 125 124 133 134 142 138 136 132 133 131 132 126 137 139 136 136 134 142 140 143 150 152 149 159 159 152 159 161 156 157 158 162 158 155 161 163 0 0 0 0 0 0 0 0 160 165 164 164 167 166 168 167 0 0 0 167 0 0 0 0 0 0 166 166 167 0 162 165 163 161 163 161 157 157 156 156 147 150 149 146 144 144 141 150 141 143 148 146 143 144 145 143 140 138 142 146 143 144 141 138 142 138 133 137 137 139 141 142 142 145 144 155 151 141 142 136 138 138
116 125 125 116 130 131 133 133 136 131 126 134 133 134 125 126 121 139 133 135 142 139 144 147 146 149 154 152 152 155 152 152 156 158 152 156 154 0 0 0 0 0 0 0 0 0 0 0 0 161 164 159 0 0 0 0 0 0 0 0 0 0 0 0 0 0 0 0 0 0 0 156 158 155 154 148 149 152 150 145 141 139 144 143 139 143 142 138 145 137 136 136 139 142 139 137 142 143 139 140 137 134 139 135 120 130 137 132 138 137 138 145 143 146 130 138 136 125 131 143
115 109 120 125 129 128 129 129 128 126 132 120 120 118 123 129 135 124 134 136 128 128 134 142 141 140 143 143 147 149 152 148 151 151 151 149 0 0 0 0 0 0 0 0 0 0 0 0 151 153 158 0 0 0 0 0 0 0 0 0 0 0 0 0 0 0 0 0 0 0 0 0 149 149 149 147 147 145 142 141 139 141 129 137 127 126 136 141 138 132 136 139 131 127 118 135 141 138 134 134 136 140 136 131 133 134 131 133 132 141 137 137 142 139 148 138 137 118 124 147
106 111 111 110 109 113 121 118 116 121 117 116 118 117 125 121 123 118 116 119 123 123 128 123 136 139 140 139 142 143 145 145 140 142 145 141 0 0 0 0 0 0 0 0 0 0 0 0 0 0 0 0 0 0 0 0 0 0 0 0 0 0 0 0 0 0 0 0 0 0 0 0 0 140 143 139 138 132 130 131 124 122 124 122 126 120 123 123 124 128 123 125 115 128 122 127 126 135 122 116 120 129 132 119 120 122 127 117 130 134 119 133 119 129 107 129 108 108 108 131
111 110 115 116 115 113 113 125 118 117 116 116 115 114 118 123 118 119 124 115 116 113 122 117 138 127 138 138 0 140 0 0 0 0 140 0 0 0 0 0 0 0 0 0 0 0 0 0 0 0 0 0 0 0 0 0 0 0 0 0 0 0 0 0 0 0 0 0 0 0 0 0 0 141 136 136 124 123 120 126 123 116 123 123 115 121 117 120 116 120 118 125 113 114 115 120 118 122 121 123 119 123 121 123 121 117 127 121 109 126 119 107 127 118 132 118 111 133 134 145
99 104 108 110 107 104 107 105 102 101 109 104 104 108 107 109 108 113 116 111 110 114 110 117 122 117 122 121 122 128 0 0 0 0 125 0 0 0 0 0 0 0 0 0 0 0 0 0 0 0 0 0 0 0 0 0 0 0 0 0 0 0 0 0 0 0 0 0 0 0 0 0 129 0 0 125 122 120 124 117 118 118 110 113 111 118 114 113 110 115 115 118 109 112 112 106 110 112 113 107 116 113 108 112 113 114 113 113 123 107 115 110 112 121 122 102 107 128 124 149
97 99 92 95 102 102 103 101 101 101 104 105 104 106 108 102 106 107 113 106 106 110 105 105 115 110 116 119 119 121 0 124 0 0 0 0 0 0 0 0 0 0 0 0 0 0 0 0 0 0 0 0 0 0 0 0 0 0 0 0 0 0 0 0 0 0 0 0 0 0 0 0 0 124 0 113 122 117 117 110 114 111 105 105 112 107 108 115 102 108 114 112 116 111 106 116 108 105 98 118 106 109 109 103 109 116 110 108 118 108 108 106 116 92 107 117 111 98 111 128
98 102 99 105 98 101 104 94 92 98 98 98 103 98 101 97 108 104 114 116 112 107 99 108 113 109 114 116 114 120 120 119 124 0 0 0 0 0 0 0 0 0 0 0 0 0 0 0 0 0 0 0 0 0 0 0 0 0 0 0 0 0 0 0 0 0 0 0 0 0 0 0 123 122 0 122 114 118 120 118 109 111 101 118 109 107 105 103 102 106 104 108 110 95 102 104 110 103 110 102 108 110 107 109 111 109 107 98 108 107 104 105 107 100 109 122 132 129 90 133
87 84 86 84 82 84 80 95 91 83 87 91 98 96 94 87 77 95 89 88 92 84 100 104 99 101 116 110 0 0 107 108 119 0 0 0 0 0 0 0 0 0 0 0 0 0 0 0 0 0 0 0 0 0 0 0 0 0 0 0 0 0 0 0 0 0 0 0 0 0 0 118 115 111 103 110 105 106 102 102 101 101 94 92 98 98 88 100 106 98 94 96 104 83 85 96 92 101 82 97 88 98 92 89 78 90 94 90 91 85 86 86 78 97 100 90 90 90 111 132
93 85 87 91 97 98 96 108 95 96 95 94 89 91 91 97 97 92 100 97 95 105 107 103 103 102 111 109 0 105 111 111 117 114 121 108 0 0 0 0 0 118 0 0 0 0 0 0 0 0 0 0 0 0 0 0 0 0 0 0 0 0 0 0 114 0 0 0 109 0 109 109 115 109 111 107 109 109 104 99 111 100 104 91 94 97 106 102 99 101 104 106 106 98 100 104 99 95 102 110 100 95 97 104 98 102 101 88 88 83 87 93 91 104 98 95 97 102 92 115
86 92 92 92 97 97 93 92 84 97 88 89 86 95 87 87 99 98 95 92 97 96 96 115 93 107 104 101 105 106 95 103 107 103 103 104 0 113 118 0 0 0 0 0 0 0 0 0 0 0 0 0 0 0 0 0 0 110 0 0 0 107 105 109 111 112 108 100 113 105 109 101 106 103 114 108 101 95 105 96 94 96 101 88 94 89 94 106 107 94 99 104 111 83 84 83 88 92 94 87 95 91 93 99 89 90 104 95 97 85 93 90 86 90 98 91 115 120 136 102
85 85 83 89 92 93 102 88 88 82 88 86 84 91 90 90 89 87 88 87 80 91 95 88 87 92 91 92 103 91 92 101 97 98 93 111 99 100 105 103 105 98 98 110 107 93 0 0 94 0 0 108 107 94 100 109 107 104 109 103 101 104 107 101 98 107 102 95 99 107 98 105 103 102 104 93 94 95 101 87 93 93 93 96 90 90 88 96 96 91 101 90 91 95 93 89 94 85 91 83 90 87 87 90 88 92 96 89 86 93 85 94 94 102 88 79 106 95 124 103
85 81 86 83 84 87 100 100 91 90 87 83 91 88 84 89 89 96 91 96 84 100 96 95 93 100 94 87 99 100 96 86 98 94 98 95 98 97 97 106 103 96 100 105 105 95 104 0 105 99 98 107 99 98 102 101 101 108 95 105 105 97 95 106 106 99 96 100 98 106 99 103 100 92 102 88 94 95 96 86 98 97 95 93 99 96 88 84 97 91 85 99 88 94 93 94 89 96 98 85 91 95 83 91 92 103 94 96 95 88 88 93 105 89 114 118 115 91 137 119
83 74 71 71 79 81 88 88 87 78 87 81 88 90 90 83 86 87 86 86 86 89 92 86 87 84 89 93 95 94 92 94 95 91 93 95 98 87 90 97 94 92 84 90 96 92 87 97 90 91 90 98 97 91 89 85 104 89 98 94 96 84 82 98 97 98 98 90 96 98 97 87 92 93 86 95 92 95 91 94 86 93 85 87 85 85 93 89 86 88 94 80 87 81 87 87 84 93 77 84 84 86 84 72 82 81 85 86 83 87 90 83 76 84 100 107 138 120 118 68
72 74 82 86 72 85 83 88 84 80 86 88 78 82 82 86 89 88 82 85 84 91 84 92 88 84 92 86 86 89 94 96 92 94 86 90 96 97 96 93 94 96 92 90 86 98 97 98 96 91 92 88 96 87 103 94 88 83 87 91 96 86 87 91 89 95 88 96 106 95 96 93 85 94 93 94 97 85 95 94 91 87 92 88 77 85 89 80 93 93 76 88 77 84 90 81 92 87 81 79 86 82 78 80 76 86 79 83 81 90 83 88 84 95 89 90 99 87 81 163
