0 0 0 0 0 0 0 0 0 0 0 0 0 0 0 0 0 0 0 0 0 0 0 0 0 0 0 0 0 0 0 0 0 0 0 0 0 0 0 0 0 0 0 0 0 0 0 0 0 0 0 0 0 0 0 0 0 0 0 0 0 0 0 0 0 0 0 0 0 0 0 0 0 0 0 0 0 0 0 0 0 0 0 0 0 0 0 0 0 0 0 0 0 0 0 0 0 0 0 0 0 0 0 0 0 0 0 0 0 0 0 0 0 0 0 0 0 0 0 0
0 0 0 0 0 0 0 0 0 0 0 0 0 0 0 0 0 0 0 0 0 0 0 0 0 0 0 0 0 0 0 0 0 0 0 0 0 0 0 0 0 0 0 0 0 0 0 0 0 0 0 0 0 0 0 0 0 0 0 0 0 0 0 0 0 0 0 0 0 0 0 0 0 0 0 0 0 0 0 0 0 0 0 0 0 0 0 0 0 0 0 0 0 0 0 0 0 0 0 0 0 0 0 0 0 0 0 0 0 0 0 0 0 0 0 0 0 0 0 0
0 0 0 0 0 0 0 0 0 0 0 0 0 0 0 0 0 0 0 0 0 0 0 0 0 0 0 0 0 0 0 0 0 0 0 0 0 0 0 0 0 0 0 0 0 0 0 0 0 0 0 0 0 0 0 0 0 0 0 0 0 0 0 0 0 0 0 0 0 0 0 0 0 0 0 0 0 0 0 0 0 0 0 0 0 0 0 0 0 0 0 0 0 0 0 0 0 0 0 0 0 0 0 0 0 0 0 0 0 0 0 0 0 0 0 0 0 0 0 0
0 0 0 0 0 0 0 0 0 0 0 0 0 0 0 0 0 0 0 0 0 0 0 0 0 0 0 0 0 0 0 0 0 0 0 0 0 0 0 0 0 0 0 0 0 0 0 0 0 0 0 0 0 0 0 0 0 0 0 0 0 0 0 0 0 0 0 0 0 0 0 0 0 0 0 0 0 0 0 0 0 0 0 0 0 0 0 0 0 0 0 0 0 0 0 0 0 0 0 0 0 0 0 0 0 0 0 0 0 0 0 0 0 0 0 0 0 0 0 0
0 0 0 0 0 0 0 0 0 0 0 0 0 0 0 0 0 0 0 0 0 0 0 0 0 0 0 0 0 0 0 0 0 0 0 0 0 0 0 0 0 0 0 0 0 0 0 0 0 0 0 0 0 0 0 0 0 0 0 0 0 0 0 0 0 0 0 0 0 0 0 0 0 0 0 0 0 0 0 0 0 0 0 0 0 0 0 0 0 0 0 0 0 0 0 0 0 0 0 0 0 0 0 0 0 0 0 0 0 0 0 0 0 0 0 0 0 0 0 0
0 0 0 0 0 0 0 0 0 0 0 0 0 0 0 0 0 0 0 0 0 0 0 0 0 0 0 0 0 0 0 0 0 0 0 0 0 0 0 459 480 492 466 497 514 508 497 488 487 496 474 478 482 491 450 0 0 0 0 0 0 0 0 0 0 0 0 0 0 0 0 0 0 0 0 0 0 0 0 0 0 0 0 0 0 0 0 0 0 0 0 0 0 0 0 0 0 0 0 0 0 0 0 0 0 0 0 0 0 0 0 0 0 0 0 0 0 0 0 0
0 0 0 0 0 0 0 0 0 0 0 0 0 0 0 0 0 0 0 0 0 0 0 0 0 0 0 0 0 0 0 0 0 0 0 0 0 527 521 495 499 503 500 502 518 512 505 510 526 510 512 518 515 509 499 516 506 502 522 493 0 0 0 0 0 0 0 0 0 0 0 0 0 0 0 0 0 0 0 0 0 0 0 0 0 0 0 0 0 0 0 0 0 0 0 0 0 0 0 0 0 0 0 0 0 0 0 0 0 0 0 0 0 0 0 0 0 0 0 0
0 0 0 0 0 0 0 0 0 0 0 0 0 0 0 0 0 0 0 0 0 0 0 0 0 0 0 0 0 0 0 0 0 0 0 509 497 509 505 503 506 505 500 511 494 505 504 507 512 501 516 509 518 507 520 514 528 522 498 504 506 505 531 530 560 0 0 0 0 0 0 0 0 0 0 0 0 0 0 0 0 0 0 0 0 0 0 0 0 0 0 0 0 0 0 0 0 0 0 0 0 0 0 0 0 0 0 0 0 0 0 0 0 0 0 0 0 0 0 0
0 0 0 0 0 0 0 0 0 0 0 0 0 0 0 0 0 0 0 0 0 0 0 0 0 0 0 0 0 0 0 0 0 495 500 510 491 499 506 500 513 508 510 501 499 504 501 503 511 510 507 502 510 505 508 512 510 501 515 506 506 514 506 512 505 494 504 535 595 605 547 526 566 0 546 602 539 570 561 613 0 0 0 0 0 0 0 0 0 0 0 0 0 0 0 0 0 0 0 0 0 0 0 0 0 0 0 0 0 0 0 0 0 0 0 0 0 0 0 0
0 0 0 0 0 0 0 0 0 0 0 0 0 0 0 0 0 0 0 0 0 0 0 0 0 0 0 0 0 0 0 521 522 504 503 505 494 504 513 498 509 495 508 507 496 503 510 514 506 512 514 518 517 506 496 509 517 511 508 512 515 509 518 513 511 506 521 521 533 582 596 604 610 577 592 633 608 578 599 657 583 581 625 611 625 556 562 625 554 624 596 595 583 596 625 632 612 616 609 635 598 588 607 625 571 0 0 0 0 0 0 0 0 0 0 0 0 0 0 0
0 0 0 0 0 0 0 0 0 0 0 0 0 0 0 0 0 0 0 0 0 0 0 0 0 0 0 0 0 0 510 495 521 499 492 493 519 496 500 504 503 491 512 495 496 496 498 508 507 504 499 497 507 507 517 508 497 500 501 509 496 506 506 502 510 501 510 516 503 508 528 547 548 552 571 572 577 569 569 537 513 590 515 555 537 582 566 553 581 577 537 544 586 529 536 611 580 580 553 616 557 603 574 573 530 558 581 601 595 0 0 0 0 0 0 0 0 0 0 0
0 0 0 0 0 0 0 0 0 0 0 0 0 0 0 0 0 0 0 0 0 0 0 0 0 0 0 0 489 479 506 502 495 506 498 489 500 486 491 502 505 499 494 494 507 504 504 501 497 506 490 506 500 496 507 502 506 504 507 512 501 501 507 503 511 503 500 509 502 526 510 509 549 516 566 582 506 559 529 538 511 537 495 544 543 542 558 509 535 553 512 561 536 548 548 528 543 568 575 554 548 517 565 549 524 517 543 530 573 0 0 0 0 0 0 0 0 0 0 0
0 0 0 0 0 0 0 0 0 0 0 0 0 0 0 0 0 0 0 0 0 0 0 0 0 0 0 482 503 495 494 495 487 500 503 494 498 500 508 502 500 504 504 504 517 502 506 508 495 505 501 502 502 493 501 513 500 510 505 508 516 507 505 512 511 503 506 510 506 515 515 523 537 553 551 552 570 573 576 565 547 566 515 590 563 589 589 571 552 562 585 573 558 567 585 555 614 575 599 558 594 520 539 569 567 608 602 575 0 0 0 0 0 0 0 0 0 0 0 0
0 0 0 0 0 0 0 0 0 0 0 0 0 0 0 0 0 0 0 0 0 0 0 0 0 0 446 499 491 496 498 491 500 497 496 490 494 495 498 492 493 498 502 502 500 505 493 499 497 495 506 496 502 502 503 502 500 502 513 502 508 508 505 503 504 508 512 497 505 506 509 492 517 536 521 541 516 512 508 512 524 502 532 522 517 534 504 505 501 539 527 516 499 506 483 522 485 489 487 486 526 487 464 508 511 552 499 536 487 0 0 0 0 0 0 0 0 0 0 0
0 0 0 0 0 0 0 0 0 0 0 0 0 0 0 0 0 0 0 0 0 0 0 0 0 443 501 499 496 496 501 496 503 494 491 499 504 497 499 500 503 498 501 501 497 506 502 505 493 497 503 502 506 500 499 500 505 505 502 511 513 503 512 514 504 506 500 503 520 516 511 498 501 530 520 585 531 543 519 528 551 571 532 554 558 533 541 551 552 523 544 537 540 568 549 567 537 524 571 563 539 556 548 549 522 602 549 579 565 629 540 0 0 0 0 0 0 0 0 0
0 0 0 0 0 0 0 0 0 0 0 0 0 0 0 0 0 0 0 0 0 0 0 0 0 498 499 495 501 494 489 500 498 489 491 499 500 498 499 496 504 495 504 500 495 501 510 506 496 504 501 500 502 506 502 504 512 509 500 509 511 501 508 507 510 509 510 511 511 509 513 512 512 529 574 561 563 582 563 568 567 574 560 541 598 532 575 567 558 562 554 578 592 548 544 564 576 579 564 556 555 553 530 597 594 554 574 575 553 598 0 0 0 587 0 0 0 0 0 0
0 0 0 0 0 0 0 0 0 0 0 0 0 0 0 0 0 0 0 0 0 0 0 0 512 496 492 498 488 495 493 493 489 487 491 499 496 493 497 490 497 507 494 503 492 508 506 501 495 505 497 506 503 508 503 503 501 499 504 507 505 504 504 514 496 501 500 508 504 504 514 509 511 512 523 556 510 530 555 520 542 550 508 541 541 535 519 531 511 556 535 535 559 544 513 560 542 555 551 538 523 510 534 514 554 546 499 526 492 526 526 0 0 0 0 0 0 0 0 0
0 0 0 0 0 0 0 0 0 0 0 0 0 0 0 0 0 0 0 0 0 0 0 0 479 485 499 497 499 492 495 490 490 498 502 496 500 505 489 506 501 495 502 493 494 506 505 513 507 501 509 501 507 506 496 497 503 503 510 507 510 503 505 506 501 511 506 503 507 511 505 517 515 518 510 536 530 538 560 541 563 546 573 545 571 584 536 593 554 541 552 527 565 535 564 558 569 559 555 562 587 572 571 564 566 555 568 561 594 582 0 0 0 0 0 0 0 0 0 0
0 0 0 0 0 0 0 0 0 0 0 0 0 0 0 0 0 0 0 0 0 0 0 470 492 496 489 508 484 493 490 487 487 493 492 488 494 484 495 493 496 494 500 490 501 510 504 504 499 493 503 504 500 504 506 506 499 505 503 497 499 495 502 502 504 509 505 506 507 504 510 510 505 501 500 514 510 540 544 525 526 526 525 546 544 560 529 550 525 539 537 520 535 540 531 529 553 528 537 533 499 536 522 584 557 559 544 557 473 531 520 0 0 0 0 0 0 0 0 0
0 0 0 0 0 0 0 0 0 0 0 0 0 0 0 0 0 0 0 0 0 0 0 486 493 487 479 489 488 490 492 492 490 486 487 490 484 487 491 496 495 501 495 499 507 493 498 497 493 502 492 494 494 503 500 496 507 508 502 500 503 504 506 498 494 496 505 502 500 515 503 504 508 512 496 500 506 519 522 524 520 504 529 512 513 516 529 509 527 545 512 532 516 504 518 527 529 546 544 496 480 543 548 544 526 525 496 504 487 520 483 500 0 0 0 0 0 0 0 0
0 0 0 0 0 0 0 0 0 0 0 0 0 0 0 0 0 0 0 0 0 0 462 487 494 490 487 497 493 483 496 501 491 496 494 494 495 496 496 499 501 499 503 494 496 497 502 499 493 497 494 503 496 492 499 508 502 499 502 500 500 504 513 505 499 505 498 505 505 505 506 505 502 499 510 503 526 542 546 535 505 537 530 536 546 550 523 521 515 530 553 540 521 525 559 525 557 537 512 533 516 533 510 530 555 539 520 514 548 554 540 520 529 0 0 0 0 0 0 0
0 0 0 0 0 0 0 0 0 0 0 0 0 0 0 0 0 0 0 0 0 0 462 491 482 480 491 495 500 494 491 484 490 492 486 491 483 490 495 489 493 498 490 501 492 494 500 498 502 497 497 496 494 507 499 501 502 506 505 506 508 506 501 500 497 507 500 506 500 498 503 505 508 506 511 501 505 486 510 499 514 512 500 536 530 492 494 471 509 527 509 491 522 491 501 539 509 489 514 533 489 497 497 504 510 528 514 495 461 514 518 0 0 0 0 0 0 0 0 0
0 0 0 0 0 0 0 0 0 0 0 0 0 0 0 0 0 0 0 0 0 0 485 483 481 483 489 493 489 495 497 479 495 488 494 483 490 495 489 491 502 501 493 501 492 504 500 500 499 495 499 505 496 501 502 494 499 502 504 497 504 507 506 498 501 506 499 503 500 508 510 499 502 503 509 505 509 529 509 526 525 526 518 522 513 514 517 489 512 539 515 514 514 531 546 525 495 553 525 506 516 515 504 530 488 556 563 489 494 544 518 470 476 513 0 0 0 0 0 0
0 0 0 0 0 0 0 0 0 0 0 0 0 0 0 0 0 0 0 0 0 0 499 482 494 490 488 493 486 493 491 501 485 491 491 482 488 492 493 488 497 492 494 497 498 493 500 500 502 505 501 504 503 501 508 507 502 503 501 498 507 507 503 502 496 503 511 505 504 505 520 509 515 514 497 510 511 526 538 523 518 540 531 524 543 546 523 536 553 542 540 554 528 552 560 552 533 552 568 544 554 530 537 525 566 578 523 544 574 506 546 581 496 0 0 0 0 0 0 0
0 0 0 0 0 0 0 0 0 0 0 0 0 0 0 0 0 0 0 0 0 0 483 488 482 489 496 487 491 489 487 488 492 482 486 488 486 487 493 489 489 496 505 498 496 492 493 496 494 498 498 509 497 497 506 497 506 498 500 495 504 505 502 501 508 507 503 503 504 501 512 505 501 508 508 503 510 511 509 525 525 525 506 529 528 516 547 531 539 518 490 534 527 506 492 535 513 527 523 549 500 515 488 519 530 534 506 482 502 531 516 518 469 0 0 0 0 0 0 0
0 0 0 0 0 0 0 0 0 0 0 0 0 0 0 0 0 0 0 0 0 0 491 480 486 483 486 490 492 488 493 485 488 488 505 485 495 492 499 501 495 494 503 492 496 490 493 497 495 508 506 496 498 502 502 501 505 510 502 501 509 510 503 502 514 501 507 504 500 513 504 509 501 505 504 509 512 518 513 522 538 518 530 547 534 546 546 549 544 557 536 548 542 535 548 549 549 541 522 549 539 543 554 519 542 564 567 568 616 606 600 579 612 547 0 0 0 0 0 0
0 0 0 0 0 0 0 0 0 0 0 0 0 0 0 0 0 0 0 0 0 410 476 489 487 481 492 486 493 489 484 484 486 496 495 491 498 497 489 497 487 496 499 491 492 493 495 503 492 497 502 500 494 499 501 504 495 503 498 496 501 498 504 505 503 496 501 503 497 500 505 505 500 505 506 496 505 511 498 533 531 506 506 499 522 507 517 521 514 509 506 549 473 530 538 489 514 520 558 520 546 540 483 503 537 540 517 513 493 510 495 0 0 0 0 0 0 0 0 0
0 0 0 0 0 0 0 0 0 0 0 0 0 0 0 0 0 0 0 0 0 460 486 483 492 486 486 478 483 480 484 486 492 486 482 490 489 482 489 490 496 497 487 487 494 492 495 491 492 493 494 501 498 504 495 501 504 501 497 499 505 494 497 497 500 500 500 500 507 505 502 499 505 508 501 509 503 497 517 516 508 496 503 512 522 492 513 515 497 522 495 518 509 530 511 502 523 479 504 519 503 498 540 522 494 522 505 501 520 505 523 537 451 0 0 0 0 0 0 0
0 0 0 0 0 0 0 0 0 0 0 0 0 0 0 0 0 0 0 0 0 463 481 483 493 482 482 485 480 482 487 486 487 498 488 488 487 493 491 496 491 489 488 495 491 491 496 498 502 494 496 499 495 496 497 498 494 504 500 495 505 505 505 507 499 504 501 506 506 498 496 497 499 503 514 497 503 513 514 516 515 529 520 520 517 509 527 528 515 532 537 537 493 511 518 533 542 517 516 502 504 517 518 515 527 531 544 537 536 520 566 559 580 501 0 0 0 0 0 0
0 0 0 0 0 0 0 0 0 0 0 0 0 0 0 0 0 0 0 0 0 412 475 479 474 474 476 481 484 482 479 485 485 488 482 483 482 480 485 489 489 487 494 495 496 495 489 492 495 496 498 494 492 496 498 498 496 496 499 496 496 496 506 496 502 499 501 503 498 498 499 492 500 496 506 504 500 497 497 494 495 498 493 493 484 497 485 481 493 477 529 506 499 483 493 472 479 496 453 488 505 489 495 511 511 469 518 474 509 444 460 499 465 0 0 0 0 0 0 0
0 0 0 0 0 0 0 0 0 0 0 0 0 0 0 0 0 0 0 0 0 499 493 481 483 482 489 479 483 483 489 480 483 486 489 483 487 489 486 491 489 491 492 496 495 490 494 494 489 495 492 500 493 498 491 496 497 499 496 497 501 492 490 500 496 502 499 497 508 506 500 504 495 498 494 495 505 500 506 519 488 535 529 538 529 527 532 524 521 532 494 522 503 527 537 520 525 510 494 510 524 522 506 546 537 524 549 509 566 513 502 522 505 0 0 0 0 0 0 0
0 0 0 0 0 0 0 0 0 0 0 0 0 0 0 0 0 0 0 0 0 447 482 480 482 479 479 480 484 482 483 484 491 482 495 484 481 487 497 489 486 487 492 487 491 493 496 497 500 491 489 496 495 498 494 499 499 494 501 504 500 500 499 504 496 503 499 505 496 502 506 503 499 502 505 497 499 500 525 508 490 515 526 531 520 517 517 503 515 500 504 509 522 513 521 517 508 491 521 522 532 500 521 530 548 548 493 480 536 511 538 525 523 0 0 0 0 0 0 0
0 0 0 0 0 0 0 0 0 0 0 0 0 0 0 0 0 0 0 0 0 471 482 476 471 480 476 474 482 475 481 482 479 477 484 486 485 485 488 490 491 492 485 498 498 487 489 491 496 493 494 492 494 497 491 498 491 498 498 495 498 495 503 497 507 496 501 498 502 507 500 498 507 497 505 502 502 503 501 508 500 498 498 517 514 516 499 494 481 500 513 507 510 497 505 509 517 509 510 504 528 523 530 482 522 502 499 503 530 486 511 475 536 0 0 0 0 0 0 0
0 0 0 0 0 0 0 0 0 0 0 0 0 0 0 0 0 0 0 0 0 468 475 478 480 473 477 480 481 479 485 484 482 481 483 487 482 483 485 489 491 485 488 492 490 490 489 493 495 492 495 495 495 491 493 496 494 498 495 494 502 494 498 502 498 499 497 501 496 496 499 495 498 495 499 500 501 504 517 530 504 536 511 516 504 535 510 530 536 508 529 538 517 494 513 522 513 529 508 507 511 543 524 555 522 486 522 497 538 500 542 522 546 0 0 0 0 0 0 0
0 0 0 0 0 0 0 0 0 0 0 0 0 0 0 0 0 0 0 0 0 446 479 472 472 479 476 478 478 487 476 480 482 483 480 487 487 484 484 489 492 486 489 488 489 489 491 491 497 488 493 490 494 495 494 494 499 497 493 497 495 501 502 498 502 499 497 499 496 498 503 495 499 502 498 500 498 510 496 500 511 477 493 509 512 492 508 527 484 499 498 507 496 486 499 504 491 495 533 518 510 504 484 470 503 521 469 490 489 483 504 484 514 517 0 0 0 0 0 0
0 0 0 0 0 0 0 0 0 0 0 0 0 0 0 0 0 0 0 0 0 437 470 475 471 478 471 477 480 474 479 480 477 479 481 478 483 483 482 480 488 483 483 490 487 485 490 488 490 493 495 500 491 494 500 492 491 496 497 494 492 493 494 501 499 504 500 499 496 493 495 494 496 496 493 497 500 500 501 497 503 484 519 486 495 493 488 485 509 492 468 483 483 493 502 514 501 483 512 514 499 494 495 486 485 474 467 471 481 514 496 485 486 459 0 0 0 0 0 0
0 0 0 0 0 0 0 0 0 0 0 0 0 0 0 0 0 0 0 0 0 465 463 477 473 474 483 476 472 476 483 482 479 482 485 488 483 483 484 487 488 491 488 489 487 495 492 492 490 491 487 495 495 494 496 495 489 493 491 496 496 501 495 496 496 500 495 497 497 498 496 490 499 499 501 501 503 500 498 500 496 501 493 477 504 492 480 497 500 484 495 506 495 499 509 474 487 499 515 524 513 497 507 489 500 523 490 506 527 513 565 524 510 508 0 0 0 0 0 0
0 0 0 0 0 0 0 0 0 0 0 0 0 0 0 0 0 0 0 0 0 0 472 471 478 474 472 476 473 474 481 480 485 475 480 481 488 482 482 487 486 484 483 485 487 488 493 495 497 492 493 495 487 495 494 490 491 495 491 494 496 494 495 491 496 501 494 493 494 493 494 495 498 492 496 494 492 490 481 483 491 494 487 475 485 468 488 484 476 483 506 493 477 495 482 499 480 461 477 470 467 457 468 430 440 484 489 444 460 480 454 435 448 408 0 0 0 0 0 0
0 0 0 0 0 0 0 0 0 0 0 0 0 0 0 0 0 0 0 0 0 0 492 473 470 473 473 476 475 483 475 483 480 481 480 476 480 482 487 483 483 491 489 486 487 486 485 489 495 493 490 494 498 490 490 496 494 491 496 496 494 494 492 498 498 494 502 502 494 493 503 489 496 494 495 488 498 503 500 497 508 529 505 509 509 520 514 523 509 506 512 487 529 496 497 513 479 485 506 484 482 516 514 477 510 509 491 494 507 465 499 499 494 492 0 0 0 0 0 0
0 0 0 0 0 0 0 0 0 0 0 0 0 0 0 0 0 0 0 0 0 0 540 474 472 480 480 480 486 477 476 480 478 486 480 484 485 489 480 490 484 486 487 488 487 492 490 483 491 494 488 490 489 494 493 494 494 490 493 496 499 487 497 494 496 498 497 497 494 497 500 492 493 494 493 490 496 506 517 501 503 495 506 526 532 517 515 494 507 530 527 523 531 526 511 512 536 519 514 508 481 464 535 488 475 510 473 508 539 521 497 497 545 477 499 472 0 0 0 0
0 0 0 0 0 0 0 0 0 0 0 0 0 0 0 0 0 0 0 0 0 0 606 472 473 476 477 472 479 475 476 481 477 476 483 484 481 483 484 486 484 485 490 491 486 484 490 489 495 490 488 494 496 495 490 498 490 491 495 495 497 493 496 493 500 494 499 498 491 498 495 494 497 492 494 491 497 487 496 495 502 499 513 499 511 530 505 499 495 490 518 520 494 499 519 510 521 523 494 503 498 490 486 514 502 469 472 471 501 504 478 488 463 459 504 477 0 0 0 0
0 0 0 0 0 0 0 0 0 0 0 0 0 0 0 0 0 0 0 0 0 0 745 488 471 477 474 472 476 469 481 484 480 484 473 479 479 480 480 484 484 483 489 487 488 485 489 489 497 492 490 492 489 492 492 490 491 492 492 496 490 495 494 495 493 495 494 496 496 501 495 493 500 498 493 498 493 493 506 498 500 497 507 500 516 510 506 505 514 500 490 505 524 525 513 500 505 547 502 525 520 536 513 499 506 539 493 512 520 528 500 512 496 585 511 482 0 0 0 0
0 0 0 0 0 0 0 0 0 0 0 0 0 0 0 0 0 0 0 0 0 0 0 494 474 470 476 473 470 477 477 471 475 479 482 476 478 479 488 483 482 482 487 488 482 489 489 487 487 492 491 491 491 488 495 491 498 490 491 494 492 492 496 493 489 496 495 493 496 491 498 494 493 494 492 489 489 493 491 485 488 492 494 499 485 491 490 504 498 489 501 519 496 493 504 498 493 499 498 495 519 526 496 497 490 455 490 495 487 483 515 482 476 0 0 0 0 0 0 0
0 0 0 0 0 0 0 0 0 0 0 0 0 0 0 0 0 0 0 0 0 0 0 499 472 471 471 469 474 469 476 475 472 478 474 479 480 479 477 484 485 481 484 485 485 486 489 485 491 484 490 488 489 487 492 488 495 492 485 494 492 491 487 497 493 496 497 493 492 497 494 493 493 493 496 488 483 502 483 509 500 488 494 504 492 495 496 510 485 487 500 506 493 497 487 509 508 486 489 509 515 480 512 486 458 471 487 476 460 487 474 456 440 451 426 0 0 0 0 0
0 0 0 0 0 0 0 0 0 0 0 0 0 0 0 0 0 0 0 0 0 0 0 0 462 470 465 474 469 473 475 477 475 475 482 478 478 482 476 484 479 482 484 485 485 484 485 485 490 490 489 491 488 491 490 491 494 491 492 493 492 497 491 492 496 492 490 490 495 496 495 491 491 493 490 483 491 507 500 499 485 514 486 518 512 504 521 492 507 503 514 488 497 493 530 513 505 509 488 490 497 498 524 518 529 482 500 504 519 483 487 521 518 478 504 537 0 0 0 0
0 0 0 0 0 0 0 0 0 0 0 0 0 0 0 0 0 0 0 0 0 0 0 0 474 465 469 468 469 471 477 469 473 477 477 475 480 480 476 482 483 480 482 490 481 481 490 489 486 487 491 489 490 490 489 487 495 488 491 486 494 488 493 496 493 488 495 491 490 491 496 492 496 489 488 495 482 488 494 497 485 493 480 487 481 498 491 475 503 485 489 489 515 494 545 485 522 498 504 483 464 507 482 462 468 441 462 458 475 443 496 475 458 500 445 0 0 0 0 0
0 0 0 0 0 0 0 0 0 0 0 0 0 0 0 0 0 0 0 0 0 0 0 0 0 485 463 473 468 472 470 471 481 476 478 474 476 476 478 479 481 477 478 484 490 481 489 486 483 489 494 484 488 485 485 489 492 486 490 490 494 491 494 492 486 494 489 494 494 493 489 492 490 493 486 492 476 472 495 495 499 491 483 490 495 490 474 496 495 498 489 513 502 492 504 529 522 510 482 503 483 506 503 475 457 464 477 509 469 478 499 496 462 453 461 0 0 0 0 0
0 0 0 0 0 0 0 0 0 0 0 0 0 0 0 0 0 0 0 0 0 0 0 0 0 591 469 474 469 469 470 472 481 475 478 479 478 475 480 478 481 478 482 487 479 479 484 484 488 485 485 486 487 485 489 489 491 489 492 489 489 491 488 486 489 488 492 492 488 489 496 491 495 487 490 486 496 488 491 486 496 498 506 484 484 492 518 500 489 499 500 494 474 512 504 514 493 481 515 512 516 515 495 529 507 497 486 500 498 443 477 457 491 0 0 0 0 0 0 0
0 0 0 0 0 0 0 0 0 0 0 0 0 0 0 0 0 0 0 0 0 0 0 0 0 0 470 461 462 470 469 469 473 472 474 472 477 476 477 472 476 478 484 480 481 485 483 480 484 486 487 483 489 486 486 491 489 494 491 488 485 487 488 490 491 489 493 487 485 489 498 486 490 489 485 474 479 484 486 492 492 488 492 481 492 499 486 473 484 475 484 489 486 499 494 476 478 466 504 490 500 498 483 447 475 465 484 505 445 441 455 483 491 447 0 0 0 0 0 0
0 0 0 0 0 0 0 0 0 0 0 0 0 0 0 0 0 0 0 0 0 0 0 0 0 0 0 468 463 459 472 468 470 470 473 469 471 477 474 474 479 484 478 477 480 479 481 480 487 481 481 485 488 486 482 486 485 489 486 495 486 484 494 487 489 490 487 490 493 490 490 490 486 490 490 498 496 489 495 487 507 505 485 483 489 497 515 501 503 487 492 525 490 498 505 510 504 513 512 509 512 498 481 536 508 485 511 500 503 494 509 508 533 498 443 0 0 0 0 0
0 0 0 0 0 0 0 0 0 0 0 0 0 0 0 0 0 0 0 0 0 0 0 0 0 0 0 489 463 462 470 465 473 474 467 469 471 468 472 475 473 477 474 479 475 475 480 482 479 487 481 482 485 485 481 488 484 479 487 484 486 484 486 491 491 489 488 486 485 485 484 487 484 482 484 496 490 485 496 481 479 489 482 500 500 471 503 467 490 486 471 482 480 503 490 510 492 484 479 474 484 496 504 495 484 457 491 468 465 476 487 461 486 514 456 0 0 0 0 0
0 0 0 0 0 0 0 0 0 0 0 0 0 0 0 0 0 0 0 0 0 0 0 0 0 0 0 0 509 460 461 467 467 466 474 472 475 468 475 477 475 480 476 479 478 478 470 477 483 483 479 479 482 480 480 483 486 477 483 483 487 481 488 485 486 483 484 487 486 485 486 487 486 489 480 495 480 484 487 479 477 465 479 482 486 479 492 486 487 499 472 480 500 467 484 475 482 470 463 486 479 472 474 468 456 471 450 475 451 466 450 522 478 474 492 0 0 0 0 0
0 0 0 0 0 249 232 260 330 0 0 0 0 0 0 0 0 0 0 0 0 0 0 0 0 0 0 0 0 495 459 470 468 469 463 472 472 469 472 470 476 475 482 470 476 478 479 480 475 478 479 483 480 485 482 483 481 482 486 482 486 485 486 483 483 485 483 484 478 483 470 485 481 491 478 479 480 484 495 487 495 485 490 486 497 487 482 497 492 492 492 520 497 469 505 481 506 487 508 494 476 495 482 489 473 489 465 489 505 466 462 447 456 441 531 0 0 0 0 0
0 0 0 0 231 223 227 232 227 270 343 0 0 0 0 0 0 0 0 0 0 0 0 0 0 0 0 0 0 0 442 460 461 464 466 469 468 465 472 469 472 476 471 471 478 474 478 474 475 477 478 485 483 481 480 486 484 480 483 479 479 483 483 484 486 487 481 483 475 479 475 471 471 480 484 477 467 461 475 469 485 471 474 483 485 481 488 478 479 468 466 481 458 473 472 474 471 454 457 492 475 462 481 449 444 454 467 453 455 431 425 428 438 0 0 0 0 0 0 0
0 0 0 265 227 227 232 228 237 235 354 0 0 0 0 0 0 0 0 0 0 0 0 0 0 0 0 0 0 0 0 474 459 466 462 465 467 467 464 469 472 470 472 471 471 476 471 478 479 477 475 475 477 477 481 480 482 481 482 481 480 483 478 482 482 482 481 478 485 478 474 480 474 475 473 475 478 483 473 484 495 477 498 468 473 483 492 486 500 485 480 492 496 460 507 467 484 497 468 501 507 462 482 487 507 444 460 457 464 460 467 478 470 479 482 0 0 0 0 0
220 243 251 278 261 271 290 230 231 240 322 0 429 445 438 423 456 401 414 419 458 465 444 448 459 448 464 461 446 470 462 461 460 473 466 463 464 467 465 468 467 467 477 476 477 475 471 467 474 474 477 478 475 477 480 477 479 476 481 480 481 477 483 486 478 477 483 485 477 472 487 482 482 468 479 470 485 475 471 479 482 462 482 482 472 469 483 479 475 473 476 484 485 481 466 473 469 472 465 479 462 465 471 477 468 460 462 506 433 512 445 464 513 480 452 0 0 0 0 0
224 174 205 225 252 239 247 236 226 257 385 393 394 393 389 402 387 406 399 400 413 399 403 413 427 422 430 426 442 442 451 458 453 458 455 458 458 460 450 457 456 458 463 464 465 470 471 469 472 469 468 472 474 478 470 475 476 472 467 475 473 469 470 473 473 468 472 469 466 471 468 468 466 477 463 438 454 449 458 453 454 451 447 445 458 455 436 457 450 462 459 436 460 431 441 429 435 451 454 451 435 444 438 444 434 445 435 436 442 444 425 432 396 419 421 457 399 423 0 0
222 216 223 234 248 247 237 225 235 321 421 358 382 375 379 371 382 375 388 398 392 391 381 408 408 412 412 427 428 447 439 446 446 440 441 444 441 440 448 444 445 453 451 449 448 453 451 453 455 453 451 455 464 456 458 463 458 455 456 461 460 465 458 467 464 458 459 458 460 455 454 463 454 448 442 444 433 438 440 434 432 439 419 424 420 441 424 427 424 429 430 437 440 425 431 432 430 425 438 417 436 427 437 428 440 417 415 431 424 420 444 425 451 436 407 413 417 472 408 0
250 280 244 219 228 225 232 229 256 316 323 322 327 333 342 316 343 326 349 342 342 354 364 366 372 391 388 398 410 415 414 421 426 423 429 430 435 427 431 430 426 432 431 434 434 434 434 439 436 439 444 436 437 439 439 445 442 440 439 441 443 438 445 443 437 437 447 434 438 435 432 434 423 430 418 416 407 411 402 393 393 385 391 378 380 395 387 394 399 395 392 386 405 395 389 393 384 391 394 403 400 379 402 400 388 402 376 386 384 396 382 394 374 362 389 363 368 399 402 386
290 299 289 234 234 237 233 246 274 286 308 315 315 308 312 306 297 301 306 318 324 324 334 340 359 359 382 385 389 391 403 406 407 412 407 405 409 406 410 416 414 410 409 412 415 416 409 419 423 415 420 418 420 424 421 424 421 422 416 425 422 421 413 418 412 415 416 423 415 412 405 407 406 400 397 387 384 363 360 360 355 368 358 375 365 348 360 349 358 361 354 354 358 360 354 363 350 365 350 368 355 350 355 363 357 345 338 346 351 350 356 373 356 356 364 349 354 324 337 328
275 268 253 258 264 251 262 265 274 284 278 268 291 288 280 295 279 293 289 297 297 309 314 310 335 356 353 368 364 370 387 392 391 395 389 384 390 399 398 397 400 389 399 391 390 399 396 390 391 385 391 403 403 395 398 392 393 403 402 395 395 394 395 398 391 388 401 405 390 396 391 392 388 377 376 363 355 349 343 332 330 326 340 338 340 335 328 341 335 335 327 332 327 328 347 335 330 330 320 336 343 317 334 337 334 327 343 348 326 333 329 341 351 326 343 354 301 304 318 326
251 240 250 248 245 238 255 247 260 253 253 243 257 254 241 259 258 255 267 272 268 275 289 289 303 309 328 337 342 354 358 360 365 359 362 362 367 367 366 370 367 371 366 368 369 374 365 363 368 373 377 375 365 371 386 367 375 373 378 378 378 377 375 370 373 372 370 380 373 371 360 367 359 354 350 332 329 320 309 308 309 297 300 300 306 303 298 301 295 289 306 297 309 305 297 297 292 293 297 300 305 299 290 315 305 291 304 289 310 308 303 307 312 303 295 281 274 327 287 292
238 225 234 236 235 237 249 243 238 246 246 243 239 245 248 242 236 244 250 247 257 270 268 281 296 292 311 321 330 325 333 336 343 337 343 344 345 343 342 347 357 351 353 347 348 343 350 351 348 345 341 348 349 346 351 355 346 353 355 352 353 345 350 340 348 349 344 345 349 338 345 341 343 344 330 315 307 297 292 287 284 279 285 279 283 271 276 281 283 273 277 282 276 279 279 271 269 283 281 280 285 285 282 276 276 289 281 275 273 283 276 294 282 271 282 287 290 271 285 268
215 218 230 227 226 217 224 217 228 233 229 235 225 234 224 217 233 231 234 241 243 240 258 268 271 285 295 296 298 307 311 317 319 318 321 322 322 324 324 324 321 321 322 322 326 325 328 332 318 328 324 324 328 330 330 327 332 325 332 328 329 329 323 329 326 335 328 324 324 323 329 324 319 310 298 298 286 272 277 268 267 267 264 262 261 267 262 255 257 261 254 253 269 260 256 257 266 253 261 258 258 257 264 267 248 260 252 263 262 270 267 261 264 260 267 264 258 257 283 300
213 204 203 220 219 207 216 216 208 217 207 215 212 214 218 214 212 217 217 218 230 232 240 249 254 265 270 271 282 283 285 294 291 288 292 300 293 300 302 298 300 306 295 304 304 301 307 303 308 307 308 297 298 297 293 304 304 304 303 305 308 305 306 304 304 302 301 305 303 304 298 301 297 288 286 272 271 265 258 256 251 246 250 249 243 249 242 240 246 243 242 246 246 241 246 231 235 235 243 238 239 248 240 247 245 240 236 237 246 242 241 258 258 247 240 246 256 262 233 240
197 198 201 211 198 201 200 213 207 202 204 183 203 187 208 190 212 205 212 214 215 226 237 230 236 248 254 264 268 273 271 269 276 271 278 276 281 281 282 282 280 280 287 289 282 277 281 285 285 283 280 282 277 283 272 285 292 287 290 288 285 288 291 289 287 287 283 286 286 288 284 281 278 269 271 261 258 248 244 237 237 236 230 229 226 232 227 223 228 228 232 233 231 230 229 219 229 217 225 227 228 232 226 229 224 225 224 230 237 231 235 237 247 233 260 242 251 242 252 227
174 177 173 190 196 185 188 202 178 184 183 181 185 186 179 183 181 186 186 192 207 215 217 226 223 230 237 243 244 247 251 255 256 256 259 255 259 258 260 267 261 262 269 265 263 265 265 272 263 267 266 263 267 266 266 266 263 267 263 274 268 268 265 270 268 270 270 267 267 267 266 258 257 252 250 243 240 232 226 216 218 217 214 216 215 218 217 211 212 223 216 212 218 210 215 213 213 208 206 220 217 217 212 212 209 213 212 212 218 220 215 222 223 222 214 216 219 205 210 219
176 175 170 175 178 178 178 181 179 176 182 179 183 180 177 184 183 181 186 185 187 193 190 209 213 216 218 228 228 228 232 243 239 244 240 239 238 243 243 248 240 245 246 251 255 253 249 248 245 249 245 253 249 253 239 245 247 248 248 252 249 241 251 246 241 249 251 247 243 247 247 241 241 239 237 224 218 218 198 213 195 193 188 187 193 186 188 191 196 188 188 192 187 183 184 187 184 183 184 189 190 210 204 185 192 191 189 203 202 199 202 202 212 201 203 193 202 201 179 177
165 170 176 175 178 172 170 174 171 174 178 175 180 174 174 178 176 180 185 184 185 184 180 191 208 192 196 216 214 221 225 225 230 224 228 228 229 230 229 229 227 230 233 228 235 234 230 230 234 234 236 232 233 229 238 232 237 235 236 237 234 238 238 234 234 234 236 228 233 229 234 231 227 223 221 216 197 198 189 187 195 187 193 193 190 194 185 194 191 189 191 189 184 189 191 183 179 183 184 178 187 181 177 187 188 183 178 177 178 178 197 198 199 203 195 209 205 200 191 202
166 161 171 168 171 163 166 166 166 163 165 166 164 161 169 169 170 176 174 180 172 182 188 181 186 192 186 185 189 189 210 200 209 216 210 214 211 198 199 197 211 220 218 217 222 222 220 217 219 222 216 218 218 221 218 220 220 221 219 220 220 220 222 217 217 215 215 217 223 224 222 216 216 210 189 195 197 194 192 186 183 183 187 183 188 179 180 182 182 182 182 182 181 176 180 185 173 180 181 178 184 181 182 184 179 180 180 177 174 174 179 178 176 169 173 178 169 176 177 197
149 153 157 161 159 161 161 160 161 163 156 161 161 160 160 157 163 171 165 172 173 176 179 185 182 186 185 186 192 193 193 186 182 184 187 194 196 187 185 189 192 191 194 192 199 196 195 194 192 197 196 191 198 197 196 193 193 194 195 194 199 197 194 194 195 196 195 196 195 197 199 195 195 195 195 193 193 190 184 181 176 177 174 176 176 173 174 176 177 173 176 178 170 173 176 172 170 170 165 175 171 172 170 163 171 170 170 167 168 178 169 174 172 176 169 175 164 164 169 172
144 151 150 151 154 154 156 160 158 155 158 158 155 152 156 158 158 162 160 165 164 172 176 174 181 181 179 181 185 186 186 191 189 190 189 185 192 193 191 193 194 191 191 197 193 194 194 197 193 190 192 187 192 196 198 196 198 197 196 199 199 196 190 187 194 194 197 197 197 194 198 192 189 192 191 185 188 184 179 174 169 172 166 163 168 165 169 166 171 165 169 170 173 166 167 166 165 163 164 166 167 168 171 166 167 160 163 162 162 173 163 164 171 166 178 167 164 171 180 175
145 139 147 146 148 149 148 153 151 151 151 156 145 154 150 145 153 148 157 158 164 166 164 176 172 172 174 173 177 177 177 178 181 182 178 183 184 180 183 183 185 184 188 185 184 186 185 183 189 186 184 187 186 187 189 186 186 189 0 187 187 186 183 187 188 191 189 188 185 185 184 185 181 178 174 175 174 172 170 166 161 158 158 158 162 160 166 159 163 166 156 163 159 162 162 158 157 158 163 164 158 163 160 157 155 158 153 162 161 157 160 162 159 167 156 168 162 162 165 152
136 135 142 142 141 144 149 149 144 146 145 145 139 147 143 146 145 147 148 153 158 158 162 163 168 164 168 167 169 172 172 173 176 176 173 175 176 177 174 176 176 181 176 174 176 178 176 182 179 177 179 176 180 181 181 179 181 0 0 181 181 176 179 184 180 175 178 178 181 175 177 178 175 175 171 171 166 164 163 158 160 155 154 156 161 156 155 155 149 155 150 154 161 152 155 150 155 154 156 159 157 152 154 157 151 152 145 155 157 152 154 152 155 158 151 159 154 155 167 169
137 138 132 139 141 141 150 143 140 140 138 143 144 143 141 140 142 145 145 145 151 153 155 160 159 161 163 164 163 163 163 165 167 167 163 165 165 170 168 167 172 0 173 168 174 172 170 174 172 169 173 173 173 175 173 0 175 173 0 0 173 0 175 176 170 172 175 168 173 166 168 166 168 168 166 163 165 159 156 153 152 155 148 149 152 153 150 149 149 157 143 153 152 146 150 149 150 149 154 147 147 147 148 150 146 142 142 141 149 145 149 139 150 155 163 144 147 152 152 164
130 121 126 116 135 135 142 135 131 130 134 133 126 134 138 132 136 139 137 143 140 142 146 154 146 158 157 158 157 161 156 156 156 161 157 157 164 161 0 0 0 0 0 0 0 0 0 166 166 166 166 163 167 166 0 0 167 168 168 0 0 0 0 0 164 167 167 0 159 165 163 165 159 160 155 158 151 156 148 148 148 145 147 147 143 149 144 146 147 145 142 146 141 147 144 138 141 149 141 144 138 137 140 139 136 133 136 138 139 142 137 145 146 150 140 148 142 137 150 147
124 118 122 124 127 134 136 132 134 131 132 135 125 125 124 128 122 136 133 135 142 140 147 148 147 149 151 153 152 155 153 154 157 157 153 156 154 0 0 0 0 0 0 0 0 0 0 0 0 160 161 162 0 0 0 0 0 0 0 0 0 0 0 0 161 158 0 0 0 0 0 155 159 157 151 152 150 152 148 141 140 139 146 141 142 138 142 138 145 140 139 140 139 139 138 137 144 141 135 138 137 135 136 134 128 136 137 135 140 142 131 143 142 132 134 132 144 130 145 167
114 104 118 121 126 124 127 129 126 126 128 121 120 118 118 122 124 124 119 133 128 127 132 142 140 140 142 143 143 147 150 147 154 149 150 147 0 0 0 0 0 0 0 0 0 0 0 0 149 153 156 0 0 0 0 0 0 0 0 0 0 0 0 0 0 0 0 0 0 0 0 0 148 150 149 147 144 140 139 141 130 139 125 138 128 124 136 138 126 137 137 137 130 128 117 127 136 136 134 134 127 136 134 123 124 134 133 120 133 138 134 135 119 141 139 132 137 113 110 118
106 112 111 112 106 113 120 120 116 122 118 114 116 112 127 120 120 130 118 117 131 124 126 123 135 138 139 140 143 143 142 142 146 146 146 143 0 0 0 0 0 0 0 0 0 0 0 0 0 0 0 0 0 0 0 0 0 0 0 0 0 0 0 0 0 0 0 0 0 0 0 0 143 140 139 141 139 130 130 131 126 119 122 120 124 118 126 124 121 128 120 123 118 127 124 128 125 131 121 118 117 120 133 118 120 118 118 119 128 129 125 136 124 130 122 127 118 109 118 131
110 107 114 115 113 112 117 125 118 118 111 116 113 115 119 121 121 127 123 116 116 114 123 117 131 128 136 136 0 134 0 0 0 138 140 0 0 0 0 0 0 0 0 0 0 0 0 0 0 0 0 0 0 0 0 0 0 0 0 0 0 0 0 0 0 0 0 0 0 0 0 0 0 143 123 121 126 124 118 126 120 117 123 127 117 122 114 119 121 118 123 126 120 117 110 121 119 117 118 119 119 126 130 122 119 118 127 123 108 132 129 110 131 121 129 117 109 129 143 142
105 101 109 111 104 99 105 108 103 103 111 105 103 105 107 110 108 111 116 110 115 115 110 116 122 121 124 124 119 126 129 0 0 0 125 0 0 0 0 0 0 0 0 0 0 0 0 0 0 0 0 0 0 0 0 0 0 0 0 0 0 0 0 0 0 0 0 0 0 0 0 0 131 0 0 127 118 118 118 116 114 115 109 112 116 117 112 111 108 112 114 118 112 110 109 105 110 112 114 109 113 109 112 113 110 111 112 110 121 102 109 107 103 123 116 106 106 126 118 150
100 99 93 97 102 102 102 101 104 104 104 105 104 105 107 103 105 107 113 106 110 114 105 108 114 108 116 119 120 122 0 125 0 0 0 0 0 0 0 0 0 0 0 0 0 0 0 0 0 0 0 0 0 0 0 0 0 0 0 0 0 0 0 0 0 0 0 0 0 0 0 0 0 122 0 114 122 117 114 112 110 112 108 102 111 109 107 118 103 110 115 112 109 110 104 116 107 107 97 118 114 105 112 101 106 116 110 112 120 106 103 106 119 104 106 139 128 106 123 138
96 103 100 104 100 98 103 93 92 98 96 95 102 94 96 96 103 103 114 114 112 108 96 111 112 106 112 116 111 118 118 119 120 0 0 0 0 0 0 0 0 0 0 0 0 0 0 0 0 0 0 0 0 0 0 0 0 0 0 0 0 0 0 0 0 0 0 0 0 0 0 0 121 121 111 122 114 117 118 116 108 112 101 118 109 103 102 102 102 105 104 106 108 93 98 99 108 103 108 106 106 111 103 107 110 110 111 95 101 103 102 99 104 94 121 105 137 130 106 87
87 85 82 87 84 85 79 92 92 83 93 94 96 94 94 88 78 93 91 88 92 84 100 107 101 103 115 109 0 112 105 107 118 0 113 0 0 0 0 0 0 0 0 0 0 0 0 0 0 0 0 0 0 0 0 0 0 0 0 0 0 0 0 0 0 0 0 0 0 0 0 112 111 106 104 110 107 104 103 98 101 103 96 90 103 95 85 100 105 100 89 96 104 83 88 96 95 102 86 94 90 92 96 91 84 91 93 93 91 89 81 78 92 92 96 84 91 90 114 129
94 85 91 92 95 98 98 106 90 92 94 92 89 90 95 97 100 91 100 95 96 104 106 102 103 104 108 108 0 104 110 108 113 112 119 109 0 0 111 0 0 117 0 0 0 0 0 0 0 0 0 0 0 0 0 0 0 0 0 0 0 0 0 112 110 0 0 0 112 116 109 111 114 113 113 111 110 112 101 96 110 104 106 88 94 104 105 106 101 102 106 105 109 97 99 101 99 96 99 110 104 95 95 102 94 102 97 84 85 86 91 97 94 101 92 98 113 100 135 150
85 90 93 86 94 94 91 91 86 98 86 86 86 92 88 82 92 99 93 91 99 90 99 111 90 101 102 100 102 106 94 0 104 102 98 103 0 114 118 0 108 0 0 0 0 0 0 0 0 0 0 0 0 0 107 0 0 110 0 0 107 104 105 111 114 107 108 100 111 106 107 98 100 102 109 109 100 89 106 96 92 94 98 86 92 91 91 103 106 97 97 102 107 85 95 93 92 89 92 89 86 83 91 94 88 87 98 93 100 85 91 93 80 84 88 89 93 94 81 71
85 86 83 89 90 94 105 87 83 82 90 87 85 92 92 89 89 87 87 87 78 90 94 83 84 92 89 89 107 92 95 97 98 97 95 111 98 102 104 101 101 100 98 111 105 92 0 0 97 0 0 106 103 94 98 110 106 105 106 105 98 106 110 101 101 110 100 95 99 108 99 107 102 99 100 96 96 96 98 90 96 89 92 95 96 90 91 91 93 94 101 85 94 91 87 91 83 93 92 83 88 90 91 89 84 92 96 84 83 92 85 101 101 105 90 79 95 90 135 112
84 80 86 83 86 82 98 102 87 90 87 77 85 86 82 91 90 95 90 96 84 99 94 86 93 94 94 90 98 98 94 84 96 95 94 95 97 100 97 106 100 98 98 105 100 93 103 0 106 102 99 106 98 99 102 102 98 107 96 107 106 93 97 104 104 99 97 102 94 106 97 102 102 94 100 86 94 95 97 84 98 96 96 93 97 97 87 95 93 91 84 97 89 91 92 94 94 96 97 85 93 91 86 91 83 102 91 95 90 89 97 99 105 105 110 107 110 97 87 116
80 74 70 70 78 82 82 88 88 80 87 83 86 77 86 85 88 85 86 86 92 84 93 88 86 85 94 94 94 92 91 93 95 92 96 94 97 96 93 96 92 91 83 91 96 94 90 100 92 87 93 97 85 89 89 88 102 90 97 97 98 97 80 98 96 82 96 93 97 97 94 85 97 93 83 95 94 95 90 92 88 92 82 89 87 91 89 87 86 86 90 83 89 81 86 86 85 78 80 86 79 85 82 72 80 82 86 83 78 89 88 88 92 80 117 86 115 80 127 81
72 72 83 88 72 84 88 87 86 81 82 90 81 81 81 90 87 86 83 89 84 88 87 91 86 86 92 87 93 89 94 97 92 97 89 94 84 94 88 93 95 81 94 90 89 98 91 97 101 91 95 96 96 85 103 97 89 97 92 97 97 98 96 98 90 97 87 88 106 96 97 97 89 85 95 94 95 85 96 93 93 92 88 88 81 87 91 84 95 90 77 88 78 80 93 81 90 87 84 85 89 83 79 81 78 82 87 86 90 96 95 98 84 120 97 118 122 104 140 214
