0 0 0 0 0 0 0 0 0 0 0 0 0 0 0 0 0 0 0 0 0 0 0 0 0 0 0 0 0 0 0 0 0 0 0 0 0 0 0 0 0 0 0 0 0 0 0 0 0 0 0 0 0 0 0 0 0 0 0 0 0 0 0 0 0 0 0 0 0 0 0 0 0 0 0 0 0 0 0 0 0 0 0 0 0 0 0 0 0 0 0 0 0 0 0 0 0 0 0 0 0 0 0 0 0 0 0 0 0 0 0 0 0 0 0 0 0 0 0 0
0 0 0 0 0 0 0 0 0 0 0 0 0 0 0 0 0 0 0 0 0 0 0 0 0 0 0 0 0 0 0 0 0 0 0 0 0 0 0 0 0 0 0 0 0 0 0 0 0 0 0 0 0 0 0 0 0 0 0 0 0 0 0 0 0 0 0 0 0 0 0 0 0 0 0 0 0 0 0 0 0 0 0 0 0 0 0 0 0 0 0 0 0 0 0 0 0 0 0 0 0 0 0 0 0 0 0 0 0 0 0 0 0 0 0 0 0 0 0 0
0 0 0 0 0 0 0 0 0 0 0 0 0 0 0 0 0 0 0 0 0 0 0 0 0 0 0 0 0 0 0 0 0 0 0 0 0 0 0 0 0 0 0 0 0 0 0 0 0 0 0 0 0 0 0 0 0 0 0 0 0 0 0 0 0 0 0 0 0 0 0 0 0 0 0 0 0 0 0 0 0 0 0 0 0 0 0 0 0 0 0 0 0 0 0 0 0 0 0 0 0 0 0 0 0 0 0 0 0 0 0 0 0 0 0 0 0 0 0 0
0 0 0 0 0 0 0 0 0 0 0 0 0 0 0 0 0 0 0 0 0 0 0 0 0 0 0 0 0 0 0 0 0 0 0 0 0 0 0 0 0 0 0 0 0 0 0 0 0 0 0 0 0 0 0 0 0 0 0 0 0 0 0 0 0 0 0 0 0 0 0 0 0 0 0 0 0 0 0 0 0 0 0 0 0 0 0 0 0 0 0 0 0 0 0 0 0 0 0 0 0 0 0 0 0 0 0 0 0 0 0 0 0 0 0 0 0 0 0 0
0 0 0 0 0 0 0 0 0 0 0 0 0 0 0 0 0 0 0 0 0 0 0 0 0 0 0 0 0 0 0 0 0 0 0 0 0 0 0 0 0 0 0 0 0 0 0 0 0 0 0 0 0 0 0 0 0 0 0 0 0 0 0 0 0 0 0 0 0 0 0 0 0 0 0 0 0 0 0 0 0 0 0 0 0 0 0 0 0 0 0 0 0 0 0 0 0 0 0 0 0 0 0 0 0 0 0 0 0 0 0 0 0 0 0 0 0 0 0 0
0 0 0 0 0 0 0 0 0 0 0 0 0 0 0 0 0 0 0 0 0 0 0 0 0 0 0 0 0 0 0 0 0 0 0 0 0 0 0 517 504 515 490 519 534 503 507 520 526 511 528 500 502 505 483 0 0 0 0 0 0 0 0 0 0 0 0 0 0 0 0 0 0 0 0 0 0 0 0 0 0 0 0 0 0 0 0 0 0 0 0 0 0 0 0 0 0 0 0 0 0 0 0 0 0 0 0 0 0 0 0 0 0 0 0 0 0 0 0 0
0 0 0 0 0 0 0 0 0 0 0 0 0 0 0 0 0 0 0 0 0 0 0 0 0 0 0 0 0 0 0 0 0 0 0 0 0 559 521 517 506 501 517 520 515 514 514 533 518 528 507 517 521 511 534 515 542 541 530 519 0 0 0 0 0 0 0 0 0 0 0 0 0 0 0 0 0 0 0 0 0 0 0 0 0 0 0 0 0 0 0 0 0 0 0 0 0 0 0 0 0 0 0 0 0 0 0 0 0 0 0 0 0 0 0 0 0 0 0 0
0 0 0 0 0 0 0 0 0 0 0 0 0 0 0 0 0 0 0 0 0 0 0 0 0 0 0 0 0 0 0 0 0 0 0 485 497 489 503 499 494 497 488 510 495 506 496 502 503 505 505 505 504 518 516 510 502 504 490 501 503 517 511 531 517 0 0 0 0 0 0 0 0 0 0 0 0 0 0 0 0 0 0 0 0 0 0 0 0 0 0 0 0 0 0 0 0 0 0 0 0 0 0 0 0 0 0 0 0 0 0 0 0 0 0 0 0 0 0 0
0 0 0 0 0 0 0 0 0 0 0 0 0 0 0 0 0 0 0 0 0 0 0 0 0 0 0 0 0 0 0 0 0 499 497 513 500 492 504 501 507 499 496 504 508 502 494 497 502 515 500 499 508 505 515 505 507 503 510 502 505 505 502 504 523 496 507 516 540 572 517 517 530 545 559 541 551 568 562 557 0 0 0 0 0 0 0 0 0 0 0 0 0 0 0 0 0 0 0 0 0 0 0 0 0 0 0 0 0 0 0 0 0 0 0 0 0 0 0 0
0 0 0 0 0 0 0 0 0 0 0 0 0 0 0 0 0 0 0 0 0 0 0 0 0 0 0 0 0 0 0 505 507 500 505 503 488 494 502 499 504 502 500 509 500 500 516 504 509 509 503 507 503 499 500 503 514 503 497 518 512 514 508 514 499 509 526 520 525 510 568 584 564 612 538 616 583 581 587 579 550 561 572 539 0 581 536 595 552 626 586 521 576 588 586 586 603 537 649 552 626 538 542 580 0 0 0 0 0 0 0 0 0 0 0 0 0 0 0 0
0 0 0 0 0 0 0 0 0 0 0 0 0 0 0 0 0 0 0 0 0 0 0 0 0 0 0 0 0 0 502 501 503 494 489 504 493 496 497 509 506 494 495 496 502 501 508 500 504 501 501 504 507 506 510 505 510 507 494 504 509 502 508 506 513 502 501 504 513 518 524 533 526 538 533 544 559 569 532 555 523 537 545 583 536 582 576 536 562 521 536 468 520 558 573 589 568 554 599 512 575 529 553 553 515 545 546 534 0 0 0 0 0 0 0 0 0 0 0 0
0 0 0 0 0 0 0 0 0 0 0 0 0 0 0 0 0 0 0 0 0 0 0 0 0 0 0 0 511 503 509 494 504 507 510 493 506 498 503 491 517 506 494 508 510 508 501 507 508 503 501 503 514 518 502 492 506 510 502 509 515 502 505 511 519 506 504 501 516 506 510 558 571 572 575 586 578 565 577 543 550 555 574 565 598 548 571 576 607 594 575 588 564 626 607 560 602 547 537 572 590 634 545 570 597 569 532 570 584 0 0 0 0 0 0 0 0 0 0 0
0 0 0 0 0 0 0 0 0 0 0 0 0 0 0 0 0 0 0 0 0 0 0 0 0 0 0 499 506 505 501 484 500 509 498 499 509 507 511 503 511 505 499 507 506 509 512 510 504 507 510 510 517 506 507 508 498 508 509 518 518 511 512 509 516 512 511 504 500 515 517 505 562 562 562 564 557 613 559 551 549 574 564 614 568 605 555 596 575 554 608 533 567 564 572 554 611 550 561 547 621 581 546 565 551 582 597 596 0 0 0 0 0 0 0 0 0 0 0 0
0 0 0 0 0 0 0 0 0 0 0 0 0 0 0 0 0 0 0 0 0 0 0 0 0 0 485 482 488 509 495 485 486 491 495 492 490 487 496 499 494 507 501 495 498 513 503 492 497 492 510 502 511 502 504 497 503 507 513 512 504 503 511 504 512 502 517 507 513 505 518 509 531 547 540 498 546 524 556 530 568 544 524 518 503 549 546 516 536 535 525 536 548 573 529 521 552 534 520 559 528 555 555 524 568 513 536 519 539 0 0 0 0 0 0 0 0 0 0 0
0 0 0 0 0 0 0 0 0 0 0 0 0 0 0 0 0 0 0 0 0 0 0 0 0 523 503 494 509 494 504 495 502 497 488 495 501 504 504 504 498 503 502 507 514 509 502 509 503 508 503 508 495 505 508 510 510 505 509 503 510 507 509 516 503 508 508 506 523 517 510 505 491 553 548 551 558 538 547 580 558 536 555 562 571 532 583 548 593 546 600 595 569 581 606 584 553 592 581 557 575 539 578 563 571 621 562 554 591 547 533 0 0 0 0 0 0 0 0 0
0 0 0 0 0 0 0 0 0 0 0 0 0 0 0 0 0 0 0 0 0 0 0 0 0 474 495 484 495 490 489 492 496 493 486 492 501 488 500 492 504 495 506 498 496 497 504 502 496 501 506 498 507 502 497 501 512 495 502 503 506 501 502 504 509 503 512 503 505 508 516 508 497 512 523 534 528 539 540 511 521 564 535 531 501 506 515 520 531 536 551 536 516 534 516 516 520 509 511 543 532 498 502 499 515 531 518 517 512 465 549 0 474 559 0 0 0 0 0 0
0 0 0 0 0 0 0 0 0 0 0 0 0 0 0 0 0 0 0 0 0 0 0 0 467 490 493 492 494 497 496 490 487 491 487 499 494 492 496 501 499 505 492 499 503 501 494 502 496 504 492 506 498 508 506 502 501 501 499 506 504 493 497 502 506 511 504 507 502 511 504 512 503 505 509 542 502 512 553 524 536 519 560 551 513 524 520 535 551 516 511 520 537 531 538 499 525 515 544 532 544 534 546 553 516 551 524 517 551 535 460 0 0 0 0 0 0 0 0 0
0 0 0 0 0 0 0 0 0 0 0 0 0 0 0 0 0 0 0 0 0 0 0 0 489 494 485 495 502 491 497 490 484 494 498 490 501 500 489 499 500 492 496 504 487 503 502 506 511 507 500 500 507 505 499 499 509 504 505 505 502 511 506 505 500 501 503 507 513 507 504 514 502 511 505 522 540 525 516 531 499 537 528 538 546 526 533 505 526 549 513 535 537 552 524 516 553 535 513 522 525 534 548 514 559 537 575 579 522 535 0 0 0 0 0 0 0 0 0 0
0 0 0 0 0 0 0 0 0 0 0 0 0 0 0 0 0 0 0 0 0 0 0 464 493 487 483 490 477 488 488 489 496 498 493 491 496 492 492 493 497 495 495 498 499 497 499 509 501 500 511 498 496 499 501 496 507 505 500 506 508 494 500 504 500 504 509 505 511 502 515 506 501 500 505 502 512 533 521 510 509 536 526 523 523 537 529 518 497 528 521 539 537 535 524 525 506 516 529 505 539 484 474 507 499 533 537 529 549 511 499 0 0 0 0 0 0 0 0 0
0 0 0 0 0 0 0 0 0 0 0 0 0 0 0 0 0 0 0 0 0 0 0 512 497 496 494 497 490 499 496 487 494 490 495 490 494 490 496 494 482 497 500 500 499 502 501 507 492 495 500 505 508 500 500 505 506 506 507 502 508 503 504 506 505 506 500 505 501 515 504 511 508 514 506 512 541 547 537 559 538 548 548 536 533 544 533 524 518 536 547 549 528 552 546 551 528 544 552 548 537 528 565 550 563 555 556 533 527 539 506 0 0 0 0 0 0 0 0 0
0 0 0 0 0 0 0 0 0 0 0 0 0 0 0 0 0 0 0 0 0 0 497 486 494 495 496 488 497 491 496 496 502 500 483 492 500 498 490 494 494 502 509 500 498 496 506 512 502 515 504 499 506 497 509 499 506 505 500 506 506 506 507 512 510 508 502 502 505 502 516 509 519 506 501 511 525 535 527 551 536 533 533 547 570 556 565 588 549 574 547 561 547 551 570 552 558 521 527 537 557 592 552 564 575 527 555 524 555 595 585 557 585 0 0 0 0 0 0 0
0 0 0 0 0 0 0 0 0 0 0 0 0 0 0 0 0 0 0 0 0 0 484 508 490 483 489 498 491 499 487 486 489 492 499 496 488 491 493 487 495 493 499 501 494 503 501 503 503 499 504 503 500 505 506 506 501 506 503 503 504 501 508 512 507 512 508 514 515 494 510 506 509 513 506 509 514 547 523 507 556 552 514 524 525 525 528 527 522 528 522 516 515 509 505 540 506 513 534 529 523 525 511 522 518 517 501 522 513 508 531 459 0 0 0 0 0 0 0 0
0 0 0 0 0 0 0 0 0 0 0 0 0 0 0 0 0 0 0 0 0 0 490 491 496 491 491 492 491 500 492 493 493 497 492 494 486 497 492 494 498 498 504 502 498 498 501 504 500 504 495 505 503 495 497 500 503 515 507 509 506 502 509 505 496 504 505 512 509 503 508 506 507 499 516 511 519 554 518 552 527 520 536 539 551 556 564 531 552 563 571 506 531 561 549 541 531 568 550 518 563 547 524 549 536 570 554 538 528 556 536 585 558 586 0 0 0 0 0 0
0 0 0 0 0 0 0 0 0 0 0 0 0 0 0 0 0 0 0 0 0 0 485 490 490 486 489 491 494 490 488 492 493 484 494 488 491 487 490 494 496 495 490 492 497 497 495 498 499 498 497 504 502 504 496 504 501 502 499 499 508 508 499 506 499 499 500 506 504 502 508 497 500 512 499 503 505 527 550 552 531 516 533 530 523 524 526 505 535 527 506 515 504 546 522 531 521 526 563 514 517 569 520 507 491 542 532 492 489 489 522 526 559 528 0 0 0 0 0 0
0 0 0 0 0 0 0 0 0 0 0 0 0 0 0 0 0 0 0 0 0 0 471 482 475 496 489 489 491 489 491 485 489 485 486 489 486 490 492 490 490 487 498 498 502 501 495 494 506 500 496 493 499 497 494 501 505 502 505 499 503 507 506 502 501 505 503 502 498 500 501 504 511 504 506 495 510 508 514 503 506 527 510 503 526 500 524 507 518 514 480 522 550 535 518 488 502 499 502 506 522 482 482 517 501 505 543 498 501 528 510 516 491 0 0 0 0 0 0 0
0 0 0 0 0 0 0 0 0 0 0 0 0 0 0 0 0 0 0 0 0 0 486 477 489 488 486 491 488 495 491 489 489 490 501 484 485 487 498 496 491 495 493 499 490 493 491 495 493 502 496 498 504 501 494 506 505 499 500 498 501 503 504 503 511 506 501 499 500 502 501 502 506 506 504 506 506 517 526 518 519 531 521 532 543 528 525 537 542 522 527 503 509 523 547 506 537 532 519 507 548 556 519 542 542 518 494 548 533 526 573 549 523 0 0 0 0 0 0 0
0 0 0 0 0 0 0 0 0 0 0 0 0 0 0 0 0 0 0 0 0 457 476 492 490 483 483 496 484 488 489 489 484 494 483 486 489 488 494 492 489 491 494 496 490 497 496 498 490 500 498 494 496 497 499 499 500 503 508 498 501 499 504 503 498 498 502 500 504 499 501 501 504 503 505 502 497 501 498 511 495 495 499 501 492 500 495 489 504 516 484 508 505 491 475 487 478 477 489 502 529 529 507 480 484 518 492 477 500 469 479 0 0 0 0 0 0 0 0 0
0 0 0 0 0 0 0 0 0 0 0 0 0 0 0 0 0 0 0 0 0 504 486 488 485 482 493 479 481 483 484 485 490 485 491 486 486 490 493 489 498 498 490 492 494 493 495 498 502 496 501 498 501 501 501 499 502 498 510 499 499 499 499 498 502 504 506 503 510 506 499 500 500 502 509 515 509 507 515 526 515 509 519 515 502 534 514 550 526 526 525 494 528 490 520 498 523 511 511 515 524 514 522 535 541 508 518 504 509 540 546 507 0 0 0 0 0 0 0 0
0 0 0 0 0 0 0 0 0 0 0 0 0 0 0 0 0 0 0 0 0 466 476 491 492 487 488 490 487 483 493 490 490 494 481 487 487 491 495 503 495 495 494 498 494 501 498 490 494 496 495 501 494 502 500 508 501 498 502 500 509 502 500 502 505 503 512 509 507 499 504 497 500 506 511 498 507 525 522 529 537 519 530 519 527 514 516 533 527 524 525 509 527 521 498 526 519 562 521 532 533 513 556 492 502 531 514 564 547 491 532 594 499 0 0 0 0 0 0 0
0 0 0 0 0 0 0 0 0 0 0 0 0 0 0 0 0 0 0 0 0 473 477 478 479 481 484 485 488 488 489 488 493 486 489 484 484 484 489 492 501 488 487 493 493 491 496 497 493 491 494 499 496 500 503 497 503 499 503 498 492 499 501 501 501 497 505 508 496 508 500 501 511 505 504 502 496 507 510 504 509 493 511 494 484 507 511 510 508 504 512 506 484 512 493 505 485 481 515 501 491 521 495 532 537 542 502 489 458 502 477 475 521 0 0 0 0 0 0 0
0 0 0 0 0 0 0 0 0 0 0 0 0 0 0 0 0 0 0 0 0 488 484 482 487 485 484 479 482 481 490 488 495 490 488 486 486 491 489 489 497 495 489 496 495 490 493 499 497 497 497 500 498 497 497 499 501 501 500 500 504 506 504 498 501 504 515 503 498 502 496 507 498 509 503 509 498 513 521 525 527 526 534 517 535 534 519 546 555 534 502 551 514 528 522 521 527 540 514 519 549 542 543 521 520 541 564 531 527 560 552 531 547 0 0 0 0 0 0 0
0 0 0 0 0 0 0 0 0 0 0 0 0 0 0 0 0 0 0 0 0 475 474 481 476 481 477 482 483 479 481 484 488 482 494 488 489 492 491 487 488 492 494 495 493 494 493 494 497 494 493 500 491 497 493 496 495 496 495 498 499 497 497 503 498 509 501 506 500 498 501 500 504 506 510 505 504 502 515 504 522 504 502 508 507 507 502 513 524 497 514 523 507 500 510 531 479 498 506 507 507 505 502 487 521 528 513 488 505 494 516 517 497 0 0 0 0 0 0 0
0 0 0 0 0 0 0 0 0 0 0 0 0 0 0 0 0 0 0 0 0 430 478 474 475 484 476 486 479 478 481 484 484 481 487 484 490 491 485 489 490 484 489 487 494 493 492 499 491 496 500 493 497 500 493 497 495 495 498 497 494 496 496 499 499 502 499 496 496 504 500 498 505 502 498 500 501 491 490 479 502 490 482 484 483 493 499 495 489 479 496 488 494 481 500 491 490 502 519 490 476 499 475 467 487 461 478 502 485 465 491 472 485 455 0 0 0 0 0 0
0 0 0 0 0 0 0 0 0 0 0 0 0 0 0 0 0 0 0 0 0 453 484 478 475 484 479 481 481 478 484 485 487 483 486 485 482 483 491 495 491 486 487 494 496 491 494 497 491 491 492 492 498 495 496 501 497 497 499 497 494 496 499 505 496 498 499 500 500 497 503 494 496 499 493 504 503 499 501 494 521 509 513 496 495 513 505 502 521 505 514 501 522 526 510 512 490 495 508 519 519 467 509 485 481 497 530 494 493 506 516 480 554 0 0 0 0 0 0 0
0 0 0 0 0 0 0 0 0 0 0 0 0 0 0 0 0 0 0 0 0 441 477 476 469 479 478 481 479 489 481 480 484 484 484 484 484 486 489 487 489 480 490 489 490 495 487 493 491 490 494 492 492 491 494 491 499 493 496 493 498 501 502 495 501 499 499 496 499 497 495 501 492 494 494 496 496 496 480 490 490 488 500 494 488 491 495 474 479 478 498 471 474 476 485 470 464 481 500 506 463 494 463 461 469 490 468 462 448 482 449 465 456 461 0 0 0 0 0 0
0 0 0 0 0 0 0 0 0 0 0 0 0 0 0 0 0 0 0 0 0 450 476 473 474 477 481 481 482 483 483 479 482 477 486 480 489 487 485 488 486 489 486 489 490 487 487 486 491 492 494 493 495 494 498 495 498 499 497 495 496 501 495 497 495 504 501 507 502 499 499 495 495 501 498 494 508 496 498 514 500 514 526 508 496 506 501 489 500 529 529 494 520 521 510 551 522 485 535 514 482 505 510 510 529 512 485 501 511 514 515 500 546 505 0 0 0 0 0 0
0 0 0 0 0 0 0 0 0 0 0 0 0 0 0 0 0 0 0 0 0 503 478 471 480 473 484 474 478 478 482 483 480 489 486 483 484 482 485 489 483 490 494 486 491 494 490 495 494 496 494 495 497 494 499 493 497 492 492 488 498 498 498 499 502 500 500 501 502 499 498 496 500 495 498 502 495 490 517 516 520 508 494 495 502 495 505 499 521 479 516 521 491 496 506 494 491 515 503 527 520 502 505 528 515 524 489 481 514 538 564 526 524 557 0 0 0 0 0 0
0 0 0 0 0 0 0 0 0 0 0 0 0 0 0 0 0 0 0 0 0 0 474 474 478 479 474 482 474 481 483 479 482 478 487 476 486 491 482 492 484 482 488 488 486 498 491 495 494 495 493 494 493 492 495 495 488 494 494 492 498 495 498 494 501 507 499 500 497 499 494 499 493 497 493 499 496 491 502 501 494 506 491 485 505 505 506 505 492 484 501 478 514 481 522 480 517 498 500 518 502 488 472 505 504 475 479 474 525 478 474 475 478 485 0 0 0 0 0 0
0 0 0 0 0 0 0 0 0 0 0 0 0 0 0 0 0 0 0 0 0 0 508 471 467 475 480 482 482 484 482 477 479 480 479 482 486 491 490 485 485 489 484 487 490 493 489 491 494 496 497 495 496 500 493 495 497 494 494 494 496 498 495 503 498 504 503 505 499 496 502 496 507 498 496 495 498 516 515 512 536 523 522 530 520 519 512 523 530 525 525 521 528 545 549 538 518 535 505 482 499 519 523 508 532 500 519 523 513 520 498 572 521 489 0 0 0 0 0 0
0 0 0 0 0 0 0 0 0 0 0 0 0 0 0 0 0 0 0 0 0 0 520 473 472 475 478 479 482 472 484 476 481 483 483 485 485 484 484 487 486 480 485 489 491 490 488 489 492 491 494 494 492 496 490 495 491 492 495 495 495 491 493 494 491 498 501 495 495 496 496 495 501 498 496 497 493 499 481 496 505 514 495 512 511 510 505 516 502 528 515 519 490 520 517 491 504 501 512 516 494 488 478 470 485 489 483 513 471 486 509 488 489 505 432 496 0 0 0 0
0 0 0 0 0 0 0 0 0 0 0 0 0 0 0 0 0 0 0 0 0 0 599 471 471 478 477 474 472 477 476 482 478 481 479 484 479 483 484 486 485 487 487 489 483 487 488 489 495 489 490 493 497 492 493 498 491 491 491 493 495 493 497 496 499 499 497 498 496 497 495 494 497 492 493 496 497 498 498 497 492 492 493 516 505 502 504 492 517 500 490 498 506 525 496 546 497 510 512 474 497 479 497 502 488 493 461 489 485 494 462 452 450 502 445 0 0 0 0 0
0 0 0 0 0 0 0 0 0 0 0 0 0 0 0 0 0 0 0 0 0 0 832 479 478 471 478 480 470 477 474 481 481 481 480 480 482 480 482 482 490 487 485 485 494 488 493 489 492 490 488 493 499 491 492 496 493 494 498 496 491 493 497 494 495 494 492 496 496 499 496 495 502 496 496 496 487 494 494 502 491 522 489 495 502 502 509 508 510 487 479 511 530 526 502 524 522 526 512 526 513 526 508 504 522 513 519 504 496 467 512 497 494 0 0 0 0 0 0 0
0 0 0 0 0 0 0 0 0 0 0 0 0 0 0 0 0 0 0 0 0 0 0 482 472 476 472 471 477 473 472 475 475 481 478 477 476 478 482 479 482 483 486 485 488 484 492 489 488 490 493 487 491 494 493 489 494 492 494 489 489 494 492 496 489 493 490 490 497 491 495 493 493 493 487 491 497 485 489 486 485 486 494 493 490 490 495 492 493 486 483 494 477 476 483 515 491 475 487 494 530 490 471 476 465 482 446 452 479 452 450 447 422 439 0 0 0 0 0 0
0 0 0 0 0 0 0 0 0 0 0 0 0 0 0 0 0 0 0 0 0 0 0 517 467 473 477 473 477 474 482 478 481 477 478 484 475 485 477 482 491 484 488 485 488 490 489 486 495 487 493 493 490 491 493 489 497 493 492 491 496 494 491 498 493 496 497 495 499 496 501 495 493 500 495 493 502 501 495 501 507 518 515 492 510 507 499 504 512 512 513 510 524 493 491 506 496 495 496 501 511 479 506 489 482 482 501 527 461 474 462 485 493 505 0 0 0 0 0 0
0 0 0 0 0 0 0 0 0 0 0 0 0 0 0 0 0 0 0 0 0 0 0 0 475 463 468 473 469 474 478 475 477 478 483 478 477 479 479 481 476 483 485 488 484 486 489 487 493 492 495 491 490 489 491 488 496 494 490 493 490 493 496 494 498 495 496 497 498 496 494 492 494 494 491 487 503 506 488 499 500 499 501 516 515 494 518 519 515 519 506 501 512 492 529 490 486 538 505 506 499 516 500 530 499 487 489 510 528 453 525 489 503 523 521 489 0 0 0 0
0 0 0 0 0 0 0 0 0 0 0 0 0 0 0 0 0 0 0 0 0 0 0 0 511 471 471 477 471 472 471 469 474 475 479 480 480 476 481 479 484 484 485 483 486 487 491 487 490 491 491 493 491 491 491 488 494 489 495 491 500 493 494 492 495 494 499 495 497 493 500 493 494 491 493 489 490 501 481 507 491 506 490 505 522 516 487 500 511 493 507 496 535 499 540 505 515 502 506 505 503 522 494 489 501 484 471 468 517 472 500 497 467 460 481 0 0 0 0 0
0 0 0 0 0 0 0 0 0 0 0 0 0 0 0 0 0 0 0 0 0 0 0 0 0 478 469 469 471 474 471 476 480 478 482 474 478 479 483 483 480 477 489 482 488 484 489 486 485 491 489 488 487 490 488 494 494 490 489 492 497 493 493 498 496 494 491 497 493 496 495 490 495 497 497 490 489 496 495 494 495 504 499 517 503 505 521 504 512 512 508 515 519 518 518 505 529 507 509 536 506 493 500 505 504 508 491 511 519 521 515 535 484 507 0 0 0 0 0 0
0 0 0 0 0 0 0 0 0 0 0 0 0 0 0 0 0 0 0 0 0 0 0 0 0 556 480 467 472 470 468 473 473 474 475 475 475 474 478 477 478 482 481 484 482 477 482 483 486 489 486 482 490 490 491 487 488 487 492 492 490 490 493 493 492 492 492 486 491 490 494 493 496 490 489 485 493 482 492 488 494 495 488 487 499 491 500 484 504 500 504 481 481 487 520 487 493 478 521 541 502 486 520 484 463 473 474 460 459 494 486 513 448 442 497 0 0 0 0 0
0 0 0 0 0 0 0 0 0 0 0 0 0 0 0 0 0 0 0 0 0 0 0 0 0 0 470 472 459 473 464 471 471 471 477 477 476 479 475 477 471 481 478 478 480 482 481 482 484 484 484 485 489 491 492 485 489 484 487 486 489 484 491 489 491 491 487 488 492 489 495 486 493 484 487 476 468 479 476 479 476 478 484 482 475 479 481 476 489 470 495 475 484 473 482 491 470 467 488 478 473 468 496 445 445 464 500 455 454 441 428 471 408 418 0 0 0 0 0 0
0 0 0 0 0 0 0 0 0 0 0 0 0 0 0 0 0 0 0 0 0 0 0 0 0 0 0 473 464 456 469 471 475 475 470 473 475 477 472 477 477 483 476 479 476 480 485 482 484 484 485 487 485 488 488 482 485 491 486 492 487 487 489 487 488 492 489 487 496 485 488 487 488 485 474 482 495 491 482 493 496 487 476 475 494 481 486 485 496 487 485 496 495 488 488 495 494 467 500 504 497 485 494 464 530 457 493 462 439 449 459 477 457 474 508 0 0 0 0 0
0 0 0 0 0 0 0 0 0 0 0 0 0 0 0 0 0 0 0 0 0 0 0 0 0 0 0 482 469 464 470 471 474 469 476 471 473 473 475 473 475 476 477 480 476 476 480 484 480 480 485 481 484 485 484 485 482 485 481 486 490 485 488 483 487 488 481 489 486 492 486 482 478 476 469 476 460 480 462 483 480 476 487 465 487 473 495 451 484 478 466 479 459 464 453 478 475 487 477 470 487 468 459 448 440 455 466 474 451 436 432 454 441 463 0 0 0 0 0 0
0 0 0 0 0 0 0 0 0 0 0 0 0 0 0 0 0 0 0 0 0 0 0 0 0 0 0 0 535 471 458 465 465 467 469 470 479 469 478 478 477 478 475 479 478 481 479 478 485 480 486 482 484 481 485 480 487 484 489 484 488 488 487 488 487 484 486 481 486 487 484 487 478 491 489 487 479 469 492 477 496 478 490 489 483 481 490 477 496 479 473 487 481 491 494 480 466 491 491 473 480 499 485 473 463 480 454 449 482 468 461 474 466 458 495 472 0 0 0 0
0 0 0 0 0 255 243 252 340 0 0 0 0 0 0 0 0 0 0 0 0 2348 0 0 0 0 0 0 0 533 462 467 474 475 468 471 469 475 472 474 470 480 480 474 479 478 481 482 480 481 480 483 481 484 484 482 485 482 489 485 488 489 487 488 481 491 482 485 484 487 476 495 485 491 474 483 498 494 493 504 495 505 482 501 480 515 502 478 490 493 510 528 528 519 513 516 492 522 513 523 495 525 502 502 465 495 490 482 491 510 457 524 515 512 515 0 0 0 0 0
0 0 0 0 249 228 240 238 231 293 348 0 0 0 0 0 0 0 0 0 0 0 0 0 0 0 0 0 0 0 467 470 461 469 471 476 476 472 473 473 476 481 470 472 477 472 479 475 481 481 481 482 478 482 478 481 482 480 487 483 478 484 486 483 484 484 482 483 483 484 482 471 469 492 473 476 488 476 479 475 482 490 486 485 479 492 488 495 479 476 470 470 476 475 474 479 471 486 476 499 461 489 475 463 471 489 447 457 471 461 453 454 439 431 0 0 0 0 0 0
0 0 0 251 219 226 228 225 239 242 341 0 0 0 0 0 0 0 0 0 0 0 0 0 0 0 0 0 0 0 0 475 454 472 465 471 470 468 470 472 471 470 474 469 473 476 471 476 482 475 477 479 480 476 476 474 485 480 477 481 480 485 481 480 487 476 486 477 475 486 473 477 478 481 486 489 485 488 497 483 484 487 491 487 493 498 478 478 494 490 476 488 516 488 513 507 512 501 491 507 483 511 493 522 465 453 494 496 484 485 472 464 473 496 495 0 0 0 0 0
222 212 242 258 283 273 266 227 233 238 316 0 390 391 433 405 428 410 420 428 457 468 438 433 452 434 444 444 447 459 437 464 464 465 468 461 471 468 466 467 464 470 473 469 476 476 463 472 475 477 476 472 474 479 482 481 475 479 482 479 476 479 476 479 485 480 474 484 478 480 472 471 466 471 471 470 477 476 478 481 469 477 471 477 466 476 473 466 467 466 460 480 470 479 472 467 470 462 471 479 487 467 484 502 447 454 469 447 444 455 442 459 427 485 469 0 0 0 0 0
169 227 177 227 208 243 247 232 223 246 361 363 390 405 387 379 387 358 409 398 398 417 415 400 431 436 423 432 435 446 442 451 458 456 450 460 451 464 458 452 458 460 465 459 462 467 466 470 473 470 471 473 466 464 469 472 471 469 467 468 472 468 472 465 470 469 480 468 473 468 464 459 465 464 462 460 450 452 449 462 464 457 448 458 449 456 448 450 440 439 448 434 435 445 447 456 450 431 440 445 446 451 445 427 439 447 420 437 418 431 435 404 419 402 408 419 429 0 0 0
185 190 207 218 259 228 233 228 230 306 391 365 359 369 343 364 380 369 372 375 380 376 391 389 396 404 405 416 425 433 448 439 439 441 443 443 434 448 448 450 446 446 449 452 454 450 456 456 456 457 454 455 454 454 458 458 452 458 462 461 462 460 456 460 465 456 464 458 458 452 454 455 449 452 445 429 428 426 427 434 428 420 433 420 424 421 430 430 415 429 420 410 424 429 434 420 418 434 414 433 432 419 422 434 427 399 414 408 425 420 423 406 412 426 389 409 412 393 415 0
249 277 235 222 223 226 227 230 258 336 324 314 330 312 336 311 343 328 344 338 348 356 349 367 369 376 388 401 409 418 414 419 418 426 422 431 430 429 428 433 431 431 425 426 434 429 429 437 442 439 441 433 439 438 441 438 446 435 442 438 445 439 444 441 428 436 443 435 437 429 429 430 428 428 416 414 401 392 386 396 395 385 391 397 393 387 393 390 380 383 386 381 381 384 376 403 366 388 390 379 371 393 378 388 392 383 385 371 386 376 379 374 367 369 382 337 332 382 371 364
317 301 281 239 234 233 235 254 295 308 298 319 314 288 310 327 315 307 309 322 321 324 332 343 355 374 390 388 396 396 404 403 411 412 408 413 415 417 405 419 413 420 408 414 412 418 420 424 426 420 418 415 420 419 421 420 426 423 416 421 423 423 420 424 413 420 423 418 416 419 412 412 414 404 397 400 377 373 366 368 372 364 349 361 357 366 371 360 364 355 363 369 373 370 369 366 360 373 361 375 361 348 351 369 374 387 348 385 359 365 353 353 366 385 335 365 377 370 389 376
283 274 268 273 260 254 259 273 272 280 274 281 286 288 281 280 287 293 280 289 298 306 317 314 332 357 363 378 362 374 387 389 388 391 386 385 396 396 392 392 393 392 399 392 395 394 396 390 400 397 393 397 399 410 403 396 401 402 403 404 402 401 404 399 399 388 404 394 397 395 390 397 394 386 375 362 355 349 346 334 342 327 337 330 335 331 339 335 338 335 323 327 335 335 339 341 323 336 333 334 329 332 335 339 352 339 335 347 334 327 328 355 353 325 350 347 348 349 335 340
246 246 247 247 256 253 245 250 259 255 253 260 256 258 245 255 262 260 273 267 269 280 295 300 304 323 339 343 352 357 359 367 365 361 366 370 368 365 366 367 371 367 371 373 370 373 368 373 366 369 380 377 372 380 383 372 376 384 380 376 380 380 376 371 367 376 369 372 372 376 372 366 363 359 344 335 323 318 314 314 307 296 314 304 312 314 309 304 301 307 297 301 309 295 304 295 296 294 299 303 308 302 311 297 308 298 307 296 302 295 302 304 338 305 317 307 291 305 312 323
237 229 231 238 236 241 244 243 247 232 242 248 249 254 247 242 245 246 247 255 260 268 273 288 290 303 316 330 330 331 331 337 354 339 345 340 345 340 348 349 348 346 351 345 345 351 352 350 347 349 351 352 346 352 353 355 350 355 356 349 352 349 354 343 351 350 353 354 352 350 352 352 337 339 332 322 316 297 295 294 282 281 284 282 284 286 278 290 277 278 280 280 285 283 277 278 274 281 286 286 282 279 286 294 280 287 284 289 277 282 281 281 296 295 294 298 325 309 253 325
207 215 226 228 229 225 227 217 215 230 223 231 218 230 225 229 236 237 231 237 242 247 254 254 275 285 292 292 301 297 313 314 319 315 312 321 318 323 330 326 323 320 317 321 327 330 328 330 322 325 327 322 335 329 328 327 329 320 333 320 320 321 327 325 326 326 322 328 326 322 322 321 314 312 308 299 284 273 273 276 271 264 264 267 258 258 260 254 261 249 250 255 255 256 262 256 263 254 261 256 264 267 256 266 264 253 261 259 255 264 269 245 272 268 260 281 238 262 270 281
194 208 206 206 209 207 211 213 208 211 206 213 206 214 221 222 212 219 219 223 225 235 240 249 248 256 269 274 279 277 290 293 289 294 293 296 295 296 306 301 299 297 299 297 303 295 304 303 306 307 308 300 298 304 299 303 304 302 302 298 305 300 304 303 302 307 303 300 301 301 295 298 292 290 287 277 269 262 251 248 241 244 247 249 242 246 248 238 240 244 244 245 241 243 240 235 235 231 241 239 240 250 248 237 235 241 242 236 246 241 245 239 253 250 252 250 250 212 238 253
178 202 203 198 206 205 208 206 198 207 207 198 202 189 207 190 206 209 207 213 216 228 230 237 242 247 253 257 266 264 270 272 273 274 277 283 282 281 284 282 281 283 285 291 281 277 286 283 284 287 283 280 283 284 280 284 285 281 285 290 282 289 284 287 288 288 286 285 286 283 287 286 277 272 267 257 253 247 238 232 233 230 229 231 230 227 227 234 229 230 230 225 230 226 222 231 230 223 218 226 223 234 221 228 227 223 226 226 227 240 230 231 239 239 240 227 235 226 250 257
180 180 193 191 185 182 184 202 181 181 179 186 185 182 184 177 189 186 193 191 211 210 216 227 225 229 231 243 243 248 250 254 257 254 260 258 263 256 268 266 264 260 264 264 263 263 265 268 262 269 265 263 264 265 263 265 261 273 264 270 263 269 263 273 269 269 268 269 263 266 269 257 257 257 253 248 240 234 227 222 215 218 219 217 215 219 217 211 221 216 211 216 217 197 215 213 210 211 209 215 216 207 212 215 208 209 212 215 216 220 214 220 213 222 204 209 227 231 211 233
173 178 170 177 181 179 180 177 178 179 179 183 184 181 184 184 183 186 182 186 180 193 191 210 213 222 227 222 234 232 239 243 243 246 238 244 236 241 250 244 246 246 248 250 253 250 245 251 250 249 247 249 246 248 242 247 253 247 251 250 255 245 253 251 247 254 251 252 245 249 247 248 240 238 240 231 224 222 214 199 201 192 190 192 190 192 194 195 194 189 191 189 191 193 191 194 187 186 188 188 190 205 192 187 184 195 185 203 189 186 206 195 221 201 220 193 227 215 206 226
172 172 175 171 178 174 173 176 180 180 180 176 179 177 181 180 174 183 178 187 190 191 183 193 210 207 212 213 219 220 228 222 229 225 228 227 228 232 229 231 227 232 232 233 239 237 230 233 236 234 232 238 237 233 236 233 235 236 236 240 236 240 238 237 239 234 233 232 230 232 229 236 228 222 220 216 197 194 189 196 195 195 196 191 184 194 196 191 191 190 194 182 190 192 182 191 180 186 181 183 174 190 177 186 182 185 185 177 181 187 182 179 203 209 210 203 208 203 206 203
166 165 170 169 171 169 170 169 167 165 168 168 170 168 168 170 176 171 180 183 181 183 189 182 183 182 188 187 207 194 215 215 193 211 208 216 215 213 216 196 218 220 218 216 217 220 220 218 220 226 216 220 222 223 218 218 222 222 222 222 223 222 222 225 220 219 220 219 221 223 220 217 216 198 193 192 189 195 192 189 189 185 185 183 185 183 188 184 185 182 186 183 182 182 181 187 185 179 185 186 182 183 183 182 173 181 184 183 180 180 177 175 175 178 196 195 178 178 176 216
149 153 163 164 169 167 161 160 164 168 162 162 163 159 164 164 163 172 171 178 173 179 183 184 184 188 184 188 182 187 181 187 184 187 187 190 190 189 191 191 192 192 194 189 197 213 193 195 196 196 196 197 196 199 198 195 192 196 194 191 204 200 202 196 193 196 197 192 195 197 197 199 197 192 188 195 198 191 189 181 179 180 179 175 177 175 179 176 174 178 179 176 174 175 175 172 175 166 171 177 173 174 177 170 174 170 173 170 174 172 176 178 174 180 177 180 168 188 167 202
147 152 152 151 158 153 153 157 162 160 157 157 157 154 158 156 156 163 154 166 167 170 177 174 180 181 177 183 187 183 188 186 190 187 188 189 194 192 194 194 193 191 188 197 192 195 196 197 197 194 194 199 195 197 198 194 196 198 194 201 198 200 198 200 196 195 194 197 197 197 194 196 193 191 190 186 185 182 176 174 172 172 168 168 163 166 169 167 172 164 167 166 167 171 168 164 165 163 166 172 168 171 175 171 168 165 157 163 168 161 168 162 176 165 174 157 166 168 165 175
145 143 145 146 148 150 146 149 150 152 146 152 151 152 153 148 158 147 158 160 163 164 165 173 168 167 174 172 177 179 174 179 182 182 178 183 184 179 183 183 186 183 189 187 187 188 185 187 187 185 183 187 189 188 188 185 189 189 0 189 188 187 184 186 189 186 190 185 185 187 186 184 182 177 177 175 175 174 170 164 160 162 160 160 157 161 164 163 164 161 161 163 162 164 159 164 160 158 161 163 160 162 161 157 156 160 150 158 158 162 156 167 154 155 160 166 155 157 164 158
133 139 140 145 140 150 149 149 141 148 146 148 145 148 148 145 145 147 146 154 156 157 163 164 171 171 168 170 171 172 174 170 177 172 174 175 176 174 173 174 175 180 178 175 175 180 174 178 177 179 179 181 179 178 182 180 181 0 0 181 178 180 180 180 181 177 179 177 177 174 174 176 175 175 173 173 169 165 163 160 164 156 150 156 158 157 159 154 156 158 151 154 158 156 154 156 155 153 158 154 157 153 151 153 153 144 145 149 158 151 154 150 147 148 154 160 149 156 172 162
139 132 130 138 145 141 152 138 146 142 139 143 146 145 143 143 143 147 147 144 147 152 155 155 159 162 162 161 169 163 165 165 167 168 163 166 167 172 167 170 174 0 174 166 174 174 169 170 171 173 173 172 175 172 175 0 176 174 0 174 0 0 176 175 174 172 173 168 170 171 169 166 168 172 163 164 163 160 156 153 151 154 152 151 152 151 151 149 149 158 146 155 149 152 150 145 153 150 156 148 150 148 144 148 149 146 143 150 152 147 145 140 143 146 149 156 141 162 143 156
128 126 129 124 136 135 140 138 135 122 135 135 127 125 138 134 138 137 136 142 140 146 149 155 148 156 159 156 158 159 159 155 160 161 158 153 165 161 0 0 0 0 0 0 0 0 0 166 164 166 167 165 170 165 0 0 170 171 0 0 0 0 0 0 165 166 168 0 161 161 165 163 163 161 157 157 154 155 149 149 152 146 147 149 144 150 142 146 147 143 145 145 144 146 140 139 146 149 142 141 141 139 143 137 138 138 138 137 137 142 143 138 141 153 152 147 139 148 156 135
115 128 127 124 125 132 134 131 135 131 126 135 126 126 133 128 121 137 140 137 140 142 147 143 147 150 154 156 155 153 155 155 156 160 153 154 154 0 0 0 0 0 0 0 0 0 0 0 0 161 163 160 0 0 0 0 0 0 0 0 0 0 0 0 161 162 0 0 0 0 0 156 161 154 153 151 150 154 150 144 141 140 143 143 142 142 139 140 151 143 137 137 141 140 132 139 141 141 138 139 136 139 140 138 134 134 141 136 145 139 133 143 143 144 141 136 138 135 140 161
113 107 121 122 129 125 128 130 130 126 132 123 120 119 119 133 125 133 134 137 126 126 135 144 142 141 145 146 145 150 151 147 152 152 150 150 0 0 0 0 0 0 0 0 0 0 0 0 155 155 158 0 0 0 0 0 0 0 0 0 0 0 0 0 0 0 0 0 0 0 0 0 151 152 150 149 145 142 141 145 131 138 137 138 126 129 137 143 130 131 139 138 128 127 119 137 140 138 137 138 131 137 130 124 133 139 134 132 130 138 133 139 139 140 137 141 133 131 101 121
107 109 123 113 111 113 122 119 113 119 118 114 117 113 128 123 122 129 127 119 130 123 129 122 137 138 141 142 148 146 145 144 145 146 147 143 0 0 0 0 0 0 0 0 0 0 0 0 146 0 0 0 0 0 0 0 0 0 0 0 0 0 0 0 0 0 0 0 0 0 0 0 145 140 142 140 143 140 130 132 137 124 122 121 126 121 134 125 125 136 129 124 118 129 125 127 127 133 121 121 121 132 133 117 121 129 127 119 136 137 128 139 118 129 115 134 115 104 120 148
109 109 115 115 115 116 117 125 118 117 115 116 119 116 118 122 116 130 122 116 120 115 120 120 131 135 138 138 0 137 0 0 0 0 133 0 0 0 0 0 0 0 0 0 0 0 0 0 0 0 0 0 0 0 0 0 0 0 0 0 0 0 0 0 0 0 0 0 0 0 0 0 0 143 125 125 124 124 121 128 121 118 120 124 117 121 117 123 120 117 116 128 118 118 118 125 120 118 123 121 117 125 121 125 122 114 116 119 113 132 128 109 125 117 132 117 109 137 130 134
103 100 107 112 104 104 106 104 101 105 111 107 106 107 106 110 109 111 116 112 113 115 110 117 121 123 125 0 121 128 0 0 0 0 127 0 0 0 0 0 0 0 0 0 0 0 0 0 0 0 0 0 0 0 0 0 0 0 0 0 0 0 0 0 0 0 0 0 0 0 0 0 129 0 0 124 121 118 122 113 117 118 108 113 113 115 110 113 110 113 116 118 109 107 110 107 110 118 110 110 114 110 110 110 109 118 106 124 111 100 106 108 109 118 117 95 104 116 110 139
97 104 92 96 99 102 105 103 104 100 103 101 105 106 107 105 108 108 117 106 110 113 107 107 117 110 115 117 119 122 124 125 0 0 0 0 0 0 0 0 0 0 0 0 0 0 0 0 0 0 0 0 0 0 0 0 0 0 0 0 0 0 0 0 0 0 0 0 0 0 0 0 0 120 0 117 121 116 115 111 112 110 105 104 109 107 110 117 106 111 112 113 111 113 109 115 107 105 102 112 113 105 112 102 112 116 111 107 108 111 105 103 108 95 105 125 116 99 107 118
96 102 101 102 96 98 103 93 94 99 99 98 101 98 103 94 107 105 113 116 114 105 97 109 112 106 113 112 115 124 120 121 121 0 0 0 0 0 0 0 0 0 0 0 0 0 0 0 0 0 0 0 0 0 0 0 0 0 0 0 0 0 0 0 0 0 0 0 0 0 0 0 123 122 0 119 113 118 120 116 105 110 101 116 108 107 103 103 102 104 106 108 113 95 98 101 107 103 111 107 102 111 104 106 109 110 114 94 100 99 103 102 107 94 106 100 139 130 99 119
87 84 82 85 82 84 85 97 93 83 89 92 96 91 91 94 78 94 93 89 94 88 104 108 101 103 115 107 0 0 108 106 118 0 0 0 0 0 0 0 0 0 0 0 0 0 0 0 0 0 0 0 0 0 0 0 0 0 0 0 0 0 0 0 0 0 0 0 0 0 0 117 110 110 108 113 108 107 105 101 101 106 100 95 103 96 91 103 105 100 92 96 105 84 86 97 96 104 89 91 91 94 92 89 84 86 100 93 94 90 85 86 79 95 92 92 94 103 89 142
96 86 91 88 96 97 100 110 93 94 96 92 96 95 94 97 99 91 105 99 97 106 107 102 104 103 110 108 0 105 110 111 115 113 120 107 113 0 0 0 0 116 0 0 0 0 0 0 0 0 0 0 0 0 0 0 0 0 0 0 117 0 0 115 113 0 0 0 112 0 108 111 114 113 114 110 110 112 106 99 110 107 106 92 96 101 105 107 102 104 107 107 109 100 99 104 101 98 101 111 105 96 98 105 93 108 100 89 95 86 93 95 85 98 108 93 83 128 141 116
86 93 91 90 95 98 94 94 87 95 88 90 86 91 93 83 96 100 99 96 99 93 98 111 91 104 107 101 105 108 94 0 106 102 99 104 0 116 115 0 111 0 0 0 0 0 0 0 0 0 0 0 0 0 0 0 0 109 0 0 0 106 105 111 112 111 106 103 115 110 108 101 102 102 113 109 99 92 104 96 96 96 103 85 93 92 95 103 106 92 95 104 110 88 95 84 91 94 94 83 96 87 91 92 89 92 98 93 93 88 96 96 91 99 98 87 131 113 126 127
84 88 83 88 91 94 102 89 91 83 90 89 87 90 88 91 89 88 89 87 81 91 94 88 85 97 95 90 103 91 95 99 100 98 95 112 101 103 103 104 106 101 103 109 107 94 0 0 97 0 0 105 108 95 101 108 108 106 109 107 100 106 109 101 101 111 103 96 103 109 98 108 107 102 106 93 96 96 100 95 96 93 92 98 96 94 88 91 94 93 101 89 95 94 95 92 87 85 93 86 92 88 94 91 92 83 92 94 86 91 90 98 96 109 96 94 119 110 134 160
84 82 87 87 85 82 99 101 87 84 85 85 82 87 86 89 89 97 90 96 88 96 95 95 91 96 92 93 98 101 93 85 97 94 95 96 98 101 95 107 104 95 100 109 102 98 104 0 104 105 99 108 97 99 104 104 103 108 98 108 107 97 96 106 106 104 98 100 97 107 99 108 101 94 105 88 93 99 96 97 99 95 96 93 100 99 88 85 94 87 89 99 89 92 95 94 95 93 99 88 81 99 82 89 87 97 92 90 93 84 93 102 99 101 106 114 122 100 127 86
85 75 70 71 82 85 83 88 86 82 83 83 87 79 87 85 87 90 87 86 93 87 93 91 89 87 90 93 86 91 92 93 80 94 93 94 99 85 92 96 92 91 87 90 95 93 92 103 93 90 90 98 96 89 92 81 102 90 100 96 95 84 81 98 99 82 97 91 95 84 98 84 92 94 84 97 94 93 93 94 88 92 81 90 85 93 90 89 86 88 94 76 88 83 85 88 82 80 80 90 81 84 83 72 85 82 92 84 79 87 73 87 82 86 94 103 107 78 101 76
76 75 81 81 72 87 82 89 84 82 84 90 80 82 85 85 87 89 83 89 83 88 89 92 88 85 92 87 94 90 84 97 93 96 86 94 96 93 96 96 96 83 94 88 88 99 91 97 99 86 95 97 98 87 99 99 87 86 92 94 99 83 95 94 89 86 89 98 102 94 85 98 85 84 94 96 97 85 84 96 92 88 88 90 79 89 87 79 96 90 79 90 81 80 90 82 93 82 80 83 87 81 80 80 76 84 83 85 77 88 89 87 80 107 88 91 115 92 88 170
