0 0 0 0 0 0 0 0 0 0 0 0 0 0 0 0 0 0 0 0 0 0 0 0 0 0 0 0 0 0 0 0 0 0 0 0 0 0 0 0 0 0 0 0 0 0 0 0 0 0 0 0 0 0 0 0 0 0 0 0 0 0 0 0 0 0 0 0 0 0 0 0 0 0 0 0 0 0 0 0 0 0 0 0 0 0 0 0 0 0 0 0 0 0 0 0 0 0 0 0 0 0 0 0 0 0 0 0 0 0 0 0 0 0 0 0 0 0 0 0
0 0 0 0 0 0 0 0 0 0 0 0 0 0 0 0 0 0 0 0 0 0 0 0 0 0 0 0 0 0 0 0 0 0 0 0 0 0 0 0 0 0 0 0 0 0 0 0 0 0 0 0 0 0 0 0 0 0 0 0 0 0 0 0 0 0 0 0 0 0 0 0 0 0 0 0 0 0 0 0 0 0 0 0 0 0 0 0 0 0 0 0 0 0 0 0 0 0 0 0 0 0 0 0 0 0 0 0 0 0 0 0 0 0 0 0 0 0 0 0
0 0 0 0 0 0 0 0 0 0 0 0 0 0 0 0 0 0 0 0 0 0 0 0 0 0 0 0 0 0 0 0 0 0 0 0 0 0 0 0 0 0 0 0 0 0 0 0 0 0 0 0 0 0 0 0 0 0 0 0 0 0 0 0 0 0 0 0 0 0 0 0 0 0 0 0 0 0 0 0 0 0 0 0 0 0 0 0 0 0 0 0 0 0 0 0 0 0 0 0 0 0 0 0 0 0 0 0 0 0 0 0 0 0 0 0 0 0 0 0
0 0 0 0 0 0 0 0 0 0 0 0 0 0 0 0 0 0 0 0 0 0 0 0 0 0 0 0 0 0 0 0 0 0 0 0 0 0 0 0 0 0 0 0 0 0 0 0 0 0 0 0 0 0 0 0 0 0 0 0 0 0 0 0 0 0 0 0 0 0 0 0 0 0 0 0 0 0 0 0 0 0 0 0 0 0 0 0 0 0 0 0 0 0 0 0 0 0 0 0 0 0 0 0 0 0 0 0 0 0 0 0 0 0 0 0 0 0 0 0
0 0 0 0 0 0 0 0 0 0 0 0 0 0 0 0 0 0 0 0 0 0 0 0 0 0 0 0 0 0 0 0 0 0 0 0 0 0 0 0 0 0 0 0 0 0 0 0 0 0 0 0 0 0 0 0 0 0 0 0 0 0 0 0 0 0 0 0 0 0 0 0 0 0 0 0 0 0 0 0 0 0 0 0 0 0 0 0 0 0 0 0 0 0 0 0 0 0 0 0 0 0 0 0 0 0 0 0 0 0 0 0 0 0 0 0 0 0 0 0
0 0 0 0 0 0 0 0 0 0 0 0 0 0 0 0 0 0 0 0 0 0 0 0 0 0 0 0 0 0 0 0 0 0 0 0 0 0 0 549 488 509 500 500 502 505 534 530 519 526 502 498 500 490 530 0 0 0 0 0 0 0 0 0 0 0 0 0 0 0 0 0 0 0 0 0 0 0 0 0 0 0 0 0 0 0 0 0 0 0 0 0 0 0 0 0 0 0 0 0 0 0 0 0 0 0 0 0 0 0 0 0 0 0 0 0 0 0 0 0
0 0 0 0 0 0 0 0 0 0 0 0 0 0 0 0 0 0 0 0 0 0 0 0 0 0 0 0 0 0 0 0 0 0 0 0 0 478 489 497 485 483 489 494 495 503 500 497 488 522 493 506 515 489 511 505 482 480 502 509 0 0 0 0 0 0 0 0 0 0 0 0 0 0 0 0 0 0 0 0 0 0 0 0 0 0 0 0 0 0 0 0 0 0 0 0 0 0 0 0 0 0 0 0 0 0 0 0 0 0 0 0 0 0 0 0 0 0 0 0
0 0 0 0 0 0 0 0 0 0 0 0 0 0 0 0 0 0 0 0 0 0 0 0 0 0 0 0 0 0 0 0 0 0 0 518 521 527 498 502 487 498 493 512 498 495 504 511 498 503 504 510 520 502 513 533 514 511 512 526 512 536 546 567 535 0 0 0 0 0 0 0 0 0 0 0 0 0 0 0 0 0 0 0 0 0 0 0 0 0 0 0 0 0 0 0 0 0 0 0 0 0 0 0 0 0 0 0 0 0 0 0 0 0 0 0 0 0 0 0
0 0 0 0 0 0 0 0 0 0 0 0 0 0 0 0 0 0 0 0 0 0 0 0 0 0 0 0 0 0 0 0 0 464 490 490 493 506 492 504 503 502 494 497 502 494 497 504 507 508 506 497 503 490 504 511 505 491 494 491 500 500 501 512 504 489 474 527 497 502 552 535 552 0 515 561 561 491 0 529 0 0 0 0 0 0 0 0 0 0 0 0 0 0 0 0 0 0 0 0 0 0 0 0 0 0 0 0 0 0 0 0 0 0 0 0 0 0 0 0
0 0 0 0 0 0 0 0 0 0 0 0 0 0 0 0 0 0 0 0 0 0 0 0 0 0 0 0 0 0 0 528 502 504 497 510 482 502 491 491 509 502 502 501 503 509 504 505 517 496 520 502 508 513 509 494 498 521 502 504 517 509 507 519 502 512 507 517 522 484 545 575 596 551 608 604 575 613 568 577 551 571 558 570 607 568 499 622 552 579 586 540 580 588 582 582 534 576 541 528 0 549 586 532 0 0 0 0 0 0 0 0 0 0 0 0 0 0 0 0
0 0 0 0 0 0 0 0 0 0 0 0 0 0 0 0 0 0 0 0 0 0 0 0 0 0 0 0 0 0 555 520 510 501 498 504 505 512 512 516 508 502 522 508 511 513 510 507 503 512 500 515 510 509 506 520 517 515 501 510 507 507 517 507 513 513 514 520 531 538 565 606 621 599 616 605 637 576 591 626 604 607 634 561 617 598 595 622 612 613 638 611 594 587 638 607 622 582 623 609 613 620 632 640 616 623 610 0 632 0 0 0 0 0 0 0 0 0 0 0
0 0 0 0 0 0 0 0 0 0 0 0 0 0 0 0 0 0 0 0 0 0 0 0 0 0 0 0 456 496 505 502 497 500 493 496 505 489 491 498 504 495 498 496 502 508 503 502 499 512 500 510 507 504 506 507 498 514 505 510 503 509 511 503 508 506 510 496 511 514 513 522 569 557 556 548 540 554 562 577 547 520 537 550 602 574 572 552 567 570 574 557 569 537 577 509 580 544 542 530 575 601 594 558 565 576 536 530 538 0 0 0 0 0 0 0 0 0 0 0
0 0 0 0 0 0 0 0 0 0 0 0 0 0 0 0 0 0 0 0 0 0 0 0 0 0 0 504 517 509 504 501 512 495 508 506 513 506 505 498 502 507 502 504 511 514 501 514 502 516 500 506 507 510 512 508 508 511 511 508 510 508 514 515 510 505 513 517 516 514 514 518 579 576 570 581 554 596 571 584 584 590 554 619 553 606 592 561 626 579 600 592 638 590 571 565 573 536 555 582 563 573 624 572 572 598 597 567 595 0 0 0 0 0 0 0 0 0 0 0
0 0 0 0 0 0 0 0 0 0 0 0 0 0 0 0 0 0 0 0 0 0 0 0 0 0 511 503 495 497 509 493 498 493 500 497 490 498 493 494 489 509 496 498 506 509 505 500 497 494 510 499 510 507 511 503 502 514 511 501 505 508 505 507 514 512 518 508 510 502 521 504 517 553 563 559 552 568 513 568 544 539 560 565 556 575 525 557 571 567 532 544 576 566 540 575 580 551 528 554 548 548 587 526 540 537 540 540 570 0 0 0 0 0 0 0 0 0 0 0
0 0 0 0 0 0 0 0 0 0 0 0 0 0 0 0 0 0 0 0 0 0 0 0 0 485 494 482 500 495 491 494 496 494 487 494 502 491 505 493 501 500 500 497 498 500 504 495 504 509 506 498 500 501 505 505 500 492 511 500 503 499 505 506 508 504 496 500 510 505 504 513 501 499 502 533 503 502 538 521 487 530 503 545 496 499 512 504 493 521 515 544 520 515 528 514 534 530 516 517 491 518 489 506 510 513 505 545 504 498 489 0 0 0 0 0 0 0 0 0
0 0 0 0 0 0 0 0 0 0 0 0 0 0 0 0 0 0 0 0 0 0 0 0 0 491 501 487 506 490 496 495 503 508 491 490 498 504 498 504 502 493 500 501 502 501 510 501 497 503 500 502 512 502 504 502 509 505 507 502 511 503 508 509 510 506 514 504 511 513 519 507 508 507 548 546 508 539 550 516 534 571 535 535 519 520 543 529 534 549 553 549 548 535 576 564 575 571 526 545 557 518 528 581 527 530 551 570 504 610 513 501 493 535 0 0 0 0 0 0
0 0 0 0 0 0 0 0 0 0 0 0 0 0 0 0 0 0 0 0 0 0 0 0 450 484 482 492 487 489 495 494 494 488 495 498 492 497 487 488 493 487 486 501 497 495 497 492 496 498 493 500 504 510 497 511 503 501 497 501 502 497 501 507 499 506 507 495 499 512 508 511 504 500 522 500 510 503 510 521 519 520 506 517 521 497 505 512 504 553 504 502 499 476 494 537 490 532 534 513 479 501 492 553 537 527 492 532 543 511 0 0 0 0 0 0 0 0 0 0
0 0 0 0 0 0 0 0 0 0 0 0 0 0 0 0 0 0 0 0 0 0 0 0 500 497 490 497 488 498 495 500 491 485 488 495 496 492 489 500 488 496 498 502 489 506 505 499 505 500 504 501 492 499 502 505 503 509 504 506 501 507 501 506 498 503 509 511 507 507 502 511 513 505 509 528 551 544 533 566 562 531 546 527 540 512 542 531 527 582 546 546 556 555 550 552 544 544 561 563 535 573 562 549 565 518 538 550 513 584 599 0 0 0 0 0 0 0 0 0
0 0 0 0 0 0 0 0 0 0 0 0 0 0 0 0 0 0 0 0 0 0 0 500 492 495 490 499 487 500 485 496 497 497 498 496 501 503 493 497 507 506 500 504 502 509 500 508 506 508 500 502 499 507 504 503 507 503 508 503 517 501 505 509 511 502 509 509 515 509 503 511 511 502 517 527 553 537 564 564 553 558 545 544 565 552 558 531 587 537 560 548 578 576 553 573 532 550 565 565 580 576 551 538 592 550 586 632 582 559 584 0 0 0 0 0 0 0 0 0
0 0 0 0 0 0 0 0 0 0 0 0 0 0 0 0 0 0 0 0 0 0 0 499 488 489 495 501 490 493 496 488 497 497 487 497 481 490 489 497 500 497 495 497 498 497 506 506 496 504 495 499 499 509 505 502 507 505 505 500 502 509 508 504 502 507 503 510 499 511 509 509 509 508 515 511 521 537 501 525 547 515 529 529 531 546 513 528 522 522 521 542 514 534 540 532 542 526 550 550 525 564 513 539 545 550 567 538 535 540 512 0 0 0 0 0 0 0 0 0
0 0 0 0 0 0 0 0 0 0 0 0 0 0 0 0 0 0 0 0 0 0 488 493 493 489 493 497 488 495 497 496 497 496 485 491 497 503 497 497 502 506 501 496 504 497 512 513 499 507 498 508 500 499 511 507 507 503 500 509 503 505 504 507 502 512 507 508 509 509 502 509 513 505 508 501 536 545 557 568 540 569 566 563 513 577 569 574 530 558 539 548 563 555 553 522 573 567 568 547 544 538 536 534 536 552 557 590 570 513 592 603 573 0 0 0 0 0 0 0
0 0 0 0 0 0 0 0 0 0 0 0 0 0 0 0 0 0 0 0 0 0 484 491 485 487 485 491 489 495 483 491 492 488 496 489 492 494 496 499 498 496 497 498 500 498 507 500 502 502 492 502 495 489 498 502 500 498 502 506 505 509 502 504 510 511 503 508 513 502 504 509 498 511 508 499 516 505 515 522 528 531 528 524 516 514 539 525 571 537 525 508 504 517 525 523 506 505 546 521 504 523 516 529 538 498 524 515 469 505 504 545 0 0 0 0 0 0 0 0
0 0 0 0 0 0 0 0 0 0 0 0 0 0 0 0 0 0 0 0 0 0 469 482 485 491 488 497 485 483 487 483 491 492 489 484 491 497 487 493 496 502 500 500 496 502 487 493 493 498 496 498 505 497 491 492 495 495 501 505 502 504 509 503 499 506 501 507 498 502 499 507 508 499 512 499 505 522 525 516 522 527 515 509 504 497 523 503 490 521 493 475 502 515 527 515 492 513 499 522 525 484 508 508 499 502 515 493 512 466 527 475 508 552 0 0 0 0 0 0
0 0 0 0 0 0 0 0 0 0 0 0 0 0 0 0 0 0 0 0 0 0 507 492 497 485 484 488 495 486 498 487 486 494 488 497 487 489 491 490 493 495 496 500 497 496 498 498 507 501 502 506 499 497 503 505 505 506 502 502 500 503 506 506 509 508 508 496 505 506 507 507 507 508 505 520 511 534 543 531 508 503 527 519 510 514 534 521 548 532 492 508 546 545 537 531 560 581 522 554 556 544 563 526 535 570 522 495 527 523 537 530 507 0 0 0 0 0 0 0
0 0 0 0 0 0 0 0 0 0 0 0 0 0 0 0 0 0 0 0 0 0 480 483 474 488 479 489 482 487 494 489 487 484 490 484 483 488 489 486 489 488 500 500 487 499 494 498 499 501 498 497 497 493 495 497 502 509 497 500 509 504 506 505 505 506 496 498 500 505 496 498 496 495 508 500 500 512 503 512 514 475 487 482 495 514 497 478 476 480 504 524 477 491 492 522 510 480 503 480 488 491 450 508 473 491 496 488 450 451 447 457 476 0 0 0 0 0 0 0
0 0 0 0 0 0 0 0 0 0 0 0 0 0 0 0 0 0 0 0 0 0 488 479 491 484 489 483 488 481 499 483 489 495 496 484 497 488 499 496 500 489 491 497 499 487 495 496 497 495 500 503 499 503 502 507 501 503 501 499 507 501 502 504 504 502 500 500 492 501 498 508 505 509 501 495 505 508 544 517 530 513 530 512 516 498 505 513 516 546 501 547 506 502 529 564 532 531 509 534 532 499 522 510 482 543 503 516 579 456 481 540 511 494 0 0 0 0 0 0
0 0 0 0 0 0 0 0 0 0 0 0 0 0 0 0 0 0 0 0 0 464 492 493 483 481 493 491 496 485 485 484 494 496 496 484 498 500 494 495 493 500 494 503 495 496 498 495 494 496 503 503 507 505 503 506 502 507 507 503 503 504 505 506 505 507 510 505 501 511 506 499 512 512 509 513 510 532 530 534 525 500 524 505 535 554 530 541 536 551 508 516 511 533 524 515 547 521 551 550 563 542 555 557 570 536 560 528 532 544 556 0 0 0 0 0 0 0 0 0
0 0 0 0 0 0 0 0 0 0 0 0 0 0 0 0 0 0 0 0 0 441 475 483 487 487 485 477 487 476 480 485 484 490 488 487 484 484 494 488 499 493 494 491 493 488 495 494 494 497 497 498 501 503 501 500 502 502 503 507 500 498 500 496 508 508 499 499 499 501 497 498 501 506 502 506 503 495 524 523 513 506 514 516 540 516 526 537 533 542 533 482 554 510 523 518 513 498 536 547 496 509 491 489 551 529 518 548 520 524 547 570 500 0 0 0 0 0 0 0
0 0 0 0 0 0 0 0 0 0 0 0 0 0 0 0 0 0 0 0 0 455 474 484 490 480 485 489 483 487 482 488 487 490 481 494 490 493 490 491 492 489 489 495 494 498 501 498 498 496 493 499 504 498 496 502 496 504 498 499 506 502 505 505 506 507 506 508 510 500 499 512 507 516 510 510 499 513 523 529 507 521 515 534 530 514 519 521 525 531 511 506 543 550 533 519 523 541 554 567 516 523 525 543 513 528 551 512 569 536 567 537 546 541 535 0 0 0 0 0
0 0 0 0 0 0 0 0 0 0 0 0 0 0 0 0 0 0 0 0 0 437 486 476 484 477 482 480 488 491 482 488 487 484 487 494 489 485 487 490 497 490 495 494 495 492 492 498 496 490 499 503 495 500 499 499 502 499 502 501 498 503 499 502 502 501 508 501 502 507 501 507 509 500 502 508 499 502 514 517 527 524 528 496 520 492 512 521 530 509 528 496 507 504 521 522 522 534 572 521 553 559 484 517 541 509 548 514 540 536 508 506 538 0 0 0 0 0 0 0
0 0 0 0 0 0 0 0 0 0 0 0 0 0 0 0 0 0 0 0 0 442 480 476 479 478 480 477 482 481 481 481 479 489 479 489 489 489 485 489 491 492 493 494 488 490 492 496 487 495 500 499 494 499 494 496 494 498 495 497 499 504 498 498 501 509 498 495 498 508 501 504 504 513 494 504 495 510 485 495 504 509 501 516 492 503 506 521 478 488 482 494 498 510 480 502 490 518 516 483 498 493 487 473 502 508 534 494 505 487 450 508 448 0 0 0 0 0 0 0
0 0 0 0 0 0 0 0 0 0 0 0 0 0 0 0 0 0 0 0 0 478 474 481 481 477 478 480 481 478 489 482 486 484 487 487 490 483 490 494 494 490 490 491 495 491 494 494 494 497 493 494 493 500 497 499 496 503 500 500 499 499 497 500 498 510 505 505 503 506 507 501 504 499 501 500 502 499 499 498 512 507 529 517 498 515 511 511 509 499 536 516 531 520 511 513 519 530 502 536 516 518 505 528 536 491 513 495 553 529 533 498 525 535 0 0 0 0 0 0
0 0 0 0 0 0 0 0 0 0 0 0 0 0 0 0 0 0 0 0 0 440 468 474 474 473 475 481 481 473 484 479 485 480 481 491 482 485 485 491 494 486 491 492 488 487 488 493 496 494 491 497 497 495 495 499 491 497 498 495 500 492 498 498 503 492 493 495 496 503 500 498 503 498 498 498 499 502 493 485 496 488 495 486 497 485 491 481 484 472 495 496 492 484 500 476 473 483 513 491 515 519 498 503 495 481 477 476 507 471 495 430 482 0 0 0 0 0 0 0
0 0 0 0 0 0 0 0 0 0 0 0 0 0 0 0 0 0 0 0 0 432 476 474 476 476 479 484 475 475 480 481 481 483 483 484 484 486 484 491 489 485 486 492 490 495 495 488 492 492 489 493 500 496 497 497 499 497 495 492 497 494 501 503 495 499 498 500 501 491 497 494 501 500 494 501 501 497 502 509 493 517 493 489 497 510 500 502 521 485 519 483 503 497 530 505 514 489 522 513 533 505 462 522 519 501 504 500 495 515 513 498 524 0 0 0 0 0 0 0
0 0 0 0 0 0 0 0 0 0 0 0 0 0 0 0 0 0 0 0 0 461 481 477 471 480 475 478 486 483 483 490 486 487 485 487 486 490 485 489 488 487 485 490 491 495 493 489 493 496 495 491 495 499 495 502 496 504 494 495 497 502 497 497 502 500 503 502 501 500 499 503 498 500 500 510 506 496 503 524 528 508 510 518 507 494 513 533 505 504 543 529 508 513 504 536 514 536 531 522 528 524 547 547 552 524 537 567 539 539 535 528 519 564 0 0 0 0 0 0
0 0 0 0 0 0 0 0 0 0 0 0 0 0 0 0 0 0 0 0 0 418 475 473 469 480 478 473 476 484 485 478 480 480 480 484 486 485 485 482 488 494 492 490 493 487 489 488 495 495 488 496 494 494 494 499 490 505 500 497 497 494 496 495 498 504 501 498 495 500 502 494 499 496 500 496 497 508 522 494 507 511 517 497 502 514 517 488 488 497 512 499 499 503 507 484 491 474 525 507 512 507 500 484 479 465 442 473 500 495 503 485 546 471 0 0 0 0 0 0
0 0 0 0 0 0 0 0 0 0 0 0 0 0 0 0 0 0 0 0 0 483 480 473 483 475 483 479 482 481 479 487 486 487 481 488 486 486 486 485 487 488 493 492 491 496 490 495 492 493 493 494 492 497 500 496 497 493 498 502 500 497 500 503 500 503 499 501 501 499 502 495 501 497 500 500 500 503 518 501 505 501 493 497 512 508 505 505 507 492 502 507 493 511 499 529 486 510 527 495 513 510 490 509 531 523 497 534 520 532 570 511 578 512 0 0 0 0 0 0
0 0 0 0 0 0 0 0 0 0 0 0 0 0 0 0 0 0 0 0 0 0 474 477 479 473 477 475 481 484 477 480 486 479 477 481 485 485 488 485 490 484 487 491 490 489 492 488 496 493 491 495 490 498 498 490 498 493 492 493 500 497 500 498 496 501 498 493 497 494 495 499 497 495 496 500 496 499 505 496 480 508 492 487 499 504 519 511 499 524 506 499 526 491 505 530 517 516 533 514 488 509 514 480 459 490 486 521 536 489 470 499 484 507 0 0 0 0 0 0
0 0 0 0 0 0 0 0 0 0 0 0 0 0 0 0 0 0 0 0 0 0 494 472 475 470 476 478 473 476 480 478 477 485 477 478 478 485 490 483 486 480 481 483 480 486 488 488 491 490 491 491 490 498 490 489 496 495 494 493 496 494 496 494 497 497 498 497 497 495 499 492 497 494 496 498 494 497 494 498 503 488 494 501 489 488 508 487 510 499 506 487 519 500 510 491 477 483 485 493 471 440 476 480 475 471 491 497 481 507 484 493 451 493 0 0 0 0 0 0
0 0 0 0 0 0 0 0 0 0 0 0 0 0 0 0 0 0 0 0 0 0 531 468 468 481 481 475 483 473 478 482 486 484 477 484 486 484 479 482 486 487 489 492 489 492 490 488 496 492 495 493 495 493 496 499 493 491 492 493 496 494 494 497 494 492 500 497 496 497 500 496 500 492 493 493 497 499 509 516 502 495 503 510 504 504 520 543 526 513 534 498 511 510 504 532 521 503 508 519 522 508 505 518 527 514 510 503 504 500 556 529 523 509 513 473 0 0 0 0
0 0 0 0 0 0 0 0 0 0 0 0 0 0 0 0 0 0 0 0 0 0 568 467 475 479 474 480 472 476 475 476 477 484 483 479 481 482 483 480 487 486 488 487 490 485 492 488 493 487 487 491 491 498 500 496 494 494 493 496 492 498 503 497 495 495 497 495 490 495 496 488 488 490 494 494 492 490 473 485 488 493 485 503 503 483 476 495 484 484 508 496 488 533 479 494 487 513 494 464 488 489 493 471 462 459 473 452 483 479 450 464 442 495 0 0 0 0 0 0
0 0 0 0 0 0 0 0 0 0 0 0 0 0 0 0 0 0 0 0 0 0 0 481 469 469 475 475 472 471 483 483 473 484 477 474 481 483 481 485 486 488 485 489 492 482 489 491 490 492 489 493 496 491 494 491 489 493 494 499 496 493 495 494 499 495 491 499 500 495 498 487 496 492 493 496 494 494 495 497 494 501 489 489 493 514 492 501 482 483 488 505 502 498 505 495 506 494 479 518 479 515 490 512 492 510 459 494 495 457 501 493 494 0 0 0 0 0 0 0
0 0 0 0 0 0 0 0 0 0 0 0 0 0 0 0 0 0 0 0 0 0 0 490 472 473 475 472 475 483 482 478 477 478 489 480 481 477 485 481 486 483 495 486 487 488 493 492 491 497 492 490 488 493 495 496 494 493 497 495 491 492 497 497 493 494 495 502 497 494 498 493 497 496 495 493 491 499 499 494 512 497 504 505 505 518 491 509 503 481 505 521 495 503 529 537 511 524 532 523 499 518 545 538 503 524 524 522 512 504 492 519 511 0 0 0 0 0 0 0
0 0 0 0 0 0 0 0 0 0 0 0 0 0 0 0 0 0 0 0 0 0 0 525 477 470 470 474 473 477 475 473 479 480 472 483 481 483 477 480 481 482 484 491 486 488 488 487 488 488 492 490 487 483 497 488 496 494 488 490 493 494 494 497 497 497 494 495 494 491 497 493 492 500 494 492 498 494 495 494 497 496 496 492 518 518 507 486 508 483 503 517 507 481 481 492 499 494 491 510 513 504 511 495 467 504 502 499 489 486 498 529 465 480 448 0 0 0 0 0
0 0 0 0 0 0 0 0 0 0 0 0 0 0 0 0 0 0 0 0 0 0 0 0 486 467 472 468 475 480 479 474 475 485 479 473 482 481 478 483 478 484 482 484 493 489 487 491 490 493 492 492 495 489 491 489 494 490 490 494 491 494 495 499 495 497 495 496 497 495 497 493 501 495 494 492 488 503 510 497 508 517 503 519 508 523 518 507 503 513 533 514 525 492 533 533 503 514 518 533 503 530 514 518 506 495 497 521 497 504 512 502 543 520 555 530 0 0 0 0
0 0 0 0 0 0 0 0 0 0 0 0 0 0 0 0 0 0 0 0 0 0 0 0 500 475 471 473 471 471 479 476 479 477 480 480 485 478 477 485 480 482 484 486 484 482 490 491 491 488 493 493 494 492 489 488 494 489 494 489 495 489 496 495 490 490 491 492 493 494 495 495 492 490 494 489 490 495 500 500 499 487 503 489 509 511 494 497 494 488 506 488 517 492 534 502 502 503 506 493 495 500 496 484 481 473 469 497 487 497 490 513 497 467 456 0 0 0 0 0
0 0 0 0 0 0 0 0 0 0 0 0 0 0 0 0 0 0 0 0 0 0 0 0 0 475 465 470 467 471 470 472 472 469 473 476 478 476 483 480 481 480 481 483 484 483 484 487 486 485 487 485 488 488 483 490 489 487 490 492 489 491 489 492 490 491 488 493 497 493 494 491 493 491 492 484 487 482 478 486 478 476 486 478 491 481 484 481 488 486 497 478 482 497 500 501 487 482 485 474 494 495 501 483 485 464 457 494 452 472 461 497 432 479 458 0 0 0 0 0
0 0 0 0 0 0 0 0 0 0 0 0 0 0 0 0 0 0 0 0 0 0 0 0 0 563 466 468 470 469 470 471 477 475 475 480 477 477 484 478 480 478 483 484 484 481 477 482 484 484 489 483 488 489 491 489 493 488 493 487 489 487 489 490 493 495 493 489 488 494 499 490 494 493 488 488 495 485 484 490 493 488 483 484 473 491 507 493 502 503 493 489 497 502 525 530 500 514 497 528 509 514 497 526 486 530 490 473 459 481 483 465 508 510 0 0 0 0 0 0
0 0 0 0 0 0 0 0 0 0 0 0 0 0 0 0 0 0 0 0 0 0 0 0 0 0 464 472 459 470 470 471 468 474 473 472 476 477 478 477 474 476 480 479 483 482 478 483 481 486 484 481 489 489 485 486 488 484 485 486 487 486 488 487 490 492 488 487 493 490 495 493 491 488 485 485 470 479 478 474 489 484 477 475 478 476 484 473 463 476 479 486 476 470 473 495 476 474 462 468 459 479 467 462 443 445 453 481 462 418 444 444 439 432 0 0 0 0 0 0
0 0 0 0 0 0 0 0 0 0 0 0 0 0 0 0 0 0 0 0 0 0 0 0 0 0 0 474 465 464 465 471 472 471 474 475 473 479 475 474 477 483 477 482 479 483 483 481 485 480 483 488 480 483 482 484 485 490 481 493 484 486 492 490 486 491 486 493 486 491 490 484 487 475 482 485 474 475 501 463 490 480 495 481 492 491 499 482 484 488 477 497 492 484 466 481 496 469 485 498 502 506 465 484 483 504 503 461 473 502 423 465 474 437 515 0 0 0 0 0
0 0 0 0 0 0 0 0 0 0 0 0 0 0 0 0 0 0 0 0 0 0 0 0 0 0 0 522 471 465 469 471 475 472 474 476 478 473 472 473 477 480 481 477 479 477 483 481 480 484 483 482 482 490 484 481 485 488 488 486 491 486 490 493 488 484 489 491 491 485 484 487 479 477 491 492 492 494 485 486 492 495 526 504 503 476 513 489 505 503 491 523 489 504 496 523 499 504 507 504 488 512 521 478 507 490 519 490 505 484 498 506 469 527 531 0 0 0 0 0
0 0 0 0 0 0 0 0 0 0 0 0 0 0 0 0 0 0 0 0 0 0 0 0 0 0 0 0 495 466 463 471 462 468 473 468 475 474 475 475 472 477 481 478 483 482 473 483 482 476 481 489 481 483 486 481 485 485 483 486 486 485 486 489 482 486 488 484 490 484 485 483 481 489 490 490 490 494 481 476 483 475 479 475 489 485 500 488 491 493 479 491 484 504 477 471 471 489 488 493 484 490 467 481 492 457 459 473 504 486 429 476 468 497 522 0 0 0 0 0
0 0 0 0 0 257 239 278 343 0 0 0 0 0 0 0 0 0 0 0 0 2301 0 0 0 0 0 0 0 503 470 472 468 473 470 470 470 472 472 471 474 473 478 476 476 482 480 480 481 476 481 482 483 482 481 483 484 489 490 485 486 485 488 489 488 487 481 478 486 486 482 487 492 479 478 492 497 482 487 489 509 495 501 501 488 504 511 498 489 503 491 532 500 489 526 506 496 505 530 507 503 493 487 484 491 497 485 508 492 485 500 487 499 496 493 0 0 0 0 0
0 0 0 0 256 231 240 238 240 298 353 0 0 0 0 0 0 0 0 0 0 2356 0 0 0 0 0 0 0 0 452 461 465 465 469 473 474 470 475 472 473 476 471 470 477 475 480 478 480 476 481 484 480 482 484 483 481 482 482 483 478 485 488 489 486 487 482 483 481 486 480 478 469 479 479 477 491 475 476 483 492 481 480 484 484 480 501 482 483 486 486 481 486 468 480 487 497 473 478 481 487 501 506 471 497 469 483 466 466 466 471 472 446 0 0 0 0 0 0 0
0 0 0 240 221 226 227 225 232 236 321 0 0 0 0 0 0 0 0 0 0 0 0 0 0 0 0 0 0 0 0 464 465 469 464 470 466 465 466 466 468 466 469 469 467 472 472 474 476 477 475 473 481 478 481 473 483 475 476 473 475 483 477 483 484 476 478 475 473 473 470 474 465 467 473 478 463 477 476 478 462 468 488 463 463 468 479 473 475 478 477 474 489 453 493 480 472 456 471 487 484 463 449 473 471 430 446 441 457 456 412 502 430 419 404 0 0 0 0 0
243 253 279 247 273 268 256 232 242 241 309 0 404 428 428 443 430 424 415 448 453 442 443 437 438 446 447 432 456 452 452 471 472 472 465 466 465 468 467 472 463 466 475 473 475 473 476 476 473 477 471 474 479 478 479 482 478 479 482 483 476 482 477 479 479 477 478 484 482 473 479 483 475 474 472 466 474 483 477 462 485 480 489 484 465 478 481 478 465 476 467 475 479 460 485 479 466 477 465 472 496 478 491 491 479 477 440 456 455 457 472 503 507 443 446 0 0 0 0 0
168 181 162 162 222 215 231 228 223 248 280 336 373 367 383 384 376 365 385 389 380 416 393 412 393 407 403 441 434 447 446 453 451 455 456 457 452 456 453 458 458 453 456 464 458 461 467 462 475 471 463 465 475 470 469 463 469 470 465 469 475 467 470 473 465 465 473 466 465 466 474 463 455 457 454 447 444 443 444 454 450 440 446 435 442 429 444 444 429 445 436 443 428 419 442 431 449 428 436 428 429 441 442 424 436 423 404 439 435 432 423 421 422 398 405 377 373 370 0 0
199 209 188 203 230 242 239 231 238 330 402 367 370 368 358 368 369 371 376 378 387 395 369 400 411 411 413 420 427 433 442 450 441 448 441 448 440 450 447 441 450 448 444 447 449 450 451 452 454 453 454 452 458 453 455 459 453 448 452 461 466 469 458 453 460 459 460 460 456 455 457 457 446 446 438 433 430 436 440 432 437 436 424 432 415 426 432 435 421 421 426 432 425 429 425 406 427 411 411 414 425 413 421 421 433 401 418 417 430 410 428 407 401 433 400 402 409 393 390 447
284 294 243 221 235 228 232 233 253 327 332 337 350 338 344 348 344 344 359 343 366 364 365 381 390 394 409 402 422 411 425 421 421 431 431 430 426 435 432 436 435 427 428 432 438 435 441 443 436 439 446 445 441 442 452 442 445 445 443 442 452 440 438 450 440 450 444 439 445 441 433 433 435 428 426 413 414 412 404 402 406 395 401 399 408 407 400 408 396 385 407 399 403 404 411 410 397 407 397 411 398 407 385 397 415 399 398 391 401 390 400 382 407 397 413 409 422 403 406 0
288 282 272 241 239 235 230 246 298 295 316 316 298 312 308 306 315 316 313 314 320 328 335 343 351 371 374 385 393 393 397 405 402 406 409 409 407 411 411 409 415 414 412 413 414 412 412 421 422 417 413 424 423 422 415 419 412 428 418 423 421 425 419 424 421 421 422 413 417 411 409 407 403 404 401 388 386 367 355 361 356 363 354 374 356 359 354 359 365 361 357 368 355 356 366 359 354 365 354 343 373 368 364 366 367 357 351 355 349 341 348 357 365 347 347 351 339 335 326 379
285 290 279 284 263 260 249 295 284 289 285 280 287 296 292 293 306 296 288 297 308 312 311 323 334 351 363 371 373 368 384 389 391 390 390 391 397 401 395 395 394 394 397 398 399 399 388 394 393 395 387 402 402 403 400 400 405 400 404 400 407 397 405 397 393 388 399 391 395 399 395 387 389 387 376 366 357 353 352 341 351 332 337 340 332 329 346 339 339 335 338 332 343 344 343 335 342 331 345 336 338 329 337 341 355 353 348 347 339 348 335 363 342 348 350 347 363 350 346 378
266 247 243 246 245 235 248 250 256 270 256 251 256 255 269 262 258 265 262 281 269 270 286 298 313 326 335 339 345 365 363 363 362 363 358 372 367 369 367 373 361 370 376 366 364 377 373 371 364 366 378 375 369 375 379 379 379 376 375 369 377 378 376 376 369 371 370 375 372 378 374 368 362 356 348 345 323 325 311 310 303 307 302 304 307 312 310 305 305 299 297 307 291 311 316 304 290 299 286 300 295 310 299 292 309 316 318 296 305 301 319 294 318 313 299 291 307 292 312 311
229 217 229 222 225 243 243 229 238 238 241 242 243 237 233 244 240 246 250 247 256 268 268 275 296 299 310 325 322 333 326 335 345 338 337 345 344 342 345 347 348 346 352 344 338 339 349 351 350 344 342 350 345 351 351 349 344 353 357 349 351 352 349 341 344 344 344 343 345 346 344 345 339 339 321 316 309 296 290 291 277 273 281 278 280 277 275 282 271 271 267 284 280 282 275 267 267 280 271 277 282 270 274 266 289 277 270 281 265 278 256 286 260 273 266 271 255 274 278 271
223 220 234 227 226 222 223 226 222 230 228 236 224 233 229 229 235 234 239 236 245 249 265 266 270 281 302 297 301 305 309 313 319 327 318 321 321 320 329 335 322 324 318 314 330 322 318 334 327 327 321 325 329 327 328 327 327 321 332 332 335 333 325 334 325 327 324 329 326 329 320 322 320 312 301 298 288 276 279 273 265 266 265 266 260 261 262 262 262 251 255 263 258 264 257 262 263 249 262 260 258 255 263 267 259 260 260 256 261 265 265 268 277 261 273 264 270 278 265 280
194 184 196 211 202 208 208 220 204 213 207 207 215 210 210 211 213 217 218 226 221 233 240 244 251 260 267 277 281 288 287 289 296 290 294 292 291 304 298 301 301 297 301 298 302 296 304 300 308 306 305 297 301 298 295 303 303 303 304 303 304 304 304 309 306 303 298 301 305 300 303 301 296 290 285 278 269 256 253 249 244 250 235 246 244 238 244 239 238 243 242 246 244 242 241 237 233 238 245 244 238 244 246 241 242 237 231 232 243 230 243 242 250 250 235 239 242 248 211 243
185 196 197 204 195 205 203 208 200 189 205 198 191 205 204 188 207 192 210 212 212 224 233 236 248 248 255 255 270 270 270 267 275 269 276 281 284 280 285 281 279 279 281 289 284 277 286 285 283 284 281 280 280 286 284 287 286 287 286 287 284 289 282 289 283 289 284 285 286 280 280 277 274 272 269 258 253 244 242 232 225 228 235 232 236 227 225 225 228 228 228 224 230 230 219 224 229 223 225 229 221 231 226 229 228 223 226 227 236 241 230 232 234 239 223 230 232 243 246 241
194 175 180 191 199 186 185 205 182 180 187 180 185 178 181 179 194 183 189 192 208 209 220 227 226 231 238 243 248 251 259 251 260 260 258 253 264 262 267 266 268 266 265 268 266 266 268 265 267 267 266 267 263 267 267 268 266 270 262 274 269 271 268 271 267 268 272 272 266 270 267 258 255 252 252 243 238 235 226 224 221 220 220 217 218 217 218 219 219 221 215 227 218 213 216 218 221 209 205 216 221 215 215 217 210 212 209 219 223 223 226 235 228 239 216 220 237 225 228 232
176 175 170 178 177 181 177 178 180 180 180 179 184 182 182 185 182 179 179 180 179 190 187 199 211 221 221 224 229 229 230 238 246 245 241 237 241 245 247 244 248 243 245 245 252 249 247 246 244 253 249 250 248 248 242 250 249 251 251 256 251 246 249 252 243 251 249 245 247 246 241 244 246 237 234 229 220 218 217 202 197 214 191 187 193 193 193 201 194 189 194 208 193 184 181 192 190 203 190 192 182 193 186 189 185 188 190 180 188 206 213 214 211 200 210 198 207 204 212 186
173 172 177 177 174 174 179 171 171 180 177 176 177 177 180 180 184 181 189 188 190 187 186 195 208 207 213 217 218 224 228 225 222 223 228 228 230 235 234 232 228 233 237 236 234 236 229 233 238 235 232 233 236 233 238 234 236 238 239 237 237 246 239 232 235 236 232 233 233 235 235 232 228 224 220 219 198 198 190 188 193 185 193 190 192 184 196 187 195 193 194 186 191 188 191 187 180 184 179 181 181 181 180 186 184 185 184 184 177 183 185 199 200 202 196 203 219 215 197 207
163 161 172 168 173 166 167 169 171 164 170 166 167 171 172 169 173 175 171 185 179 182 177 186 186 183 185 189 191 194 197 213 210 210 212 211 214 215 213 196 215 221 218 217 223 221 220 217 221 223 219 220 220 221 219 217 220 222 219 224 220 222 221 219 218 216 217 218 223 221 220 217 218 196 194 196 188 193 194 188 189 186 191 184 188 185 184 187 184 186 185 181 186 179 183 180 181 179 185 186 182 186 188 184 183 178 181 177 180 177 173 186 181 179 199 169 197 191 178 210
149 154 162 155 159 164 154 165 159 164 163 162 159 158 160 160 163 171 171 175 170 173 177 178 184 189 188 193 193 186 181 185 183 196 188 193 186 186 191 193 191 188 188 192 198 197 195 197 196 195 196 191 195 197 196 190 196 196 213 197 215 198 199 189 193 193 190 196 193 196 199 195 194 190 196 196 193 191 187 180 178 177 177 176 175 175 176 173 175 174 171 175 172 172 171 172 167 171 166 174 169 171 172 171 175 170 168 164 168 170 173 172 170 176 169 170 169 172 166 177
147 152 152 154 154 154 155 156 164 160 161 158 158 157 158 156 157 164 158 166 169 168 173 173 179 181 178 181 184 185 190 186 190 191 192 186 191 193 191 194 196 196 191 196 193 195 199 196 189 192 194 199 195 197 197 194 198 199 199 190 198 198 199 188 194 194 195 198 200 194 193 194 192 193 192 181 186 184 181 172 173 175 170 163 166 167 170 164 170 170 170 168 172 167 171 168 165 163 167 169 166 169 172 169 166 166 162 160 171 169 166 163 173 170 175 170 166 167 174 165
145 143 146 145 146 146 147 151 149 152 149 151 144 151 150 149 153 153 155 156 158 161 164 167 171 172 173 175 176 178 177 175 182 181 180 180 181 180 183 186 183 183 187 187 185 185 185 187 190 183 184 186 187 185 187 185 188 189 0 191 186 189 185 187 186 187 187 188 185 185 187 184 181 178 176 175 176 173 172 166 163 159 160 159 158 158 161 160 164 161 156 160 157 160 159 158 152 160 162 161 156 163 161 156 160 158 159 154 153 158 148 158 155 153 157 157 164 153 147 152
136 141 137 139 142 150 150 143 144 147 145 144 141 147 143 147 145 148 148 155 157 160 162 164 168 167 170 167 168 172 170 173 175 176 170 173 174 175 173 174 175 181 179 178 173 178 178 179 178 175 177 176 182 180 182 183 183 0 0 177 181 181 180 183 179 176 181 180 177 175 176 176 172 173 172 173 168 167 163 159 160 158 155 154 159 156 159 156 156 155 153 154 159 157 151 152 154 157 155 150 154 152 151 154 148 149 148 151 164 157 155 150 152 149 149 151 158 147 164 173
137 135 133 141 142 143 151 143 143 138 140 140 145 143 143 141 140 147 147 145 148 154 155 158 157 160 161 161 167 165 161 166 166 170 164 169 165 169 169 171 175 0 174 170 173 174 172 173 171 174 175 174 174 175 174 0 174 173 0 179 175 0 0 174 172 168 174 169 173 172 169 167 170 169 167 164 165 158 159 151 152 152 150 154 155 152 155 147 154 155 150 152 149 152 148 148 155 153 157 151 150 145 145 147 151 145 140 145 151 146 156 151 148 158 153 153 152 161 169 168
129 125 128 112 134 133 145 137 133 123 132 133 133 132 138 137 134 133 139 143 140 147 151 152 149 160 159 156 156 162 159 156 158 163 158 156 164 164 0 0 0 0 0 0 0 0 0 163 166 167 168 162 166 165 0 0 167 167 0 0 0 0 0 0 166 166 167 0 163 163 162 161 160 159 153 157 150 156 148 151 150 147 145 146 145 148 142 142 144 145 145 145 144 147 139 138 142 145 143 144 142 141 144 134 134 136 138 137 142 135 142 140 145 157 143 143 139 144 150 139
115 126 126 124 130 137 137 132 141 129 127 135 126 129 134 128 131 135 137 137 143 143 147 150 153 151 152 151 157 155 156 156 156 160 156 156 155 0 0 0 0 0 0 0 0 0 0 0 0 163 164 163 0 0 0 0 0 0 0 0 0 0 0 0 0 162 0 0 0 0 0 157 163 157 153 153 151 154 150 143 142 139 143 143 145 142 143 139 146 141 139 143 139 143 138 140 144 144 139 138 138 135 139 135 132 139 139 131 142 143 142 153 146 151 138 140 138 134 140 170
119 110 120 125 130 125 131 128 127 116 132 123 118 116 118 122 132 122 131 134 125 126 136 142 141 142 145 147 145 151 153 146 153 149 150 148 0 0 0 0 0 0 0 0 0 0 0 0 154 154 157 0 0 0 0 0 0 0 0 0 0 0 0 0 0 0 0 0 0 0 0 0 151 150 150 149 149 144 141 144 130 141 127 127 130 128 138 130 136 130 138 138 134 127 118 136 141 137 134 133 127 140 132 133 134 134 132 126 133 136 137 134 137 139 141 126 128 130 123 132
106 108 110 111 111 112 118 119 114 121 118 111 115 114 126 123 122 118 116 116 121 123 127 125 135 140 139 138 142 143 139 145 146 143 145 144 0 0 0 0 0 0 0 0 0 0 0 0 0 0 0 0 0 0 0 0 0 0 0 0 0 0 0 0 0 0 0 0 0 0 0 0 145 141 142 139 139 132 128 130 125 120 122 122 125 117 126 127 126 128 121 123 116 127 122 134 127 133 117 118 117 132 130 118 119 130 116 122 133 132 121 129 115 121 108 127 116 103 105 108
111 105 116 116 113 113 115 118 121 117 113 121 117 116 118 125 119 119 121 118 119 114 123 119 136 136 138 138 0 134 0 0 0 140 133 0 0 0 0 0 0 0 0 0 0 0 0 0 0 0 0 0 0 0 0 0 0 0 0 0 0 0 0 0 0 0 0 0 0 0 0 0 0 143 125 125 125 122 121 126 122 116 119 125 114 120 119 117 120 117 120 129 118 116 113 125 119 119 122 117 121 126 121 120 121 116 116 121 109 132 127 125 127 119 129 118 109 132 130 144
97 100 108 111 107 103 108 107 101 104 110 104 106 105 102 108 107 110 116 111 111 115 110 117 120 121 125 122 118 125 0 0 0 0 0 0 0 0 0 0 0 0 0 0 0 0 0 0 0 0 0 0 0 0 0 0 0 0 0 0 0 0 0 0 0 0 0 0 0 0 0 0 131 0 0 126 123 120 122 117 115 115 110 112 115 113 113 113 111 115 116 115 109 112 109 106 111 114 115 110 113 110 109 113 110 115 107 107 107 101 103 112 101 116 113 95 96 110 107 146
97 101 91 96 101 102 103 102 102 106 104 102 102 103 106 105 107 107 115 110 109 113 105 111 114 110 114 118 118 121 0 126 0 0 0 0 0 0 0 0 0 0 0 0 0 0 0 0 0 0 0 0 0 0 0 0 0 0 0 0 0 0 0 0 0 0 0 0 0 0 0 0 0 121 0 118 119 117 114 109 112 111 103 103 112 108 110 115 106 110 112 111 110 112 107 118 108 107 101 118 111 107 109 105 106 114 108 110 112 108 102 107 118 98 111 123 123 111 102 139
96 99 100 107 103 101 100 92 92 102 98 96 101 97 100 94 106 103 113 113 112 108 97 112 113 108 113 113 115 122 120 117 123 0 0 0 0 0 0 0 0 0 0 0 0 0 0 0 0 0 0 0 0 0 0 0 0 0 0 0 0 0 0 0 0 0 0 0 0 0 0 0 123 122 110 121 114 117 115 118 105 109 103 121 109 108 103 102 101 105 104 109 117 96 101 103 106 101 115 107 106 110 113 105 113 109 111 94 107 102 102 111 105 106 121 98 146 135 123 128
87 83 82 87 83 82 80 96 91 83 89 94 97 95 94 89 81 92 90 89 92 85 99 106 101 99 116 109 0 114 106 102 119 0 0 0 0 0 0 0 0 0 0 0 0 0 0 0 0 0 0 0 0 0 0 0 0 0 0 0 0 0 0 0 0 0 0 0 0 0 0 118 112 110 106 109 108 107 101 96 100 104 96 92 100 99 91 97 105 99 96 98 100 86 84 94 94 102 86 96 90 100 92 92 93 91 95 92 91 88 80 89 80 100 94 99 94 90 99 99
95 89 93 89 100 98 102 108 92 94 97 99 94 93 96 94 98 93 105 99 96 108 109 103 106 109 113 108 0 108 111 111 118 112 122 107 0 0 0 0 0 119 0 0 0 0 0 0 0 0 0 0 0 0 0 0 0 0 0 0 114 0 0 116 114 0 0 0 113 0 108 109 116 111 116 107 110 114 101 97 111 104 104 94 97 100 107 105 104 103 107 105 110 100 105 104 101 98 105 109 101 101 98 106 97 109 102 90 94 85 91 101 94 107 113 103 125 111 151 137
86 93 88 92 96 96 92 94 85 96 88 91 86 93 90 87 97 99 99 94 100 94 97 112 90 104 109 103 103 108 95 0 105 100 101 106 0 117 115 0 106 0 0 0 0 0 0 0 0 0 0 0 0 0 0 0 0 111 0 0 0 104 104 109 113 113 104 100 113 107 110 102 105 103 111 108 101 97 102 96 95 95 101 84 94 88 94 101 105 97 98 105 108 85 85 84 88 94 96 88 93 85 93 100 94 90 98 90 100 85 89 92 82 99 96 79 122 109 106 143
85 88 79 90 89 94 102 90 89 79 90 88 86 91 88 90 91 90 91 87 80 95 95 86 86 94 93 90 107 88 94 99 95 94 95 109 97 103 106 102 104 96 98 108 109 93 0 0 96 0 0 105 102 94 103 109 108 102 108 104 101 109 109 101 100 110 100 100 100 105 100 104 105 102 105 92 94 97 97 91 94 98 98 96 90 97 90 97 95 93 102 87 94 93 93 91 85 91 93 85 84 93 91 89 84 86 96 85 82 97 90 91 88 101 85 83 108 83 114 133
86 79 87 87 86 84 96 103 88 89 89 82 84 89 86 95 91 96 91 97 87 95 91 95 92 98 94 89 95 99 96 86 93 95 96 96 98 100 92 108 102 96 99 103 101 97 104 0 104 103 96 107 99 98 100 104 104 108 99 106 104 95 95 106 104 102 94 101 94 105 101 104 101 96 104 87 93 94 94 86 98 98 85 94 96 93 87 86 93 86 95 102 90 93 93 81 93 96 99 85 81 97 85 92 92 103 90 88 92 86 91 93 100 97 111 121 131 103 127 142
82 74 70 70 79 82 85 86 88 82 86 81 87 79 89 82 85 85 86 86 90 85 92 90 84 84 92 94 86 92 91 93 81 92 92 96 97 97 91 97 93 97 97 92 97 92 88 98 96 91 95 97 94 89 88 82 103 86 99 88 96 81 98 98 97 97 95 92 95 97 92 98 96 93 84 97 92 94 98 94 89 91 84 87 87 92 88 86 84 90 92 76 90 80 82 86 82 78 78 89 81 86 83 72 80 82 85 81 77 88 88 85 85 77 88 87 100 88 65 37
73 76 79 86 75 88 82 90 85 83 83 90 82 84 84 87 88 90 85 88 87 89 85 85 88 85 91 87 95 88 94 98 92 97 87 94 97 93 90 94 93 83 93 89 89 97 88 87 101 91 91 88 97 85 103 95 88 86 91 98 97 86 94 97 90 98 87 98 106 95 95 96 87 96 95 98 96 83 97 96 91 90 88 90 79 88 90 80 96 94 78 87 75 81 92 83 94 87 79 79 83 84 81 78 78 82 83 91 87 100 83 88 80 99 99 100 124 106 82 158
