0 0 0 0 0 0 0 0 0 0 0 0 0 0 0 0 0 0 0 0 0 0 0 0 0 0 0 0 0 0 0 0 0 0 0 0 0 0 0 0 0 0 0 0 0 0 0 0 0 0 0 0 0 0 0 0 0 0 0 0 0 0 0 0 0 0 0 0 0 0 0 0 0 0 0 0 0 0 0 0 0 0 0 0 0 0 0 0 0 0 0 0 0 0 0 0 0 0 0 0 0 0 0 0 0 0 0 0 0 0 0 0 0 0 0 0 0 0 0 0
0 0 0 0 0 0 0 0 0 0 0 0 0 0 0 0 0 0 0 0 0 0 0 0 0 0 0 0 0 0 0 0 0 0 0 0 0 0 0 0 0 0 0 0 0 0 0 0 0 0 0 0 0 0 0 0 0 0 0 0 0 0 0 0 0 0 0 0 0 0 0 0 0 0 0 0 0 0 0 0 0 0 0 0 0 0 0 0 0 0 0 0 0 0 0 0 0 0 0 0 0 0 0 0 0 0 0 0 0 0 0 0 0 0 0 0 0 0 0 0
0 0 0 0 0 0 0 0 0 0 0 0 0 0 0 0 0 0 0 0 0 0 0 0 0 0 0 0 0 0 0 0 0 0 0 0 0 0 0 0 0 0 0 0 0 0 0 0 0 0 0 0 0 0 0 0 0 0 0 0 0 0 0 0 0 0 0 0 0 0 0 0 0 0 0 0 0 0 0 0 0 0 0 0 0 0 0 0 0 0 0 0 0 0 0 0 0 0 0 0 0 0 0 0 0 0 0 0 0 0 0 0 0 0 0 0 0 0 0 0
0 0 0 0 0 0 0 0 0 0 0 0 0 0 0 0 0 0 0 0 0 0 0 0 0 0 0 0 0 0 0 0 0 0 0 0 0 0 0 0 0 0 0 0 0 0 0 0 0 0 0 0 0 0 0 0 0 0 0 0 0 0 0 0 0 0 0 0 0 0 0 0 0 0 0 0 0 0 0 0 0 0 0 0 0 0 0 0 0 0 0 0 0 0 0 0 0 0 0 0 0 0 0 0 0 0 0 0 0 0 0 0 0 0 0 0 0 0 0 0
0 0 0 0 0 0 0 0 0 0 0 0 0 0 0 0 0 0 0 0 0 0 0 0 0 0 0 0 0 0 0 0 0 0 0 0 0 0 0 0 0 0 0 0 0 0 0 0 0 0 0 0 0 0 0 0 0 0 0 0 0 0 0 0 0 0 0 0 0 0 0 0 0 0 0 0 0 0 0 0 0 0 0 0 0 0 0 0 0 0 0 0 0 0 0 0 0 0 0 0 0 0 0 0 0 0 0 0 0 0 0 0 0 0 0 0 0 0 0 0
0 0 0 0 0 0 0 0 0 0 0 0 0 0 0 0 0 0 0 0 0 0 0 0 0 0 0 0 0 0 0 0 0 0 0 0 0 0 0 516 475 479 482 510 497 528 486 512 501 492 499 502 484 471 492 0 0 0 0 0 0 0 0 0 0 0 0 0 0 0 0 0 0 0 0 0 0 0 0 0 0 0 0 0 0 0 0 0 0 0 0 0 0 0 0 0 0 0 0 0 0 0 0 0 0 0 0 0 0 0 0 0 0 0 0 0 0 0 0 0
0 0 0 0 0 0 0 0 0 0 0 0 0 0 0 0 0 0 0 0 0 0 0 0 0 0 0 0 0 0 0 0 0 0 0 0 0 481 518 510 504 490 486 506 492 500 512 511 510 510 501 506 506 509 505 517 517 479 499 507 0 0 0 0 0 0 0 0 0 0 0 0 0 0 0 0 0 0 0 0 0 0 0 0 0 0 0 0 0 0 0 0 0 0 0 0 0 0 0 0 0 0 0 0 0 0 0 0 0 0 0 0 0 0 0 0 0 0 0 0
0 0 0 0 0 0 0 0 0 0 0 0 0 0 0 0 0 0 0 0 0 0 0 0 0 0 0 0 0 0 0 0 0 0 0 525 499 518 501 508 504 510 494 534 497 510 508 521 511 504 513 507 513 507 522 519 526 518 500 515 521 524 526 526 504 0 0 0 0 0 0 0 0 0 0 0 0 0 0 0 0 0 0 0 0 0 0 0 0 0 0 0 0 0 0 0 0 0 0 0 0 0 0 0 0 0 0 0 0 0 0 0 0 0 0 0 0 0 0 0
0 0 0 0 0 0 0 0 0 0 0 0 0 0 0 0 0 0 0 0 0 0 0 0 0 0 0 0 0 0 0 0 0 528 488 510 503 520 502 494 512 501 486 499 513 496 508 505 499 513 497 505 516 500 503 497 511 499 511 512 494 508 501 502 511 489 521 532 566 506 528 540 593 0 565 510 516 555 532 607 0 0 0 0 0 0 0 0 0 0 0 0 0 0 0 0 0 0 0 0 0 0 0 0 0 0 0 0 0 0 0 0 0 0 0 0 0 0 0 0
0 0 0 0 0 0 0 0 0 0 0 0 0 0 0 0 0 0 0 0 0 0 0 0 0 0 0 0 0 0 0 557 514 513 502 501 500 507 510 503 519 508 506 502 508 517 502 505 509 503 511 508 511 501 497 512 506 510 508 509 516 516 499 514 501 509 519 520 537 541 602 598 593 593 581 604 600 618 624 603 620 607 669 579 634 599 638 604 600 613 542 604 587 603 585 597 630 623 598 617 593 559 599 610 0 0 0 0 0 0 0 0 0 0 0 0 0 0 0 0
0 0 0 0 0 0 0 0 0 0 0 0 0 0 0 0 0 0 0 0 0 0 0 0 0 0 0 0 0 0 512 508 505 506 487 503 502 493 505 514 494 494 517 507 518 511 513 502 521 507 500 510 508 501 511 512 513 502 501 502 513 506 503 513 516 508 520 512 521 508 542 581 564 572 573 578 528 624 568 575 601 620 600 612 569 575 560 568 574 594 593 591 535 586 565 581 592 548 582 596 532 578 585 606 606 612 530 0 0 0 0 0 0 0 0 0 0 0 0 0
0 0 0 0 0 0 0 0 0 0 0 0 0 0 0 0 0 0 0 0 0 0 0 0 0 0 0 0 452 481 491 492 485 492 495 501 495 494 501 501 498 501 491 505 503 500 500 507 492 503 501 507 504 499 493 494 503 508 505 507 505 507 498 509 503 496 510 497 502 508 506 482 480 544 543 584 513 532 472 535 513 536 526 522 529 479 546 510 501 512 526 510 540 535 577 538 535 525 537 526 512 479 486 528 562 500 534 512 567 0 0 0 0 0 0 0 0 0 0 0
0 0 0 0 0 0 0 0 0 0 0 0 0 0 0 0 0 0 0 0 0 0 0 0 0 0 0 510 499 500 512 493 501 505 499 495 511 512 509 508 508 501 500 510 494 506 506 507 499 505 507 505 515 506 506 508 506 508 499 520 502 516 507 515 517 508 510 517 509 523 516 529 571 537 588 591 593 557 581 573 570 581 570 598 589 542 605 594 590 602 579 575 599 547 557 623 569 579 592 600 586 565 570 594 575 566 645 582 0 0 0 0 0 0 0 0 0 0 0 0
0 0 0 0 0 0 0 0 0 0 0 0 0 0 0 0 0 0 0 0 0 0 0 0 0 0 464 503 486 496 494 489 490 488 486 496 499 503 505 496 499 506 502 501 501 508 503 495 505 502 498 494 509 503 511 496 509 500 519 507 514 512 504 501 515 510 512 497 511 499 511 508 519 550 527 540 524 549 545 539 557 517 542 521 519 530 561 519 510 501 555 545 542 524 540 550 528 541 494 557 537 516 566 552 522 540 560 554 531 0 0 0 0 0 0 0 0 0 0 0
0 0 0 0 0 0 0 0 0 0 0 0 0 0 0 0 0 0 0 0 0 0 0 0 0 461 489 500 510 496 499 499 501 493 492 493 498 498 503 494 496 508 504 504 494 499 501 510 510 499 498 508 506 499 503 503 500 509 504 496 500 501 509 516 502 503 509 510 511 510 511 505 511 541 550 531 524 504 547 535 524 521 531 536 508 519 551 543 517 545 556 543 519 549 534 525 555 543 562 519 560 523 533 510 547 556 521 551 517 499 534 0 0 0 0 0 0 0 0 0
0 0 0 0 0 0 0 0 0 0 0 0 0 0 0 0 0 0 0 0 0 0 0 0 0 496 501 495 501 491 489 497 500 505 499 497 495 498 498 500 504 502 504 501 500 494 507 497 489 496 504 508 507 506 504 506 506 507 507 513 509 501 507 519 509 505 507 507 513 497 522 521 497 518 529 519 575 551 562 571 554 556 530 586 607 514 556 569 553 563 549 552 548 581 555 542 554 541 528 549 591 579 569 566 551 537 551 593 586 572 0 0 0 590 0 0 0 0 0 0
0 0 0 0 0 0 0 0 0 0 0 0 0 0 0 0 0 0 0 0 0 0 0 0 480 486 491 481 489 492 507 492 500 487 501 498 494 497 504 498 498 500 487 498 492 506 494 494 492 501 489 501 499 509 505 508 504 503 494 507 509 505 506 497 499 512 504 503 502 506 506 502 506 503 518 496 511 529 532 515 502 538 533 539 524 518 522 514 507 514 498 509 523 520 541 546 529 542 535 512 520 525 548 544 512 547 548 509 556 543 0 0 0 0 0 0 0 0 0 0
0 0 0 0 0 0 0 0 0 0 0 0 0 0 0 0 0 0 0 0 0 0 0 0 487 493 497 499 501 490 500 497 488 496 486 501 494 485 487 502 503 505 508 498 499 507 507 503 507 507 504 505 500 505 502 500 511 507 503 507 506 508 506 507 505 508 507 496 511 514 505 508 508 503 513 527 530 536 543 523 519 559 556 532 584 566 522 550 544 512 527 549 524 550 558 535 529 579 556 543 544 529 554 522 560 563 548 570 525 553 0 0 0 0 0 0 0 0 0 0
0 0 0 0 0 0 0 0 0 0 0 0 0 0 0 0 0 0 0 0 0 0 0 513 489 497 494 500 498 483 481 497 502 497 498 493 506 502 497 501 499 498 506 501 497 510 500 504 495 505 495 507 505 514 510 503 510 503 499 506 509 500 507 500 501 503 514 506 509 505 511 507 511 506 512 516 531 532 505 563 542 524 518 555 525 523 547 556 572 566 550 561 549 588 567 523 572 530 529 557 543 552 545 563 532 559 546 589 547 0 0 0 0 0 0 0 0 0 0 0
0 0 0 0 0 0 0 0 0 0 0 0 0 0 0 0 0 0 0 0 0 0 0 478 486 492 492 493 489 496 485 496 491 489 487 495 482 486 485 499 487 494 488 500 507 500 490 495 488 500 497 506 503 497 496 498 499 506 501 499 497 500 501 501 501 506 500 502 503 502 507 502 509 499 507 500 519 518 528 532 528 480 521 527 534 527 531 527 507 539 516 526 511 530 521 525 540 504 530 559 548 545 530 522 530 527 515 513 534 494 491 501 0 0 0 0 0 0 0 0
0 0 0 0 0 0 0 0 0 0 0 0 0 0 0 0 0 0 0 0 0 0 516 493 497 493 496 496 494 493 497 501 504 502 505 500 497 492 492 487 504 503 501 507 499 501 500 509 504 502 500 508 505 499 503 503 508 510 503 510 505 506 511 505 504 511 501 516 509 511 509 503 511 514 515 515 531 552 550 547 580 533 550 581 565 563 590 534 532 552 570 561 551 573 551 552 535 557 569 570 560 547 569 555 540 581 554 576 600 557 556 595 607 0 0 0 0 0 0 0
0 0 0 0 0 0 0 0 0 0 0 0 0 0 0 0 0 0 0 0 0 0 489 483 480 486 495 484 492 491 479 495 488 485 494 497 489 488 495 497 496 503 500 493 503 498 500 503 493 492 504 504 499 502 499 508 508 501 507 499 508 500 501 505 512 510 504 513 506 496 502 505 507 509 515 513 510 506 503 524 536 523 533 518 534 501 508 522 514 526 521 562 527 545 507 526 528 526 529 521 482 512 482 552 545 556 558 523 482 562 485 477 0 0 0 0 0 0 0 0
0 0 0 0 0 0 0 0 0 0 0 0 0 0 0 0 0 0 0 0 0 0 479 483 486 484 490 490 480 488 491 491 494 491 488 487 483 489 492 493 489 491 494 493 490 497 497 491 493 497 493 493 499 493 497 496 510 503 503 501 504 510 506 511 497 508 503 500 507 501 500 498 510 505 505 502 499 525 507 513 494 497 517 477 509 507 502 513 472 511 482 463 485 507 504 497 495 502 482 507 496 480 469 511 473 525 515 493 501 525 491 515 492 473 0 0 0 0 0 0
0 0 0 0 0 0 0 0 0 0 0 0 0 0 0 0 0 0 0 0 0 0 513 494 498 488 492 494 497 498 484 491 492 496 488 483 488 491 497 489 499 499 504 497 493 498 497 501 498 505 494 505 501 494 501 501 503 504 505 500 506 503 505 514 503 500 509 507 505 498 515 510 504 506 504 502 509 517 537 551 511 526 528 535 512 545 548 539 535 537 504 538 529 538 534 515 528 552 532 540 557 542 546 523 548 528 548 509 551 515 553 545 533 0 0 0 0 0 0 0
0 0 0 0 0 0 0 0 0 0 0 0 0 0 0 0 0 0 0 0 0 0 463 478 479 487 493 487 494 488 485 489 489 482 482 486 489 491 496 490 488 489 493 498 493 490 492 494 495 496 496 497 497 501 506 504 498 505 501 502 502 510 497 500 502 503 496 493 498 508 503 499 502 505 512 496 507 506 532 493 503 511 521 491 511 520 496 512 513 510 483 510 512 478 481 508 487 482 503 515 494 464 512 511 508 543 507 484 503 476 469 497 490 0 0 0 0 0 0 0
0 0 0 0 0 0 0 0 0 0 0 0 0 0 0 0 0 0 0 0 0 0 484 480 494 487 485 483 487 494 498 493 485 493 495 484 488 486 496 491 491 499 494 494 495 493 491 499 501 497 503 491 497 498 501 498 504 499 499 501 499 498 509 508 504 495 501 503 495 503 495 499 505 509 505 510 515 508 532 521 529 514 524 516 526 518 537 520 503 512 523 524 515 494 533 555 521 523 550 517 532 522 514 510 526 530 476 526 543 584 568 528 540 0 0 0 0 0 0 0
0 0 0 0 0 0 0 0 0 0 0 0 0 0 0 0 0 0 0 0 0 429 477 484 482 489 503 494 490 482 474 489 488 497 484 487 499 490 499 495 492 503 492 497 493 494 496 501 495 489 499 497 497 501 498 497 498 500 505 497 504 501 504 503 509 504 505 500 502 506 504 506 500 504 503 506 510 501 520 530 541 503 514 520 499 532 541 503 519 529 503 525 515 506 541 521 498 533 545 484 542 534 550 494 506 522 567 507 499 506 506 0 0 0 0 0 0 0 0 0
0 0 0 0 0 0 0 0 0 0 0 0 0 0 0 0 0 0 0 0 0 465 479 479 482 482 491 489 480 479 484 478 487 483 486 483 490 487 484 493 496 495 497 488 496 494 490 495 494 489 497 496 496 498 502 504 500 499 497 502 496 496 504 498 498 500 501 501 498 503 502 495 505 502 503 507 501 493 521 491 493 487 481 501 513 507 504 484 510 523 496 476 508 511 486 500 487 499 487 492 476 479 492 469 457 498 514 498 511 467 499 493 0 0 0 0 0 0 0 0
0 0 0 0 0 0 0 0 0 0 0 0 0 0 0 0 0 0 0 0 0 469 477 480 480 477 484 487 480 485 481 485 487 488 480 488 492 497 497 489 486 489 495 493 492 496 497 498 500 498 494 498 498 499 493 499 498 494 500 497 510 501 505 499 506 502 507 503 506 500 499 508 506 513 514 501 501 515 532 493 527 516 522 521 521 506 517 497 531 537 509 481 506 558 509 529 516 528 528 530 537 512 547 559 513 534 536 569 528 551 526 551 508 550 506 0 0 0 0 0
0 0 0 0 0 0 0 0 0 0 0 0 0 0 0 0 0 0 0 0 0 428 481 468 483 481 485 473 486 484 479 484 481 483 488 486 487 487 485 490 492 488 486 490 495 494 492 493 491 492 495 499 499 498 498 497 498 507 504 498 494 501 504 495 503 504 502 500 495 503 503 503 506 498 504 511 498 506 501 490 507 489 486 492 484 501 480 514 501 501 501 508 496 517 526 496 506 515 513 522 506 540 467 486 523 484 522 518 468 460 539 511 476 0 0 0 0 0 0 0
0 0 0 0 0 0 0 0 0 0 0 0 0 0 0 0 0 0 0 0 0 463 493 482 479 475 487 474 482 485 485 478 487 481 493 488 483 487 489 486 491 493 492 492 494 492 490 496 495 492 495 500 494 502 499 498 494 497 503 496 505 496 502 498 501 499 499 501 501 500 496 510 499 504 497 496 497 506 504 505 503 510 503 511 486 509 507 505 517 526 482 484 516 515 508 501 470 541 475 509 521 511 496 489 515 496 502 509 493 486 476 486 459 0 0 0 0 0 0 0
0 0 0 0 0 0 0 0 0 0 0 0 0 0 0 0 0 0 0 0 0 475 481 485 479 477 480 477 481 487 485 480 485 486 488 485 485 488 494 486 489 494 492 492 493 486 496 494 491 496 491 496 491 498 499 497 493 496 506 502 496 492 500 498 496 501 508 503 498 504 498 503 511 508 506 500 508 500 520 507 522 515 526 518 521 507 492 501 501 487 512 533 492 499 518 547 524 505 500 534 541 532 513 530 527 527 539 509 546 519 538 540 573 545 0 0 0 0 0 0
0 0 0 0 0 0 0 0 0 0 0 0 0 0 0 0 0 0 0 0 0 464 474 480 480 477 481 474 482 477 483 479 483 483 487 488 482 486 480 489 493 487 490 494 492 487 498 490 490 500 494 495 494 498 489 500 497 496 499 494 498 496 497 500 500 496 495 499 502 508 500 500 504 501 494 501 495 493 500 496 504 482 503 502 488 516 510 499 486 497 494 525 500 507 491 472 513 468 487 493 517 535 533 501 517 477 518 510 530 493 512 502 464 0 0 0 0 0 0 0
0 0 0 0 0 0 0 0 0 0 0 0 0 0 0 0 0 0 0 0 0 465 494 473 473 473 487 479 480 479 480 483 484 483 482 481 482 483 486 493 492 488 487 491 486 488 491 495 493 491 493 499 498 497 495 498 496 500 490 502 504 495 501 499 499 501 499 504 497 504 502 499 496 502 494 493 501 503 510 500 516 501 501 523 510 533 508 509 513 489 520 526 492 501 519 504 509 521 520 508 541 499 495 518 523 524 508 524 529 487 517 537 530 0 0 0 0 0 0 0
0 0 0 0 0 0 0 0 0 0 0 0 0 0 0 0 0 0 0 0 0 482 477 474 474 480 471 480 480 480 480 484 481 485 488 482 485 489 488 494 490 482 487 492 490 495 492 497 494 494 495 495 495 495 495 497 501 499 496 499 499 497 500 495 502 495 494 497 497 502 499 504 501 502 497 495 500 499 499 510 521 500 510 499 511 524 520 504 509 497 499 502 515 496 490 493 489 495 502 521 508 493 519 544 499 533 513 509 507 503 488 499 504 497 0 0 0 0 0 0
0 0 0 0 0 0 0 0 0 0 0 0 0 0 0 0 0 0 0 0 0 423 466 475 475 478 474 477 475 478 475 475 476 483 485 481 482 481 483 481 483 490 491 490 491 483 486 489 489 495 490 489 490 494 497 495 495 499 492 497 495 496 497 495 494 495 497 499 500 498 496 496 500 497 496 494 496 497 504 485 490 493 485 491 492 476 491 512 486 508 491 486 472 492 515 476 481 510 504 497 467 489 474 474 511 487 498 489 494 490 457 481 468 438 0 0 0 0 0 0
0 0 0 0 0 0 0 0 0 0 0 0 0 0 0 0 0 0 0 0 0 522 478 477 473 473 485 481 473 484 476 486 483 480 487 486 486 484 485 491 486 489 494 488 489 491 488 494 494 494 494 496 491 496 497 497 493 496 497 498 496 496 499 502 500 498 497 500 496 491 495 489 500 499 500 497 489 495 502 498 502 500 500 485 503 514 502 525 514 512 495 522 501 504 511 498 468 499 515 522 530 481 519 506 531 532 506 509 549 511 515 558 523 504 0 0 0 0 0 0
0 0 0 0 0 0 0 0 0 0 0 0 0 0 0 0 0 0 0 0 0 0 472 473 475 475 478 475 481 478 474 480 485 480 482 478 486 486 483 484 485 480 488 490 490 490 490 490 493 493 494 497 491 489 497 496 494 497 492 494 496 496 501 497 497 499 496 495 497 493 497 496 494 493 498 499 496 493 493 501 502 492 479 484 492 487 500 505 500 492 493 504 512 505 524 480 509 499 519 511 495 489 484 468 505 484 481 551 480 476 461 450 530 488 0 0 0 0 0 0
0 0 0 0 0 0 0 0 0 0 0 0 0 0 0 0 0 0 0 0 0 0 490 472 473 473 482 476 481 479 485 476 474 479 478 478 481 488 488 479 491 488 486 485 486 489 490 494 489 487 491 496 495 489 490 492 493 492 491 492 496 497 493 498 497 497 498 493 492 492 497 496 499 494 493 499 492 498 508 488 503 522 510 495 519 509 515 491 505 513 537 508 493 534 519 487 488 509 507 487 488 497 503 489 505 506 486 483 478 476 495 459 501 504 0 0 0 0 0 0
0 0 0 0 0 0 0 0 0 0 0 0 0 0 0 0 0 0 0 0 0 0 536 471 475 479 475 474 479 475 478 479 482 486 479 482 487 486 477 491 488 484 489 486 490 488 490 489 488 493 489 496 490 490 493 499 495 492 494 498 497 491 493 496 502 496 501 491 494 491 498 494 489 497 494 501 501 512 496 509 512 506 522 509 506 516 510 507 510 520 527 534 521 530 516 533 515 518 512 511 519 510 528 521 508 518 492 539 515 503 530 540 526 517 558 480 0 0 0 0
0 0 0 0 0 0 0 0 0 0 0 0 0 0 0 0 0 0 0 0 0 0 579 472 473 477 472 478 477 476 477 475 481 481 479 483 483 480 485 487 487 487 485 485 486 487 486 487 493 491 489 494 491 489 493 496 495 493 493 497 495 491 497 496 496 497 497 494 495 497 491 490 495 495 492 493 493 483 486 495 496 512 489 503 497 505 501 491 483 517 494 510 494 479 504 512 502 482 489 479 513 490 517 499 494 479 462 475 501 488 461 447 442 464 516 0 0 0 0 0
0 0 0 0 0 0 0 0 0 0 0 0 0 0 0 0 0 0 0 0 0 0 0 478 469 473 478 475 474 472 475 483 482 479 474 482 484 483 481 480 482 486 485 488 491 482 487 487 486 487 489 491 498 496 492 490 491 496 488 493 489 496 492 494 494 490 491 498 494 495 496 492 500 489 495 500 494 500 511 501 499 496 492 502 492 501 503 499 500 495 504 506 511 506 518 508 519 512 526 499 517 505 507 497 514 485 469 498 520 504 497 538 550 0 469 499 0 0 0 0
0 0 0 0 0 0 0 0 0 0 0 0 0 0 0 0 0 0 0 0 0 0 0 511 476 477 476 473 472 475 480 475 477 476 480 478 479 480 483 483 483 485 490 489 483 485 489 492 493 492 486 486 485 491 496 487 494 492 498 491 491 495 495 497 491 493 495 500 495 498 496 496 497 489 494 493 490 489 498 493 507 504 501 517 497 505 503 494 521 506 488 514 517 533 527 496 521 481 514 502 517 532 535 515 517 498 486 511 498 521 493 513 518 0 0 0 0 0 0 0
0 0 0 0 0 0 0 0 0 0 0 0 0 0 0 0 0 0 0 0 0 0 0 508 465 474 471 469 472 473 471 475 480 475 476 476 478 478 476 479 483 485 486 485 485 483 486 488 489 483 487 493 494 490 492 485 493 490 486 489 494 487 489 492 496 496 493 494 496 492 496 491 493 493 496 488 480 482 496 488 496 508 504 488 489 496 499 489 524 485 509 512 487 501 478 472 472 471 492 513 508 495 489 433 458 478 472 469 480 482 459 447 466 454 440 0 0 0 0 0
0 0 0 0 0 0 0 0 0 0 0 0 0 0 0 0 0 0 0 0 0 0 0 0 481 472 464 475 475 470 479 476 472 483 480 477 476 477 479 480 477 485 486 483 487 486 486 489 487 486 487 488 487 488 491 490 493 493 489 495 499 494 491 493 491 494 497 498 493 496 495 496 496 492 495 492 496 501 509 503 499 511 527 515 535 518 505 512 495 504 503 504 506 504 505 505 526 510 513 513 500 527 504 540 498 542 505 520 490 506 481 543 538 515 515 476 0 0 0 0
0 0 0 0 0 0 0 0 0 0 0 0 0 0 0 0 0 0 0 0 0 0 0 0 488 469 470 472 468 472 476 474 473 473 472 479 482 475 473 483 486 484 480 483 482 486 488 485 485 495 492 490 487 491 491 489 493 493 490 491 490 487 493 491 490 494 490 487 493 491 494 495 488 492 489 489 486 485 480 480 501 499 483 501 489 535 504 499 503 485 507 495 506 500 518 515 505 497 517 485 496 517 498 495 466 485 493 488 467 466 466 484 489 442 419 484 0 0 0 0
0 0 0 0 0 0 0 0 0 0 0 0 0 0 0 0 0 0 0 0 0 0 0 0 0 476 463 468 467 472 469 467 477 473 469 474 479 479 477 482 480 475 484 485 481 484 483 483 478 485 486 479 491 487 493 491 491 486 486 489 484 489 486 492 493 492 490 499 492 493 494 491 492 488 488 487 485 479 496 495 487 480 487 487 484 492 484 481 490 484 493 488 481 490 493 470 497 495 505 472 488 516 477 479 442 469 470 442 487 448 482 462 497 485 0 0 0 0 0 0
0 0 0 0 0 0 0 0 0 0 0 0 0 0 0 0 0 0 0 0 0 0 0 0 0 548 468 474 469 479 468 474 474 478 479 481 478 475 482 477 486 484 483 484 484 482 479 485 488 490 489 486 487 490 490 494 489 490 488 494 485 493 490 490 490 497 496 487 492 485 493 490 492 491 486 494 488 475 495 492 504 487 484 488 498 492 493 501 520 495 505 501 508 509 504 524 505 529 520 518 507 497 522 521 484 511 482 473 492 508 511 476 497 535 0 0 0 0 0 0
0 0 0 0 0 0 0 0 0 0 0 0 0 0 0 0 0 0 0 0 0 0 0 0 0 0 458 465 460 468 460 466 472 472 471 475 475 472 477 477 479 476 482 482 483 485 483 482 484 481 484 489 487 486 488 488 492 487 490 486 490 485 487 488 490 488 493 488 492 489 492 489 487 488 482 467 481 488 479 494 478 488 491 488 484 496 478 481 465 496 503 501 479 490 473 495 476 483 484 483 485 508 456 459 506 453 469 491 461 443 474 452 447 457 0 0 0 0 0 0
0 0 0 0 0 0 0 0 0 0 0 0 0 0 0 0 0 0 0 0 0 0 0 0 0 0 0 469 467 465 468 472 473 470 473 478 474 479 475 481 481 483 480 480 481 482 483 479 486 488 485 489 489 488 486 484 490 489 485 488 488 485 491 489 489 491 492 487 494 493 493 485 488 488 488 491 484 499 499 492 494 505 498 498 509 490 504 501 490 468 483 509 487 500 478 494 501 489 519 520 502 508 505 492 519 512 472 493 507 481 470 503 489 457 0 0 0 0 0 0
0 0 0 0 0 0 0 0 0 0 0 0 0 0 0 0 0 0 0 0 0 0 0 0 0 0 0 523 470 465 470 469 472 472 471 470 478 472 472 476 477 476 482 480 479 479 479 483 480 485 483 484 488 484 484 484 493 483 482 486 484 491 491 488 488 490 490 490 494 488 492 487 479 488 484 498 482 489 477 480 482 487 487 477 487 508 501 471 490 492 465 480 476 520 477 514 513 513 511 477 512 490 485 483 463 476 483 515 472 446 486 456 478 470 0 0 0 0 0 0
0 0 0 0 0 0 0 0 0 0 0 0 0 0 0 0 0 0 0 0 0 0 0 0 0 0 0 0 490 464 461 467 469 468 470 466 472 474 470 471 477 483 480 477 477 478 478 477 481 484 484 477 486 482 479 483 487 486 487 485 488 480 485 488 483 488 485 486 487 490 486 484 475 493 488 487 472 475 483 483 490 467 477 473 485 490 490 484 483 461 481 494 467 480 494 475 489 483 473 468 485 477 462 474 483 476 474 478 449 476 420 449 469 423 464 0 0 0 0 0
0 0 0 0 0 263 235 257 337 0 0 0 0 0 0 0 0 0 0 0 0 0 0 0 0 0 0 0 0 517 460 464 468 469 466 470 469 466 472 473 479 473 482 478 477 479 482 480 483 481 484 479 476 487 482 483 486 487 484 488 486 486 487 488 483 486 484 481 483 489 482 488 474 484 486 481 492 493 494 491 489 493 480 502 500 501 475 470 503 501 472 499 520 498 493 523 503 508 499 492 484 504 478 492 453 464 486 528 471 486 517 475 481 478 473 0 0 0 0 0
0 0 0 0 229 226 233 230 236 286 344 0 0 0 0 0 0 0 0 0 0 0 0 0 0 0 0 0 0 0 459 459 462 470 469 473 467 467 474 468 471 473 469 470 473 470 475 473 479 475 485 484 482 483 477 483 481 481 484 480 489 485 485 482 483 487 482 483 483 472 482 460 479 469 480 474 478 488 484 465 486 477 471 483 479 481 489 464 478 490 494 475 469 471 477 490 477 461 495 480 470 480 485 473 452 461 444 461 468 450 454 446 433 0 0 0 0 0 0 0
0 0 0 240 223 233 222 220 233 242 335 0 0 0 0 0 0 0 0 0 0 0 0 0 0 0 0 0 0 0 0 460 455 463 463 466 465 467 465 472 471 469 468 469 469 473 468 470 472 471 479 475 478 472 475 477 482 475 475 477 478 487 474 483 484 479 483 478 476 465 480 473 471 469 473 476 475 481 484 482 480 486 494 476 475 480 463 477 492 485 486 477 475 473 463 478 478 454 470 487 481 484 515 445 475 482 445 455 476 459 468 433 447 403 437 0 0 0 0 0
255 230 276 247 278 282 282 224 234 244 318 0 429 436 432 436 436 436 424 431 451 484 443 456 449 445 455 457 456 461 440 467 461 465 464 461 463 469 462 469 466 470 471 470 471 470 474 477 480 476 476 477 474 480 477 477 480 474 479 480 474 478 480 482 481 477 482 479 482 480 481 467 472 476 476 472 480 470 485 469 471 476 477 475 476 491 471 499 483 467 472 477 492 492 486 475 468 488 473 494 483 488 514 511 464 526 471 473 500 489 487 529 485 429 510 0 0 0 0 0
177 206 174 175 215 226 255 227 224 258 375 389 387 398 369 406 384 418 385 401 403 409 424 419 428 416 412 433 436 450 453 450 455 454 451 449 453 456 459 453 463 457 459 460 463 459 469 468 471 474 468 468 470 472 468 467 468 470 471 474 468 471 473 472 471 472 472 474 461 468 466 469 467 457 467 450 461 452 450 454 459 456 446 451 453 463 446 444 445 452 451 446 435 444 445 444 439 440 450 437 425 447 430 442 408 424 423 434 432 430 416 451 441 408 451 447 462 0 0 0
202 214 212 219 242 234 228 228 229 312 369 365 369 357 349 381 391 398 364 386 390 387 384 388 406 419 417 422 419 443 443 447 440 445 442 449 442 459 440 448 441 454 446 447 446 456 452 457 457 458 453 452 462 453 457 456 457 464 464 461 461 467 457 459 461 458 460 462 454 456 459 456 444 442 443 440 425 439 429 433 433 430 420 418 424 423 430 425 435 424 429 429 432 429 439 403 426 427 426 414 434 428 430 412 433 423 394 411 423 429 425 419 411 413 439 408 420 428 383 409
268 282 240 225 232 225 227 236 237 341 327 322 342 337 334 320 343 347 346 341 348 333 358 376 371 393 396 408 410 413 416 423 419 433 430 427 428 430 433 431 427 435 436 431 433 434 439 437 439 439 438 442 440 443 444 444 449 443 441 444 449 442 444 443 439 441 437 433 437 437 431 438 428 425 416 418 418 401 406 399 390 391 395 395 399 407 404 392 404 393 400 398 401 395 389 394 389 396 384 385 407 397 384 398 390 386 374 387 397 384 381 405 392 378 381 394 378 389 396 327
289 270 272 242 226 231 229 247 286 298 305 291 309 307 314 311 308 307 312 304 322 316 318 340 349 366 380 377 395 391 387 395 404 406 398 401 406 412 415 411 418 417 414 409 416 414 418 418 414 418 417 420 420 419 420 423 422 432 418 419 420 424 416 416 414 414 420 418 414 410 410 411 406 400 395 398 382 375 369 357 359 357 354 356 366 357 351 355 363 351 354 358 361 356 367 349 346 362 370 364 349 366 355 357 352 362 335 360 346 361 341 346 343 343 331 340 357 335 343 339
294 287 287 274 262 256 254 294 278 285 289 283 280 292 284 296 289 285 289 289 308 313 310 320 336 358 364 369 368 373 395 392 388 395 386 387 390 393 391 400 392 385 395 393 392 392 396 396 397 386 392 399 402 405 397 388 398 402 401 400 390 401 400 404 397 382 395 397 395 394 394 388 397 384 372 365 359 358 345 335 347 324 332 346 330 337 333 340 337 334 327 338 338 337 339 334 337 326 329 340 342 326 339 343 346 339 341 352 336 325 336 354 351 341 346 339 349 363 312 350
236 244 243 244 249 246 251 253 264 253 254 256 255 261 250 262 259 275 268 264 275 282 293 296 306 316 334 339 341 361 354 365 365 361 353 367 363 366 368 366 371 372 368 370 368 368 368 368 367 372 374 379 373 375 384 374 376 379 372 376 377 372 375 378 374 371 372 369 372 366 366 365 358 355 347 341 334 314 312 307 307 294 303 291 305 308 293 299 294 293 301 300 314 297 305 308 304 294 291 305 310 298 306 310 295 289 307 311 312 304 310 300 309 326 277 296 293 304 310 316
223 227 236 231 232 229 237 234 247 243 241 241 244 251 241 245 247 246 247 246 259 261 275 287 298 295 314 324 329 329 332 329 342 348 337 335 346 346 339 344 347 350 346 346 349 344 346 347 347 343 342 340 342 355 348 348 348 349 359 347 348 346 346 339 346 347 353 350 354 349 340 341 338 339 329 313 299 304 296 288 276 281 275 275 278 278 278 282 272 275 274 271 283 280 275 274 271 277 276 277 285 275 279 286 284 275 273 282 278 277 273 282 275 271 284 289 263 291 259 284
214 215 234 233 233 218 228 224 222 230 235 228 228 229 236 226 234 229 232 239 246 246 257 268 275 279 294 298 303 308 310 325 322 317 324 320 322 323 324 328 321 323 323 323 323 322 328 328 329 324 326 327 329 325 325 327 331 325 334 330 324 328 327 325 325 329 331 327 327 320 319 320 322 310 306 296 284 283 274 271 273 265 263 265 260 268 258 257 257 255 258 266 265 261 257 266 265 256 268 257 261 255 261 270 259 253 261 260 270 273 266 266 265 257 269 270 267 278 277 281
199 204 197 214 208 209 212 211 203 206 207 205 203 208 209 207 223 214 220 223 223 231 241 245 252 263 270 273 282 287 289 291 295 290 292 290 298 295 301 297 297 295 293 297 300 297 300 299 303 303 303 299 303 302 296 301 305 308 301 298 303 306 299 303 302 306 295 298 306 298 298 296 299 290 286 279 271 260 251 244 247 238 244 247 236 244 247 243 240 249 238 242 243 237 241 241 233 237 231 241 233 244 243 235 238 233 243 233 245 240 246 248 255 250 248 247 246 229 253 233
196 202 208 201 204 207 207 203 203 201 204 198 191 188 209 190 208 205 212 210 212 226 236 237 243 252 253 261 269 267 269 273 273 269 279 279 282 282 282 286 277 279 287 289 282 281 279 280 282 285 279 284 281 288 280 285 283 287 285 286 283 286 288 285 284 286 284 289 281 283 286 283 280 279 265 267 250 246 240 230 231 229 231 232 232 227 225 226 231 228 230 229 224 231 228 229 227 229 227 228 222 234 228 230 231 222 229 230 222 235 235 238 260 244 250 244 240 231 247 240
179 173 190 191 185 183 185 190 176 182 182 184 186 182 181 183 188 183 183 190 213 210 223 226 228 232 239 244 245 249 249 255 257 255 261 257 257 265 267 264 263 260 264 269 260 263 271 265 262 264 266 269 267 266 266 266 263 266 269 272 269 266 263 271 267 271 270 268 265 265 269 257 256 251 253 245 236 231 225 223 215 220 215 214 219 225 215 209 215 217 215 223 221 213 222 216 212 214 209 211 218 222 215 207 208 207 221 213 218 218 227 229 225 219 219 218 237 227 220 238
174 167 167 176 175 180 176 178 178 176 184 184 179 182 187 184 183 186 187 184 183 194 206 216 215 214 221 221 228 230 234 235 242 242 241 242 241 246 244 242 245 243 247 249 246 249 245 243 243 249 244 253 245 249 242 244 249 251 249 255 248 246 251 249 248 251 251 247 243 247 245 240 239 236 237 221 221 216 198 200 194 190 188 182 186 192 193 197 191 191 190 193 197 187 188 191 182 184 188 193 187 205 191 189 185 182 182 185 188 200 200 199 218 197 206 213 202 200 216 204
171 175 172 173 175 175 175 172 178 175 176 174 177 176 181 178 176 183 186 184 186 186 184 189 206 208 218 217 213 223 224 227 225 225 228 228 226 231 231 229 226 234 235 231 233 236 228 226 230 232 235 233 234 229 233 231 234 233 236 244 235 238 239 233 234 234 235 230 234 233 233 230 230 227 218 217 213 196 188 198 196 195 191 193 192 186 187 192 193 193 191 191 192 179 187 189 183 188 188 182 188 185 182 181 188 183 188 182 176 175 178 184 194 201 203 214 205 200 202 210
159 163 165 171 172 167 171 168 167 169 163 162 164 167 171 168 175 176 174 178 177 179 178 190 188 183 182 190 207 208 211 199 193 211 211 219 215 199 197 198 214 221 218 214 217 222 218 217 218 220 216 221 220 222 220 221 220 222 220 222 220 220 225 217 218 218 214 216 219 218 218 202 216 197 191 192 187 187 194 189 185 183 188 183 182 182 187 182 184 182 186 178 185 177 184 180 182 179 180 179 183 186 184 180 180 178 174 180 179 174 181 179 171 180 181 171 173 169 167 177
150 155 161 155 159 164 155 162 163 162 157 159 162 155 161 161 163 168 162 172 170 177 181 184 184 186 184 188 182 187 181 184 182 184 183 193 187 190 184 185 193 190 190 192 199 196 192 193 190 193 196 194 196 198 197 190 197 195 191 192 200 195 197 187 194 190 190 196 193 194 195 196 195 190 189 194 193 188 182 180 176 176 178 173 173 169 174 176 180 177 174 172 172 166 168 171 169 173 165 172 170 171 173 172 177 173 170 164 171 166 167 175 167 174 170 169 174 170 176 173
147 149 151 153 155 152 155 159 160 160 160 157 155 154 159 157 160 162 158 165 167 169 177 176 178 177 179 183 185 185 190 191 188 189 188 187 192 190 190 191 196 195 189 194 194 195 194 195 195 191 197 199 195 197 197 196 197 199 199 188 200 190 200 190 194 198 198 199 197 196 194 195 192 192 190 186 187 185 178 173 171 173 167 165 168 167 170 166 167 172 168 168 174 170 167 170 166 163 164 165 167 169 173 166 163 162 163 164 166 168 169 169 172 173 174 169 172 166 171 160
145 143 142 145 144 147 146 148 155 151 146 149 149 156 149 149 151 150 155 164 161 161 165 170 166 170 172 177 173 179 173 180 181 180 177 179 180 180 183 184 184 181 185 185 182 184 186 183 186 186 184 185 186 187 188 186 187 189 0 190 186 185 185 186 186 189 187 182 183 187 185 182 181 180 174 175 173 174 169 167 160 159 165 159 157 161 165 161 162 161 157 159 157 160 162 160 154 158 163 160 159 160 160 157 151 160 155 156 159 161 154 159 155 156 155 162 158 160 162 164
134 139 139 141 139 145 148 146 144 146 146 142 141 144 142 145 143 145 151 148 157 161 164 161 166 166 169 168 169 171 170 173 176 173 170 172 174 170 173 177 175 181 176 177 175 178 176 180 176 174 180 180 179 179 182 179 179 0 0 179 179 179 179 180 177 179 176 178 178 173 170 178 175 174 172 172 167 166 159 163 161 155 155 156 156 156 157 155 154 158 150 155 156 153 155 154 149 155 155 154 157 148 152 150 149 149 146 156 166 156 156 150 148 149 150 151 149 159 153 167
136 131 130 137 143 141 146 137 139 143 142 140 143 144 141 141 142 150 142 145 148 155 155 158 161 158 159 163 164 165 162 164 166 164 166 166 165 167 167 170 171 0 172 168 172 173 169 172 173 173 175 172 175 174 175 0 175 172 0 175 174 0 0 176 170 171 173 169 173 170 168 166 171 169 167 164 164 159 154 153 149 154 150 148 153 151 151 147 149 156 141 152 149 151 147 148 152 154 152 148 150 143 145 149 148 143 140 141 148 151 145 145 149 151 149 152 148 160 146 154
128 121 127 125 134 133 141 139 132 122 136 132 123 134 137 133 135 136 134 140 139 146 147 151 148 157 157 157 157 159 158 156 157 163 157 154 165 162 0 0 0 0 0 0 0 0 0 164 165 166 168 165 165 166 0 0 168 166 0 0 0 0 0 0 165 166 165 0 160 161 162 159 160 159 150 155 153 153 148 149 148 144 146 145 143 149 146 143 144 146 143 145 142 143 139 136 143 145 139 140 141 141 142 137 136 136 133 139 138 137 138 147 147 143 141 137 138 136 143 129
125 120 121 126 126 134 133 129 136 123 125 130 132 125 125 125 120 136 139 135 139 143 145 148 148 146 155 151 152 157 153 152 157 157 154 154 155 0 0 0 0 0 0 0 0 0 0 0 0 160 164 159 0 0 0 0 0 0 0 0 0 0 0 0 0 159 0 0 0 0 0 157 158 153 152 148 150 151 148 146 140 143 146 140 138 142 141 137 142 142 137 135 139 143 136 135 143 143 137 134 143 135 138 135 132 136 137 140 138 141 132 154 146 141 139 134 139 129 136 160
109 106 120 123 129 128 118 132 128 128 132 124 120 116 116 131 125 133 130 132 135 133 135 142 139 141 144 144 142 151 150 147 152 149 148 149 0 0 0 0 0 0 0 0 0 0 0 0 153 154 155 0 0 0 0 0 0 0 0 0 0 0 0 0 0 0 0 0 0 0 0 0 148 147 149 147 143 142 143 145 130 140 127 128 125 126 137 136 129 131 135 136 131 125 120 135 139 136 133 133 127 136 136 132 133 129 130 126 132 129 133 136 143 142 136 139 135 127 118 132
103 109 112 110 106 110 120 118 115 118 117 116 118 112 127 122 124 120 127 116 132 127 127 122 134 141 138 139 141 143 143 143 143 143 143 143 0 0 0 0 0 0 0 0 0 0 0 0 142 0 0 0 0 0 0 0 0 0 0 0 0 0 0 0 0 0 0 0 0 0 0 0 143 140 141 140 139 138 127 131 124 122 122 124 125 121 124 126 123 126 122 123 113 126 126 133 125 124 119 122 117 130 133 129 119 131 127 127 138 132 130 128 108 131 110 125 110 106 119 128
110 110 117 117 118 117 117 124 118 115 115 118 117 117 121 121 118 128 123 116 120 117 121 114 136 138 138 137 0 140 136 0 0 138 139 140 0 0 0 0 0 0 0 0 0 0 0 0 0 0 0 0 0 0 0 0 0 0 0 0 0 0 0 0 0 0 0 0 0 0 0 0 0 134 126 135 124 125 121 126 119 118 122 125 119 119 119 119 121 116 122 127 116 114 108 122 117 121 122 119 118 126 129 122 122 113 117 124 112 130 126 110 126 117 131 131 108 142 148 151
103 101 108 106 104 99 107 103 102 102 107 102 103 108 106 105 105 115 116 109 111 113 112 115 116 118 124 118 122 124 0 0 0 0 125 0 0 0 0 0 0 0 0 0 0 0 0 0 0 0 0 0 0 0 0 0 0 0 0 0 0 0 0 0 0 0 0 0 0 0 0 0 129 0 0 125 122 118 119 114 120 116 108 115 111 112 112 115 113 114 115 116 107 109 109 107 112 115 111 108 111 113 112 113 113 113 109 108 103 100 102 108 106 121 119 99 107 134 112 137
99 100 91 96 101 102 104 101 99 106 99 104 104 105 106 104 106 112 116 106 108 110 106 108 117 110 114 116 119 120 0 126 0 0 0 0 0 0 0 0 0 0 0 0 0 0 0 0 0 0 0 0 0 0 0 0 0 0 0 0 0 0 0 0 0 0 0 0 0 0 0 0 0 124 0 116 121 117 113 109 112 109 104 104 112 108 107 114 102 110 114 114 111 112 109 115 107 108 100 116 110 109 110 107 111 115 112 109 118 116 101 104 116 102 107 134 113 135 110 141
95 102 100 102 95 95 100 90 95 98 95 98 103 93 98 93 107 103 112 112 111 110 97 111 113 107 112 113 113 121 120 119 119 0 0 0 0 0 0 0 0 0 0 0 0 0 0 0 0 0 0 0 0 0 0 0 0 0 0 0 0 0 0 0 0 0 0 0 0 0 0 0 122 121 110 120 113 118 116 119 106 112 101 115 104 107 105 100 101 104 106 108 109 96 99 99 104 104 110 105 105 111 111 105 109 108 110 94 106 100 103 98 103 100 109 101 133 132 127 120
86 82 79 86 83 82 84 92 90 85 90 92 96 93 91 89 76 93 88 86 90 86 99 103 96 101 115 107 0 114 108 104 117 0 0 0 0 0 0 0 0 0 0 0 0 0 0 0 0 0 0 0 0 0 0 0 0 0 0 0 0 0 0 0 0 0 0 0 0 0 0 114 111 108 105 109 108 105 103 95 101 103 96 94 99 98 85 101 103 98 90 95 100 82 85 97 95 104 88 91 86 95 92 88 85 94 93 94 89 89 83 91 76 94 95 85 92 79 83 100
94 87 91 88 98 92 99 104 92 94 93 92 94 92 96 96 96 93 101 95 96 104 105 102 101 103 107 106 0 105 110 109 114 113 119 108 0 0 0 0 0 120 0 0 0 0 0 0 0 0 0 0 0 0 0 0 0 0 0 0 114 0 0 0 115 0 0 0 113 0 105 112 115 110 116 107 109 109 102 98 109 105 104 89 97 100 100 103 102 106 107 106 107 100 101 104 101 93 97 113 100 97 93 98 95 109 104 91 88 87 94 93 90 108 105 101 115 118 140 161
86 92 90 87 96 96 91 92 88 98 84 87 87 90 88 85 92 98 96 94 96 93 97 109 88 103 105 102 102 107 91 103 105 105 99 102 0 113 113 0 107 0 0 0 0 0 0 0 0 0 0 0 0 0 111 0 0 109 0 0 110 104 104 109 116 109 105 101 112 106 111 100 99 101 111 109 101 91 101 96 95 93 97 88 96 91 94 102 103 96 97 105 106 85 83 94 90 87 98 88 91 85 93 96 89 81 98 91 95 87 91 93 88 89 97 95 115 88 95 87
84 88 83 86 89 93 102 89 89 80 89 85 84 91 87 89 87 93 88 86 80 94 95 83 86 94 93 90 105 88 97 99 101 98 91 110 103 99 104 102 104 97 99 108 105 91 0 0 98 0 0 109 105 92 101 108 105 99 108 102 99 109 108 102 101 111 104 97 99 106 98 107 104 101 104 94 96 95 99 91 95 92 93 96 88 96 88 94 96 93 101 85 93 92 94 90 83 94 92 83 87 84 91 88 89 80 96 87 82 92 89 100 100 108 86 92 109 91 104 128
83 79 83 84 82 82 101 101 87 84 85 86 82 90 85 90 88 94 89 96 82 100 94 85 81 98 95 87 96 100 94 86 99 98 99 94 99 99 96 105 105 95 98 105 98 95 104 0 104 103 101 108 99 97 100 105 100 105 94 108 105 96 92 104 101 98 97 102 96 108 96 105 102 94 103 86 96 96 96 97 98 97 84 92 96 95 90 86 95 88 82 98 86 91 82 83 94 94 101 87 80 96 84 92 84 104 90 92 90 86 90 104 111 123 112 122 113 91 133 124
78 74 69 69 79 83 87 87 87 81 84 79 86 77 86 83 87 86 85 86 84 85 93 87 87 84 89 92 91 95 88 93 83 94 94 95 96 96 87 97 91 89 84 90 97 95 91 100 94 89 94 98 97 88 87 86 100 90 97 97 99 97 97 96 82 82 96 93 94 83 93 97 92 91 85 95 92 95 91 95 85 90 82 87 81 91 87 89 84 87 93 78 87 79 85 85 84 93 80 86 81 86 81 73 80 84 86 82 83 79 84 80 90 83 95 95 90 85 78 55
72 74 80 88 73 87 88 88 84 82 83 90 81 84 86 89 86 89 83 88 85 91 84 92 91 86 86 86 89 90 95 94 92 100 87 90 96 94 96 96 95 96 94 88 89 99 89 88 101 87 92 96 97 86 101 96 86 97 89 97 103 84 92 94 94 88 88 97 106 95 97 100 86 95 91 85 97 96 84 96 89 90 90 90 78 88 90 79 91 90 77 91 75 82 90 81 89 82 79 84 83 82 81 77 80 85 85 85 88 98 87 86 78 101 137 117 136 115 116 224
