0 0 0 0 0 0 0 0 0 0 0 0 0 0 0 0 0 0 0 0 0 0 0 0 0 0 0 0 0 0 0 0 0 0 0 0 0 0 0 0 0 0 0 0 0 0 0 0 0 0 0 0 0 0 0 0 0 0 0 0 0 0 0 0 0 0 0 0 0 0 0 0 0 0 0 0 0 0 0 0 0 0 0 0 0 0 0 0 0 0 0 0 0 0 0 0 0 0 0 0 0 0 0 0 0 0 0 0 0 0 0 0 0 0 0 0 0 0 0 0
0 0 0 0 0 0 0 0 0 0 0 0 0 0 0 0 0 0 0 0 0 0 0 0 0 0 0 0 0 0 0 0 0 0 0 0 0 0 0 0 0 0 0 0 0 0 0 0 0 0 0 0 0 0 0 0 0 0 0 0 0 0 0 0 0 0 0 0 0 0 0 0 0 0 0 0 0 0 0 0 0 0 0 0 0 0 0 0 0 0 0 0 0 0 0 0 0 0 0 0 0 0 0 0 0 0 0 0 0 0 0 0 0 0 0 0 0 0 0 0
0 0 0 0 0 0 0 0 0 0 0 0 0 0 0 0 0 0 0 0 0 0 0 0 0 0 0 0 0 0 0 0 0 0 0 0 0 0 0 0 0 0 0 0 0 0 0 0 0 0 0 0 0 0 0 0 0 0 0 0 0 0 0 0 0 0 0 0 0 0 0 0 0 0 0 0 0 0 0 0 0 0 0 0 0 0 0 0 0 0 0 0 0 0 0 0 0 0 0 0 0 0 0 0 0 0 0 0 0 0 0 0 0 0 0 0 0 0 0 0
0 0 0 0 0 0 0 0 0 0 0 0 0 0 0 0 0 0 0 0 0 0 0 0 0 0 0 0 0 0 0 0 0 0 0 0 0 0 0 0 0 0 0 0 0 0 0 0 0 0 0 0 0 0 0 0 0 0 0 0 0 0 0 0 0 0 0 0 0 0 0 0 0 0 0 0 0 0 0 0 0 0 0 0 0 0 0 0 0 0 0 0 0 0 0 0 0 0 0 0 0 0 0 0 0 0 0 0 0 0 0 0 0 0 0 0 0 0 0 0
0 0 0 0 0 0 0 0 0 0 0 0 0 0 0 0 0 0 0 0 0 0 0 0 0 0 0 0 0 0 0 0 0 0 0 0 0 0 0 0 0 0 0 0 0 0 0 0 0 0 0 0 0 0 0 0 0 0 0 0 0 0 0 0 0 0 0 0 0 0 0 0 0 0 0 0 0 0 0 0 0 0 0 0 0 0 0 0 0 0 0 0 0 0 0 0 0 0 0 0 0 0 0 0 0 0 0 0 0 0 0 0 0 0 0 0 0 0 0 0
0 0 0 0 0 0 0 0 0 0 0 0 0 0 0 0 0 0 0 0 0 0 0 0 0 0 0 0 0 0 0 0 0 0 0 0 0 0 0 487 505 485 477 503 529 509 508 508 517 501 524 491 516 522 503 0 0 0 0 0 0 0 0 0 0 0 0 0 0 0 0 0 0 0 0 0 0 0 0 0 0 0 0 0 0 0 0 0 0 0 0 0 0 0 0 0 0 0 0 0 0 0 0 0 0 0 0 0 0 0 0 0 0 0 0 0 0 0 0 0
0 0 0 0 0 0 0 0 0 0 0 0 0 0 0 0 0 0 0 0 0 0 0 0 0 0 0 0 0 0 0 0 0 0 0 0 0 583 523 529 518 504 498 517 503 499 519 515 524 518 519 511 524 512 525 513 522 514 549 543 0 0 0 0 0 0 0 0 0 0 0 0 0 0 0 0 0 0 0 0 0 0 0 0 0 0 0 0 0 0 0 0 0 0 0 0 0 0 0 0 0 0 0 0 0 0 0 0 0 0 0 0 0 0 0 0 0 0 0 0
0 0 0 0 0 0 0 0 0 0 0 0 0 0 0 0 0 0 0 0 0 0 0 0 0 0 0 0 0 0 0 0 0 0 0 506 497 509 499 488 510 488 507 499 498 511 512 514 526 501 511 509 497 516 522 522 499 514 503 507 512 524 505 531 518 0 0 0 0 0 0 0 0 0 0 0 0 0 0 0 0 0 0 0 0 0 0 0 0 0 0 0 0 0 0 0 0 0 0 0 0 0 0 0 0 0 0 0 0 0 0 0 0 0 0 0 0 0 0 0
0 0 0 0 0 0 0 0 0 0 0 0 0 0 0 0 0 0 0 0 0 0 0 0 0 0 0 0 0 0 0 0 0 483 508 499 501 496 494 499 503 489 504 502 491 498 493 486 504 505 504 490 522 495 500 506 502 493 498 510 489 512 495 496 492 480 495 520 501 495 555 509 545 460 564 542 542 532 492 496 0 0 0 0 0 0 0 0 0 0 0 0 0 0 0 0 0 0 0 0 0 0 0 0 0 0 0 0 0 0 0 0 0 0 0 0 0 0 0 0
0 0 0 0 0 0 0 0 0 0 0 0 0 0 0 0 0 0 0 0 0 0 0 0 0 0 0 0 0 0 0 549 504 496 495 494 495 506 499 498 508 501 499 500 508 491 507 503 505 503 518 505 510 498 499 507 500 506 512 500 509 498 506 518 496 504 515 532 522 529 561 538 562 554 599 619 578 597 561 568 596 524 558 534 0 542 0 598 581 592 603 565 549 587 621 556 594 595 572 517 0 568 599 549 0 0 0 0 0 0 0 0 0 0 0 0 0 0 0 0
0 0 0 0 0 0 0 0 0 0 0 0 0 0 0 0 0 0 0 0 0 0 0 0 0 0 0 0 0 0 468 489 493 492 486 486 494 481 491 500 506 493 498 490 490 504 495 499 495 487 498 501 504 505 503 508 506 509 494 507 502 496 505 497 501 501 507 501 514 502 504 490 521 490 527 525 499 498 486 565 541 557 489 501 511 523 492 517 506 531 518 476 487 492 551 524 502 556 494 509 496 522 525 532 472 528 546 0 0 0 0 0 0 0 0 0 0 0 0 0
0 0 0 0 0 0 0 0 0 0 0 0 0 0 0 0 0 0 0 0 0 0 0 0 0 0 0 0 501 496 515 495 496 498 507 501 497 492 510 503 512 511 501 509 505 498 504 503 504 501 503 513 506 504 505 503 510 511 496 511 515 501 510 509 513 506 506 497 512 514 509 545 581 569 598 571 607 540 572 613 575 570 610 534 543 574 585 543 564 564 588 521 585 573 545 589 526 561 552 591 580 562 581 579 620 600 589 570 556 0 0 0 0 0 0 0 0 0 0 0
0 0 0 0 0 0 0 0 0 0 0 0 0 0 0 0 0 0 0 0 0 0 0 0 0 0 0 504 500 512 502 492 509 504 497 505 509 507 511 495 510 503 502 498 502 507 502 504 509 505 500 501 509 512 515 507 491 503 511 509 511 508 503 507 515 504 513 507 507 523 528 532 589 560 566 586 594 574 558 578 567 590 581 565 571 540 606 570 549 562 600 580 554 595 580 580 579 597 582 605 599 646 563 584 584 551 642 559 0 0 0 0 0 0 0 0 0 0 0 0
0 0 0 0 0 0 0 0 0 0 0 0 0 0 0 0 0 0 0 0 0 0 0 0 0 0 465 504 498 496 491 501 503 503 492 494 492 495 499 495 500 499 507 500 502 513 505 494 497 514 500 494 508 506 502 504 502 511 507 508 498 514 520 503 502 519 514 502 509 501 515 512 517 562 567 559 559 575 538 526 537 537 552 541 585 558 554 544 558 567 568 555 557 536 547 527 609 544 537 546 578 526 561 552 551 542 570 531 543 590 0 0 0 0 0 0 0 0 0 0
0 0 0 0 0 0 0 0 0 0 0 0 0 0 0 0 0 0 0 0 0 0 0 0 0 547 502 505 513 499 504 498 511 497 494 491 507 497 499 511 501 511 510 512 505 498 506 511 503 505 515 512 507 500 507 506 504 508 507 514 513 505 506 507 512 502 506 498 513 517 506 510 516 555 538 563 571 585 579 569 581 563 578 619 558 556 593 593 608 572 576 604 575 593 556 564 577 634 595 572 582 589 589 614 614 613 600 591 609 592 580 0 0 0 0 0 0 0 0 0
0 0 0 0 0 0 0 0 0 0 0 0 0 0 0 0 0 0 0 0 0 0 0 0 0 509 500 499 498 488 484 496 495 495 482 496 492 497 498 495 500 503 495 499 501 503 503 499 500 500 499 510 508 504 504 501 505 507 507 507 508 510 517 510 508 518 508 509 501 513 505 510 507 521 573 557 520 531 508 545 533 540 532 545 532 543 545 548 548 549 558 576 581 530 568 560 533 566 552 572 597 562 572 509 564 551 535 539 545 0 535 0 564 499 0 0 0 0 0 0
0 0 0 0 0 0 0 0 0 0 0 0 0 0 0 0 0 0 0 0 0 0 0 0 464 494 497 493 495 488 487 492 493 491 491 501 499 493 488 502 501 495 497 498 501 503 494 509 493 495 498 505 504 501 494 502 504 503 500 503 501 506 498 497 503 509 501 499 498 496 511 509 506 505 508 525 506 540 530 501 527 540 489 576 534 531 529 519 506 547 536 516 542 502 540 548 539 522 558 544 514 549 555 529 515 523 520 505 510 511 485 0 0 0 0 0 0 0 0 0
0 0 0 0 0 0 0 0 0 0 0 0 0 0 0 0 0 0 0 0 0 0 0 0 494 488 497 493 488 504 493 494 496 498 489 497 498 498 500 496 494 494 502 492 506 500 503 499 496 499 507 502 503 502 505 501 501 505 507 501 507 502 501 507 504 515 505 510 502 501 505 504 509 512 514 529 543 537 534 526 549 559 550 557 547 519 560 564 525 547 573 532 531 540 549 512 559 568 559 536 564 533 535 551 528 549 544 552 521 523 551 0 0 0 0 0 0 0 0 0
0 0 0 0 0 0 0 0 0 0 0 0 0 0 0 0 0 0 0 0 0 0 0 466 486 488 476 483 479 483 501 496 484 489 491 485 499 488 491 493 484 496 490 494 499 496 494 499 495 500 492 493 493 498 492 500 503 502 498 501 510 491 500 494 507 496 510 495 499 498 505 505 496 500 498 503 490 507 515 522 485 499 484 474 505 506 502 506 510 509 526 513 509 505 516 496 497 513 524 469 486 529 493 487 472 472 514 436 487 440 502 0 0 0 0 0 0 0 0 0
0 0 0 0 0 0 0 0 0 0 0 0 0 0 0 0 0 0 0 0 0 0 0 499 496 492 488 502 489 495 505 486 489 499 485 490 485 493 491 499 502 497 503 504 508 497 502 507 499 504 501 502 506 497 503 505 506 506 506 504 501 504 503 499 506 498 509 509 503 515 511 501 502 510 508 510 546 550 536 565 532 522 522 549 541 534 512 559 549 556 530 530 562 498 505 568 538 577 534 589 542 557 528 591 511 554 565 550 546 590 532 0 0 0 0 0 0 0 0 0
0 0 0 0 0 0 0 0 0 0 0 0 0 0 0 0 0 0 0 0 0 0 468 503 491 492 492 498 494 491 490 500 496 493 496 494 493 495 494 491 504 502 507 507 492 504 506 510 502 509 495 494 500 503 512 502 506 504 509 506 506 508 511 505 498 508 504 507 511 503 507 503 512 507 509 500 533 542 563 561 546 561 554 570 566 540 530 523 539 508 604 544 573 541 530 545 546 548 549 559 550 559 552 532 554 554 557 564 575 579 543 0 0 0 0 0 0 0 0 0
0 0 0 0 0 0 0 0 0 0 0 0 0 0 0 0 0 0 0 0 0 0 479 493 488 478 488 491 493 497 493 493 493 485 494 501 491 495 491 492 507 499 496 497 495 511 498 499 502 495 495 500 499 503 497 508 508 508 495 505 502 506 498 511 506 505 507 517 506 506 507 512 513 516 505 498 521 511 512 498 533 554 498 536 524 538 545 517 549 518 512 492 529 525 531 526 512 545 516 565 535 499 528 549 526 549 530 504 516 538 498 520 0 0 0 0 0 0 0 0
0 0 0 0 0 0 0 0 0 0 0 0 0 0 0 0 0 0 0 0 0 0 491 492 489 485 500 495 501 489 495 489 494 490 492 489 486 493 492 496 500 497 501 500 498 501 496 502 498 500 494 503 505 502 503 504 509 506 506 506 512 512 521 504 501 509 506 512 510 504 506 509 512 503 513 510 510 538 544 537 535 547 525 558 538 536 549 544 568 544 543 535 591 559 542 566 539 542 548 548 544 529 557 583 541 596 571 558 597 558 577 583 531 608 0 0 0 0 0 0
0 0 0 0 0 0 0 0 0 0 0 0 0 0 0 0 0 0 0 0 0 0 488 491 494 493 488 492 488 487 489 486 488 489 486 488 490 489 493 494 492 490 491 496 496 497 497 502 497 500 503 508 503 492 497 501 506 498 498 500 501 504 502 507 501 500 502 501 506 499 512 505 497 514 503 504 494 507 514 517 514 507 521 508 521 513 520 518 519 543 531 527 522 520 501 507 515 468 547 549 543 506 509 514 535 517 534 524 518 529 515 536 547 0 0 0 0 0 0 0
0 0 0 0 0 0 0 0 0 0 0 0 0 0 0 0 0 0 0 0 0 0 479 479 483 490 491 492 490 493 485 484 486 486 492 485 489 486 492 498 497 486 499 496 496 498 493 499 497 495 499 496 493 501 499 500 496 500 497 502 500 501 496 497 501 501 499 490 504 494 502 504 498 508 502 503 508 510 505 508 522 500 495 522 499 501 521 522 477 492 491 535 496 497 495 505 512 492 514 509 493 508 493 521 508 480 499 527 493 455 466 505 450 0 0 0 0 0 0 0
0 0 0 0 0 0 0 0 0 0 0 0 0 0 0 0 0 0 0 0 0 0 481 477 483 487 484 489 484 486 496 488 487 486 497 487 497 489 503 498 496 496 492 495 497 491 494 500 494 502 499 498 503 502 500 509 507 500 499 501 504 502 507 505 501 501 496 500 498 500 500 504 508 506 504 509 508 522 519 516 523 503 520 519 524 504 506 532 532 529 499 514 534 539 511 525 520 557 524 492 524 519 505 522 512 529 568 524 499 558 559 562 527 0 0 0 0 0 0 0
0 0 0 0 0 0 0 0 0 0 0 0 0 0 0 0 0 0 0 0 0 450 466 476 479 476 480 488 489 479 482 483 485 487 489 482 491 492 492 489 493 495 494 488 493 490 491 494 492 492 501 497 498 498 496 495 504 502 502 498 501 498 501 504 499 494 501 496 494 503 499 500 503 501 498 511 498 503 472 509 508 484 489 473 505 482 493 510 503 507 488 495 491 509 452 475 483 481 483 489 522 486 483 484 467 458 483 494 497 463 459 0 0 0 0 0 0 0 0 0
0 0 0 0 0 0 0 0 0 0 0 0 0 0 0 0 0 0 0 0 0 444 482 480 490 481 484 488 494 481 479 481 491 486 491 494 488 487 489 495 496 494 492 497 492 496 501 496 501 497 499 500 500 502 504 502 508 503 503 504 501 501 496 496 502 505 507 505 499 501 499 498 506 505 510 502 503 512 507 516 520 511 502 494 516 495 512 526 519 478 507 509 509 512 530 539 527 501 503 518 526 528 524 489 487 508 529 512 514 500 531 540 486 0 0 0 0 0 0 0
0 0 0 0 0 0 0 0 0 0 0 0 0 0 0 0 0 0 0 0 0 473 491 489 489 479 487 488 482 485 494 487 486 487 479 486 487 496 490 491 496 493 489 498 493 493 493 499 501 507 494 495 495 498 499 504 495 504 501 504 505 500 506 502 503 504 502 501 504 502 499 506 506 507 509 498 501 516 518 533 537 546 525 533 501 523 535 526 525 551 544 521 520 575 538 519 527 536 547 553 522 539 535 541 557 560 563 574 547 542 555 561 0 0 0 0 0 0 0 0
0 0 0 0 0 0 0 0 0 0 0 0 0 0 0 0 0 0 0 0 0 468 488 490 479 478 486 486 489 489 485 479 484 483 483 482 479 488 486 492 493 488 494 495 495 496 496 500 501 496 498 496 497 495 500 494 503 496 502 497 498 501 500 499 504 500 508 500 499 505 504 502 505 496 508 494 496 505 512 487 517 511 489 476 489 507 518 512 483 510 487 528 480 525 512 501 473 496 508 503 530 532 518 547 524 474 502 527 502 505 517 464 514 0 0 0 0 0 0 0
0 0 0 0 0 0 0 0 0 0 0 0 0 0 0 0 0 0 0 0 0 475 489 489 485 476 484 485 486 477 488 483 479 488 494 489 485 492 486 489 491 489 490 492 493 491 493 495 495 497 495 493 501 496 494 499 499 497 497 500 502 504 495 501 502 509 507 497 504 504 510 504 501 497 505 503 506 510 508 496 514 528 522 505 546 507 498 528 531 502 536 538 512 524 518 506 510 527 511 525 517 535 526 547 536 539 517 531 549 547 522 511 541 0 0 0 0 0 0 0
0 0 0 0 0 0 0 0 0 0 0 0 0 0 0 0 0 0 0 0 0 447 480 479 485 477 472 478 483 481 480 484 482 478 486 481 482 485 489 488 490 490 491 489 488 492 489 492 491 492 493 492 499 496 496 493 496 497 497 495 501 498 497 501 497 502 496 496 495 498 498 498 498 510 504 500 503 501 498 499 490 490 501 521 503 517 513 489 525 484 494 516 495 502 521 497 467 497 492 499 520 539 482 501 554 477 546 526 554 505 502 481 469 0 0 0 0 0 0 0
0 0 0 0 0 0 0 0 0 0 0 0 0 0 0 0 0 0 0 0 0 472 474 480 473 476 476 477 478 484 479 482 483 485 485 478 485 488 483 486 496 489 488 491 489 488 493 491 486 493 490 491 496 500 494 501 496 497 503 496 495 496 501 495 497 496 498 493 498 495 495 496 503 500 494 495 496 496 502 490 510 489 489 517 514 489 492 471 500 483 508 485 492 507 496 465 519 487 494 494 463 503 496 512 511 499 467 455 508 503 467 474 481 460 0 0 0 0 0 0
0 0 0 0 0 0 0 0 0 0 0 0 0 0 0 0 0 0 0 0 0 449 477 480 476 479 482 478 478 481 480 480 489 485 482 485 478 482 485 490 489 484 487 493 490 491 492 490 488 490 493 496 491 491 491 494 494 496 497 494 503 499 499 501 497 504 498 496 496 501 495 493 490 497 491 496 499 489 497 513 493 500 528 503 500 485 501 496 502 512 506 516 511 524 531 486 480 501 500 530 498 514 541 544 523 486 513 541 506 508 510 523 481 0 0 0 0 0 0 0
0 0 0 0 0 0 0 0 0 0 0 0 0 0 0 0 0 0 0 0 0 400 476 472 475 476 473 473 479 479 479 480 478 487 480 483 485 484 489 487 487 484 482 482 482 488 484 488 490 489 495 492 491 497 498 493 489 494 493 494 496 498 497 493 498 500 501 497 492 494 494 496 497 498 492 497 501 493 486 489 474 474 484 490 485 479 488 478 475 489 473 477 479 483 485 467 478 474 491 502 468 469 481 454 488 473 456 453 460 481 460 456 446 492 0 0 0 0 0 0
0 0 0 0 0 0 0 0 0 0 0 0 0 0 0 0 0 0 0 0 0 489 471 468 471 475 479 478 484 475 477 484 479 477 482 486 484 483 483 482 485 484 486 493 489 489 490 485 489 498 494 491 492 494 501 494 492 498 494 494 497 498 496 501 499 501 503 501 496 496 502 499 498 496 495 496 497 499 491 526 504 524 493 507 497 496 514 503 494 534 510 519 509 511 497 480 504 519 501 485 491 501 516 522 525 494 544 506 558 515 505 532 518 504 0 0 0 0 0 0
0 0 0 0 0 0 0 0 0 0 0 0 0 0 0 0 0 0 0 0 0 469 475 470 480 473 482 477 481 477 480 485 480 482 480 489 485 481 482 485 490 487 489 485 486 489 493 491 490 488 495 492 494 496 496 497 495 491 495 497 492 503 496 502 498 497 500 498 496 499 496 494 493 498 501 495 492 497 509 499 495 497 492 482 498 513 489 509 520 496 505 503 505 506 496 497 489 522 511 541 529 532 498 505 513 515 510 540 535 540 506 516 528 527 0 0 0 0 0 0
0 0 0 0 0 0 0 0 0 0 0 0 0 0 0 0 0 0 0 0 0 0 470 474 473 476 471 478 483 484 478 476 480 474 480 480 488 487 487 486 485 480 487 486 488 485 489 489 491 489 497 490 495 490 496 493 490 495 499 490 496 497 496 497 499 500 497 500 495 497 494 500 492 496 497 491 489 499 496 485 503 487 515 507 508 497 503 487 511 513 503 480 500 492 478 478 497 504 485 480 514 494 476 513 499 483 499 507 490 510 463 457 473 494 0 0 0 0 0 0
0 0 0 0 0 0 0 0 0 0 0 0 0 0 0 0 0 0 0 0 0 0 507 479 474 483 478 477 474 478 483 483 482 480 483 480 478 487 489 484 489 487 489 485 491 490 486 487 491 493 492 497 495 494 493 495 491 494 490 495 500 494 493 498 500 498 497 498 496 495 499 492 501 493 496 494 497 499 500 509 515 519 521 522 515 520 501 513 531 504 522 532 520 520 517 542 527 522 529 521 518 503 525 514 522 544 524 505 521 500 574 511 479 544 0 0 0 0 0 0
0 0 0 0 0 0 0 0 0 0 0 0 0 0 0 0 0 0 0 0 0 0 527 469 469 483 477 476 480 480 478 478 480 480 480 481 482 482 479 485 485 483 485 486 491 486 490 480 493 491 489 494 489 493 492 493 497 490 492 498 493 490 497 495 495 499 497 495 496 497 494 497 495 494 490 495 497 490 488 493 495 507 486 490 500 501 518 507 513 497 527 511 482 501 498 499 523 511 534 518 488 498 504 507 470 461 524 506 483 487 540 503 479 502 497 0 0 0 0 0
0 0 0 0 0 0 0 0 0 0 0 0 0 0 0 0 0 0 0 0 0 0 556 471 470 467 473 478 480 478 478 474 476 479 481 484 483 483 480 484 485 482 481 485 484 487 489 489 492 491 489 493 493 494 495 495 494 491 495 495 495 494 499 496 494 495 492 498 502 496 497 498 494 492 490 494 497 481 492 500 502 489 490 507 497 496 506 487 501 495 478 518 512 490 493 510 505 493 523 492 482 513 486 505 483 462 469 485 470 479 460 471 482 471 440 395 0 0 0 0
0 0 0 0 0 0 0 0 0 0 0 0 0 0 0 0 0 0 0 0 0 0 0 480 465 470 474 474 476 471 481 483 479 484 483 475 484 483 483 483 489 483 486 484 487 483 483 487 490 491 494 490 496 493 490 492 491 492 498 497 495 500 493 497 491 497 495 499 503 495 499 494 496 489 497 495 489 494 489 501 484 490 486 492 501 502 498 505 506 511 508 493 511 527 488 511 518 493 485 531 500 510 494 467 504 504 512 493 494 512 491 474 491 0 0 0 0 0 0 0
0 0 0 0 0 0 0 0 0 0 0 0 0 0 0 0 0 0 0 0 0 0 0 470 474 472 472 471 468 468 478 476 473 475 480 473 473 477 485 479 481 479 488 486 480 486 491 487 490 490 487 488 495 494 490 491 494 482 488 490 491 490 496 494 492 493 493 493 496 493 493 490 496 489 496 493 485 487 482 489 487 485 490 478 493 500 499 479 487 474 476 509 479 467 475 483 471 509 489 484 460 485 493 460 464 470 460 450 456 444 444 470 419 0 0 0 0 0 0 0
0 0 0 0 0 0 0 0 0 0 0 0 0 0 0 0 0 0 0 0 0 0 0 518 469 473 473 476 473 476 476 479 482 472 471 485 479 481 480 485 481 475 486 486 481 490 485 485 489 486 494 495 491 493 498 488 493 494 489 491 494 491 493 493 497 492 496 496 490 493 499 490 498 493 492 494 498 498 489 503 521 522 521 516 512 530 516 506 498 492 490 515 500 513 496 512 504 516 509 494 521 512 524 509 520 468 493 511 506 502 509 498 486 513 0 0 0 0 0 0
0 0 0 0 0 0 0 0 0 0 0 0 0 0 0 0 0 0 0 0 0 0 0 0 477 469 466 477 477 475 474 474 476 482 482 483 478 481 479 482 476 480 477 481 486 484 492 485 489 491 490 491 492 496 495 487 489 490 486 494 492 495 490 494 496 495 493 498 495 490 501 496 489 499 490 486 494 492 497 513 505 502 506 515 518 521 504 515 511 522 505 514 519 495 504 510 500 500 516 502 515 524 493 517 520 497 510 529 531 492 502 483 509 521 523 468 0 0 0 0
0 0 0 0 0 0 0 0 0 0 0 0 0 0 0 0 0 0 0 0 0 0 0 0 527 469 467 470 474 468 473 469 474 477 475 475 476 478 477 482 479 480 479 484 480 485 485 486 485 490 489 489 493 494 491 487 492 493 493 486 489 487 493 494 493 494 494 491 495 496 497 497 493 492 493 491 488 487 486 494 483 501 488 517 509 497 507 499 499 493 509 503 521 518 530 507 522 506 491 518 503 510 475 481 482 502 464 478 489 452 502 518 463 497 458 0 0 0 0 0
0 0 0 0 0 0 0 0 0 0 0 0 0 0 0 0 0 0 0 0 0 0 0 0 0 478 471 473 468 470 473 472 478 478 475 475 478 480 481 480 479 474 480 481 482 482 483 487 482 485 487 488 490 489 488 491 487 489 489 492 491 493 492 490 495 496 493 493 491 495 492 493 489 490 494 486 487 495 493 491 494 493 501 516 519 499 503 513 507 497 503 495 516 502 526 530 513 529 499 518 513 504 501 501 493 485 481 523 476 496 493 533 531 516 542 0 0 0 0 0
0 0 0 0 0 0 0 0 0 0 0 0 0 0 0 0 0 0 0 0 0 0 0 0 0 539 469 469 469 472 467 469 477 477 474 477 476 474 482 476 480 476 478 478 483 482 481 484 487 487 486 485 487 484 486 488 487 486 491 491 489 495 494 486 493 495 498 491 487 488 491 491 494 491 493 484 494 496 487 489 498 498 477 493 481 493 505 493 497 500 493 474 502 500 479 501 508 486 480 526 488 502 497 518 510 466 444 460 474 466 513 454 468 496 0 0 0 0 0 0
0 0 0 0 0 0 0 0 0 0 0 0 0 0 0 0 0 0 0 0 0 0 0 0 0 0 480 464 462 467 468 466 468 469 474 476 475 475 477 473 473 480 476 481 485 481 482 480 481 483 484 485 483 487 482 486 484 491 483 489 487 488 487 492 496 489 493 484 491 493 489 491 490 489 484 485 480 485 483 483 480 484 481 503 477 482 471 477 478 475 487 485 481 499 479 491 472 494 484 494 477 470 500 453 467 462 473 457 492 455 440 452 468 426 416 0 0 0 0 0
0 0 0 0 0 0 0 0 0 0 0 0 0 0 0 0 0 0 0 0 0 0 0 0 0 0 0 471 467 463 465 474 470 470 474 472 474 477 480 478 480 484 478 476 475 484 483 479 485 484 479 478 485 486 485 482 483 488 480 489 485 488 488 490 491 491 490 492 494 487 490 484 484 486 477 493 486 475 497 494 495 491 487 484 485 477 497 485 488 498 486 500 491 500 469 507 492 502 508 490 507 521 492 485 518 492 496 455 476 460 487 491 521 463 484 0 0 0 0 0
0 0 0 0 0 0 0 0 0 0 0 0 0 0 0 0 0 0 0 0 0 0 0 0 0 0 0 486 466 462 465 470 467 472 469 473 474 473 473 471 474 470 478 477 479 474 481 478 482 483 482 476 484 479 481 484 482 482 483 487 489 486 486 490 489 485 492 485 487 489 485 487 476 468 485 475 473 476 487 478 481 471 488 458 482 485 478 464 471 479 482 474 471 474 471 468 474 471 482 476 478 463 456 468 479 419 490 450 442 436 433 434 429 456 0 0 0 0 0 0
0 0 0 0 0 0 0 0 0 0 0 0 0 0 0 0 0 0 0 0 0 0 0 0 0 0 0 0 511 468 463 464 471 472 474 470 472 475 473 475 476 476 478 478 475 484 479 483 480 480 483 480 484 484 482 483 481 485 482 484 486 485 487 488 483 481 488 488 488 488 486 486 473 490 488 488 471 495 488 484 485 485 477 493 486 487 503 474 475 481 487 474 467 503 476 461 493 477 507 492 498 501 469 490 460 467 500 508 477 511 446 477 453 444 477 0 0 0 0 0
0 0 0 0 0 254 228 273 335 0 0 0 0 0 0 0 0 0 0 0 0 2333 0 0 0 0 0 0 0 519 462 464 467 472 469 475 468 471 472 468 473 476 480 471 480 476 482 480 479 478 483 484 479 481 483 480 480 486 488 484 484 484 486 488 486 485 489 484 485 487 488 490 487 492 492 491 474 487 497 487 482 488 499 474 498 497 524 495 505 487 486 500 530 504 513 493 510 498 505 475 520 507 522 483 496 501 496 483 486 484 489 532 514 525 476 0 0 0 0 0
0 0 0 0 253 229 235 233 233 287 371 0 0 0 0 0 0 0 0 0 0 0 0 0 0 0 0 0 0 0 450 463 459 473 470 475 472 469 471 469 476 476 471 467 476 473 478 474 480 477 477 481 483 485 480 484 483 476 482 479 484 481 484 485 484 490 486 485 483 478 480 481 477 475 487 486 482 478 494 475 475 482 495 488 493 485 488 474 477 483 477 472 472 480 481 495 472 485 503 522 477 480 466 471 470 459 494 473 484 446 484 450 444 0 0 0 0 0 0 0
0 0 0 267 231 226 228 231 234 238 345 0 0 0 0 0 0 0 0 0 0 0 0 0 0 0 0 0 0 0 0 478 461 469 461 465 469 469 471 470 470 472 471 469 478 471 471 477 484 476 473 479 478 478 480 481 482 478 477 479 480 484 481 485 483 480 482 484 477 482 481 480 487 488 496 498 482 494 483 479 481 482 496 485 482 495 480 496 493 500 498 489 493 495 507 485 510 506 495 503 491 518 503 510 485 500 487 473 483 499 522 523 496 525 504 0 0 0 0 0
177 216 264 230 256 264 255 226 239 236 300 0 405 400 402 410 395 423 413 394 455 425 439 428 453 453 454 443 440 457 439 448 459 468 459 462 464 459 468 466 460 468 472 470 478 471 471 468 473 472 477 479 471 474 479 477 476 476 479 482 469 475 474 475 483 477 472 481 483 479 477 467 477 471 464 467 470 473 464 469 473 474 475 465 465 467 473 466 474 477 475 477 477 460 471 474 474 473 472 481 462 441 463 463 453 470 449 446 457 448 456 500 466 429 429 0 0 0 0 0
223 218 225 198 223 217 258 229 228 260 381 396 374 377 371 379 389 398 409 397 413 406 397 406 415 429 425 417 434 444 456 457 454 452 450 455 450 455 456 460 465 460 456 462 464 459 465 462 471 470 461 467 471 471 467 469 470 468 468 468 473 470 472 473 465 472 473 475 466 467 469 466 467 460 456 464 452 453 453 441 454 441 445 451 447 448 434 455 464 443 441 460 428 459 436 433 434 434 444 450 447 437 439 439 426 435 417 432 425 435 419 420 403 408 440 414 429 398 427 0
175 174 206 226 223 237 232 228 237 299 372 376 369 359 359 369 367 368 384 374 378 392 385 392 411 404 409 418 430 439 440 441 443 441 440 445 440 445 445 444 439 444 449 451 444 448 447 454 452 464 462 451 458 450 455 459 454 450 454 460 460 459 457 457 460 459 455 452 457 455 464 452 444 442 433 436 440 432 419 440 426 428 421 430 417 429 431 424 423 427 416 425 436 415 430 428 418 428 415 417 423 420 422 436 411 405 407 420 430 431 428 405 411 402 415 427 414 404 382 0
254 267 230 221 227 224 231 232 244 280 332 296 313 317 311 320 330 323 338 338 329 341 366 373 371 388 384 396 411 403 410 421 411 423 428 429 429 429 428 426 427 430 418 423 431 434 432 439 438 432 439 437 436 438 436 439 448 444 442 441 442 440 441 438 436 430 433 438 434 432 428 432 420 421 420 409 397 394 390 385 388 386 386 385 387 392 376 386 388 387 394 388 396 383 387 385 371 392 376 401 384 380 391 391 378 377 366 386 375 382 355 379 365 385 368 348 371 368 327 0
290 304 283 233 236 229 234 238 320 308 319 298 313 314 312 311 313 312 315 318 328 324 332 342 359 367 381 385 399 394 403 408 407 408 406 402 417 416 413 414 413 414 410 414 413 419 416 422 418 417 416 420 424 418 419 420 423 424 422 421 419 424 414 420 420 423 420 418 416 417 418 415 404 396 403 397 384 371 360 371 359 372 360 361 366 348 355 357 356 360 361 363 365 369 370 369 353 358 366 356 365 370 352 353 368 351 354 357 335 351 359 368 356 352 358 363 394 353 335 368
285 281 287 271 247 243 263 276 292 284 280 282 279 299 286 291 285 295 299 295 293 311 320 315 327 349 360 370 371 378 379 387 385 390 388 386 392 392 400 398 399 398 391 385 394 400 391 390 397 397 390 398 396 404 392 390 389 401 400 400 405 402 401 400 397 381 401 398 397 392 387 393 388 380 381 361 355 353 343 338 339 339 326 325 331 328 328 335 324 335 331 332 343 332 333 339 339 325 327 343 336 332 337 335 338 342 333 339 331 322 331 353 350 337 365 358 374 368 361 338
252 241 244 249 247 246 261 267 260 263 257 261 255 253 256 251 267 268 276 269 278 291 290 298 302 313 335 346 340 358 364 366 362 365 359 371 361 373 369 363 363 373 374 372 383 370 367 369 366 373 372 375 370 374 385 374 379 374 378 375 377 371 377 373 373 370 376 374 369 376 371 357 358 359 351 340 326 318 315 308 313 307 302 294 298 319 309 307 299 299 316 308 304 305 303 303 296 302 285 320 311 313 313 299 301 299 307 302 315 299 306 302 323 311 295 305 313 311 291 286
244 243 237 241 245 235 241 243 245 252 247 243 249 251 248 251 248 248 249 257 265 265 281 276 296 307 323 333 328 338 335 336 351 347 345 350 349 345 345 349 353 351 355 346 348 341 347 351 353 346 342 348 353 357 352 359 348 348 350 352 350 348 348 351 355 352 344 352 350 350 339 342 344 342 332 330 315 299 288 290 279 278 281 275 286 287 292 299 286 276 280 286 279 283 275 281 279 284 284 286 283 290 284 287 281 282 283 283 292 284 302 301 289 308 282 305 312 291 299 291
217 221 219 220 228 217 226 227 224 228 219 232 221 227 227 229 230 231 233 238 243 249 252 259 271 280 294 296 301 307 312 312 314 316 315 326 319 320 328 326 324 319 314 320 322 323 328 329 323 324 321 325 328 324 324 323 329 325 328 328 324 327 326 329 326 327 330 328 324 321 323 325 316 317 309 295 279 269 275 266 272 262 260 267 259 254 255 258 250 258 251 256 254 257 257 259 264 250 253 261 250 256 268 261 256 263 251 265 266 256 264 268 255 254 249 267 256 256 258 263
195 204 201 217 210 211 208 221 215 208 207 210 209 210 214 214 214 220 218 223 219 231 244 250 253 265 267 272 282 284 291 293 297 290 295 299 293 304 304 300 296 299 293 301 302 301 298 299 298 307 303 300 295 307 300 299 306 302 302 299 302 299 304 305 302 300 300 303 304 304 302 299 302 293 286 279 269 257 255 252 242 244 244 250 247 240 242 240 244 243 247 245 239 247 242 239 239 241 239 234 234 239 249 249 240 236 248 235 245 243 237 256 248 243 250 235 257 243 247 224
195 195 206 203 199 204 202 210 201 201 207 197 190 204 184 208 207 193 210 214 206 220 235 233 244 249 255 262 266 270 268 264 272 268 278 276 282 282 285 282 279 279 280 290 277 276 279 278 280 281 282 279 275 285 280 286 291 283 284 284 282 286 282 286 288 287 283 286 284 282 285 285 279 269 268 265 250 243 242 232 229 225 235 227 228 228 226 224 221 222 227 232 231 225 224 221 229 221 224 228 229 230 225 229 221 219 228 228 233 225 228 238 243 237 231 233 236 227 246 249
191 168 168 178 182 180 176 188 178 184 181 174 177 182 181 178 181 181 185 192 204 208 217 223 229 230 236 241 247 251 249 252 253 251 261 257 258 260 260 264 265 264 266 262 259 257 266 269 263 263 264 265 263 264 262 261 265 265 261 269 266 265 267 268 265 272 267 267 267 259 263 258 255 252 252 240 238 229 224 214 218 219 216 216 198 219 201 212 210 214 213 217 219 210 215 217 208 208 192 212 215 213 208 214 194 206 210 204 211 208 207 226 223 212 201 204 218 204 222 201
172 174 171 177 177 178 175 177 177 176 181 178 180 178 175 183 183 187 181 184 184 191 206 211 213 220 222 225 226 232 232 245 245 238 241 238 241 245 244 247 243 246 245 249 252 252 248 246 243 250 249 247 248 247 242 247 248 245 248 254 247 244 252 246 245 251 252 247 244 252 246 244 235 238 233 225 222 216 217 212 197 195 190 186 191 189 191 190 196 188 187 195 195 185 192 190 184 186 188 191 189 204 187 190 186 188 179 202 201 198 202 202 204 208 198 201 205 212 198 215
171 176 174 178 175 176 173 175 173 178 178 173 175 174 175 176 179 178 183 184 187 187 189 191 208 191 214 216 216 223 229 225 226 226 228 231 228 229 232 229 226 230 235 233 235 233 230 232 233 230 234 234 235 235 235 236 234 235 234 236 236 235 240 232 236 230 234 229 236 231 232 226 226 224 220 218 196 198 189 187 194 194 191 189 194 193 185 186 193 185 191 189 190 187 191 183 187 188 185 186 187 180 187 178 183 183 189 187 177 179 178 184 197 185 200 208 206 198 207 220
163 166 163 170 172 172 170 168 169 163 169 163 166 164 169 171 175 174 176 180 177 181 189 182 187 182 183 187 189 210 211 211 207 210 212 210 213 199 213 196 215 217 217 216 217 220 221 217 221 220 218 222 215 218 221 222 217 221 217 224 219 220 221 218 216 220 219 217 222 216 222 202 215 211 194 190 190 192 194 189 186 183 187 183 186 185 187 188 183 182 183 178 182 181 178 183 181 178 179 183 182 181 181 179 182 180 178 176 179 174 176 181 173 170 180 179 183 179 178 201
149 153 163 159 158 164 162 160 161 160 159 162 162 167 162 161 164 167 170 177 168 175 178 181 185 185 182 191 191 186 181 186 182 194 185 193 189 187 188 189 196 196 194 193 194 195 194 196 192 191 196 195 197 199 194 194 195 192 194 194 199 197 198 190 191 197 194 200 196 195 192 194 196 191 187 197 195 186 187 178 185 175 177 179 176 177 178 177 178 178 174 177 173 174 176 173 171 170 170 171 174 177 170 175 174 174 174 169 172 173 175 180 174 179 176 175 173 189 172 173
143 145 148 150 154 153 155 158 156 158 154 155 155 155 157 157 157 161 155 167 167 166 174 173 179 179 178 179 181 189 188 183 188 188 188 184 192 190 188 192 192 194 191 196 193 198 194 198 195 190 192 195 197 196 197 191 196 198 196 198 197 198 199 198 194 197 196 199 198 195 193 193 190 188 190 184 188 183 179 172 169 168 170 164 165 171 167 169 168 169 169 164 169 166 170 163 162 164 162 170 172 166 168 170 162 156 157 160 168 170 160 163 170 166 171 158 162 165 175 156
145 141 147 147 147 145 147 150 149 152 150 153 149 148 149 150 153 148 154 158 161 164 167 173 169 173 175 170 172 176 175 179 179 181 178 180 183 179 182 185 181 181 186 185 179 184 183 185 188 183 179 185 189 190 188 185 188 190 0 188 189 186 183 186 184 189 186 189 184 186 186 184 180 181 175 178 176 173 166 164 160 154 159 160 160 158 163 161 163 164 160 161 162 162 164 164 155 156 161 158 161 159 162 154 155 156 154 161 162 157 158 161 162 158 164 155 155 151 174 159
134 139 139 141 140 149 147 146 142 144 148 144 140 146 147 145 141 149 150 151 156 160 162 163 165 167 169 167 167 171 168 171 175 174 170 171 176 174 174 175 176 181 176 177 175 180 175 178 176 178 179 179 180 177 180 178 181 0 0 179 176 177 180 178 179 175 177 178 179 175 177 176 173 172 171 173 167 166 161 163 161 156 153 153 159 158 157 157 150 155 150 153 155 153 154 154 155 153 154 155 156 153 153 152 152 148 148 152 159 155 154 152 146 152 152 160 149 157 168 152
135 133 130 138 142 141 145 137 139 138 140 138 142 144 139 138 139 146 141 146 149 154 153 155 162 161 162 159 165 165 161 163 165 166 161 167 166 168 167 166 172 0 172 165 171 171 170 169 171 171 173 171 172 171 172 0 173 171 0 175 174 0 173 171 172 170 171 166 171 168 167 167 168 167 164 163 162 158 157 152 150 152 151 150 156 148 151 146 148 156 147 151 151 148 149 145 150 147 154 149 148 146 143 146 146 146 141 141 145 146 145 138 144 155 149 141 136 155 146 148
128 125 125 124 133 133 141 139 134 120 130 130 131 126 139 136 135 135 137 140 138 146 151 153 149 155 155 156 156 158 159 155 158 160 157 155 160 162 0 0 0 0 0 0 0 0 0 165 166 167 163 162 169 167 0 0 0 169 167 0 0 0 0 0 166 164 168 0 160 163 162 160 160 160 152 157 153 154 149 146 148 144 146 144 141 151 139 146 144 144 146 143 142 143 140 135 142 146 141 145 139 137 143 136 137 137 137 134 137 143 141 141 145 152 140 151 143 142 147 132
116 128 124 116 127 133 134 133 134 129 134 131 126 126 125 128 130 138 137 138 139 140 146 149 146 150 152 155 151 155 154 154 156 158 154 156 152 0 0 0 0 0 0 0 0 0 0 0 158 161 163 160 0 0 0 0 0 0 0 0 0 0 0 0 161 0 0 0 0 0 0 156 158 155 152 152 150 149 147 147 141 139 141 142 136 141 142 136 146 138 133 139 138 142 136 140 146 141 140 137 133 136 138 135 131 133 138 130 140 144 139 140 142 147 134 146 144 132 135 154
112 106 119 120 128 126 127 120 132 126 124 129 118 116 118 120 123 133 129 134 126 127 134 141 141 139 142 145 144 150 150 146 150 151 149 147 0 0 0 0 0 0 0 0 0 0 0 0 152 152 156 0 0 0 0 0 0 0 0 0 0 0 0 0 0 0 0 0 0 0 0 0 150 152 150 148 147 143 143 140 138 138 127 137 124 127 136 139 128 130 137 129 131 126 118 130 139 138 134 134 130 135 134 123 124 129 130 122 140 137 133 139 138 143 143 125 136 130 120 142
104 112 109 110 111 111 120 115 116 121 116 116 117 117 127 123 121 120 126 116 122 124 125 123 136 138 139 140 141 144 141 142 142 144 147 143 0 0 0 0 0 0 0 0 0 0 0 0 144 0 0 0 0 0 0 0 0 0 0 0 0 0 0 0 0 0 0 0 0 0 0 0 146 142 141 140 138 132 130 130 127 121 124 122 126 120 133 128 126 129 126 134 112 135 123 135 128 133 123 116 117 131 133 117 128 121 116 131 135 137 132 136 127 127 122 136 110 110 130 130
110 108 114 118 115 114 114 124 115 116 113 115 113 116 118 122 116 119 123 115 115 114 118 116 137 135 141 130 0 136 0 0 0 136 143 0 0 0 0 0 0 0 0 0 0 0 0 0 0 0 0 0 0 0 0 0 0 0 0 0 0 0 0 0 0 0 0 0 0 0 0 0 0 141 126 124 123 124 120 126 119 117 119 124 113 120 117 117 120 118 116 125 118 117 115 122 120 120 123 118 117 123 129 121 117 115 118 116 112 122 119 123 124 129 130 105 104 138 131 138
103 101 108 111 104 102 106 105 103 99 109 107 104 104 107 108 106 110 114 110 114 115 108 116 120 119 126 121 119 126 0 0 0 0 0 0 0 0 0 0 0 0 0 0 0 0 0 0 0 0 0 0 0 0 0 0 0 0 0 0 0 0 0 0 0 0 0 0 0 0 0 0 128 0 0 127 119 117 120 115 116 117 109 115 110 113 111 116 107 113 115 113 109 112 105 105 111 111 114 105 113 111 111 112 115 114 107 108 105 107 106 105 106 117 124 96 122 116 123 137
97 99 90 93 100 103 99 100 104 101 103 99 103 103 106 102 108 107 114 107 108 109 110 109 115 110 117 117 121 122 0 123 0 0 0 0 0 0 0 0 0 0 0 0 0 0 0 0 0 0 0 0 0 0 0 0 0 0 0 0 0 0 0 0 0 0 0 0 0 0 0 0 0 123 0 114 119 117 114 110 111 110 101 102 112 107 113 118 106 110 112 112 115 110 104 113 105 107 96 116 110 104 109 107 108 116 107 105 111 116 102 103 111 98 100 125 113 108 107 138
94 101 97 103 97 95 101 91 93 98 95 96 99 94 96 95 105 102 114 115 111 104 95 109 110 107 112 112 115 120 120 118 121 0 0 0 0 0 0 0 0 0 0 0 0 0 0 0 0 0 0 0 0 0 0 0 0 0 0 0 0 0 0 0 0 0 0 0 0 0 0 0 122 121 107 121 114 113 119 112 104 108 101 117 108 105 103 99 101 105 104 108 106 90 103 100 105 98 115 103 105 107 107 105 106 109 104 99 102 97 98 97 102 90 96 78 126 113 105 117
89 85 83 88 82 83 80 93 92 83 88 90 98 94 93 89 76 96 90 88 93 85 99 104 103 103 112 107 0 0 105 107 118 0 0 0 0 0 0 0 0 0 0 0 0 0 0 0 0 0 0 0 0 0 0 0 0 0 0 0 0 0 0 0 0 0 0 0 0 0 0 0 111 112 103 112 106 104 102 102 100 102 97 93 100 96 88 97 105 100 89 94 101 84 88 94 92 102 85 95 85 94 93 88 87 88 95 95 90 88 89 87 86 94 84 92 86 84 91 136
94 84 90 90 98 96 94 106 91 94 95 94 89 90 94 97 96 91 100 95 97 104 103 101 103 103 112 108 0 103 111 107 115 112 119 106 111 0 0 0 0 117 0 0 0 0 0 0 0 0 0 0 0 0 0 0 0 0 0 0 117 0 0 0 112 0 0 0 111 0 109 110 114 113 115 109 107 111 102 99 113 105 107 90 96 101 100 103 101 106 107 105 106 96 103 101 97 94 98 110 101 95 95 103 89 105 97 91 86 82 94 93 93 91 111 106 110 110 137 114
86 91 89 90 95 96 88 92 87 98 83 88 88 91 89 81 91 98 98 92 98 91 98 111 90 106 107 101 104 105 93 103 105 101 98 102 0 114 114 0 107 0 0 0 0 0 0 0 0 0 0 0 0 0 0 0 0 113 0 0 0 105 104 111 114 110 104 100 113 105 110 102 103 104 111 108 101 88 100 97 93 93 99 87 95 92 91 105 106 92 98 104 108 87 83 83 89 91 97 86 90 85 89 93 84 84 97 87 98 87 95 93 87 98 101 96 113 83 112 130
81 87 81 89 92 93 101 92 89 79 87 88 87 90 88 89 89 89 93 90 84 92 94 86 86 92 91 92 106 88 96 97 98 99 91 110 100 101 103 102 104 97 101 108 106 91 0 0 97 0 0 106 108 90 102 112 106 104 110 104 100 107 109 102 99 110 99 100 99 107 100 106 107 102 107 94 94 95 97 90 95 90 92 96 89 92 90 91 94 94 100 88 90 93 94 91 86 83 96 82 88 90 91 92 84 81 100 87 83 96 89 98 98 123 85 97 90 132 132 156
85 81 85 84 83 88 97 99 86 83 85 83 84 88 83 92 91 94 94 96 86 96 92 85 91 93 95 86 96 98 91 84 92 94 96 96 98 101 93 105 102 97 99 106 102 95 105 0 103 103 101 105 98 96 102 107 100 104 98 105 102 93 94 103 101 95 95 103 95 104 99 101 101 95 104 87 93 95 95 85 97 92 87 93 98 96 87 87 93 86 84 99 88 88 91 80 90 92 98 85 89 94 82 89 91 98 92 91 91 90 87 96 102 104 94 124 104 80 93 86
81 75 66 68 79 83 86 87 86 80 85 79 87 80 88 83 88 84 85 82 84 84 92 89 83 85 93 91 83 95 89 93 95 91 91 93 94 84 89 97 92 90 97 89 85 92 89 99 93 91 92 84 96 91 90 83 103 87 98 95 94 98 81 77 97 97 94 91 94 98 93 85 91 91 87 94 92 95 95 94 87 95 81 89 86 91 91 85 83 86 92 76 87 80 85 84 82 75 76 89 80 85 81 69 79 84 86 86 82 88 69 83 84 81 78 96 105 66 90 71
76 74 84 85 72 84 80 87 84 80 88 86 80 84 85 86 87 87 79 88 82 91 86 92 87 84 93 83 94 88 83 94 90 94 86 92 84 93 95 93 93 81 95 87 86 97 92 88 97 89 95 87 94 83 100 98 88 85 87 97 99 83 92 96 89 95 90 90 107 93 96 95 82 97 94 97 95 95 94 93 93 90 90 90 78 85 92 80 90 95 76 91 78 79 91 83 89 87 79 77 83 81 81 77 79 81 85 83 87 89 89 86 79 108 113 109 113 89 86 141
