0 0 0 0 0 0 0 0 0 0 0 0 0 0 0 0 0 0 0 0 0 0 0 0 0 0 0 0 0 0 0 0 0 0 0 0 0 0 0 0 0 0 0 0 0 0 0 0 0 0 0 0 0 0 0 0 0 0 0 0 0 0 0 0 0 0 0 0 0 0 0 0 0 0 0 0 0 0 0 0 0 0 0 0 0 0 0 0 0 0 0 0 0 0 0 0 0 0 0 0 0 0 0 0 0 0 0 0 0 0 0 0 0 0 0 0 0 0 0 0
0 0 0 0 0 0 0 0 0 0 0 0 0 0 0 0 0 0 0 0 0 0 0 0 0 0 0 0 0 0 0 0 0 0 0 0 0 0 0 0 0 0 0 0 0 0 0 0 0 0 0 0 0 0 0 0 0 0 0 0 0 0 0 0 0 0 0 0 0 0 0 0 0 0 0 0 0 0 0 0 0 0 0 0 0 0 0 0 0 0 0 0 0 0 0 0 0 0 0 0 0 0 0 0 0 0 0 0 0 0 0 0 0 0 0 0 0 0 0 0
0 0 0 0 0 0 0 0 0 0 0 0 0 0 0 0 0 0 0 0 0 0 0 0 0 0 0 0 0 0 0 0 0 0 0 0 0 0 0 0 0 0 0 0 0 0 0 0 0 0 0 0 0 0 0 0 0 0 0 0 0 0 0 0 0 0 0 0 0 0 0 0 0 0 0 0 0 0 0 0 0 0 0 0 0 0 0 0 0 0 0 0 0 0 0 0 0 0 0 0 0 0 0 0 0 0 0 0 0 0 0 0 0 0 0 0 0 0 0 0
0 0 0 0 0 0 0 0 0 0 0 0 0 0 0 0 0 0 0 0 0 0 0 0 0 0 0 0 0 0 0 0 0 0 0 0 0 0 0 0 0 0 0 0 0 0 0 0 0 0 0 0 0 0 0 0 0 0 0 0 0 0 0 0 0 0 0 0 0 0 0 0 0 0 0 0 0 0 0 0 0 0 0 0 0 0 0 0 0 0 0 0 0 0 0 0 0 0 0 0 0 0 0 0 0 0 0 0 0 0 0 0 0 0 0 0 0 0 0 0
0 0 0 0 0 0 0 0 0 0 0 0 0 0 0 0 0 0 0 0 0 0 0 0 0 0 0 0 0 0 0 0 0 0 0 0 0 0 0 0 0 0 0 0 0 0 0 0 0 0 0 0 0 0 0 0 0 0 0 0 0 0 0 0 0 0 0 0 0 0 0 0 0 0 0 0 0 0 0 0 0 0 0 0 0 0 0 0 0 0 0 0 0 0 0 0 0 0 0 0 0 0 0 0 0 0 0 0 0 0 0 0 0 0 0 0 0 0 0 0
0 0 0 0 0 0 0 0 0 0 0 0 0 0 0 0 0 0 0 0 0 0 0 0 0 0 0 0 0 0 0 0 0 0 0 0 0 0 0 509 492 475 505 501 512 508 504 532 488 504 509 480 485 483 508 0 0 0 0 0 0 0 0 0 0 0 0 0 0 0 0 0 0 0 0 0 0 0 0 0 0 0 0 0 0 0 0 0 0 0 0 0 0 0 0 0 0 0 0 0 0 0 0 0 0 0 0 0 0 0 0 0 0 0 0 0 0 0 0 0
0 0 0 0 0 0 0 0 0 0 0 0 0 0 0 0 0 0 0 0 0 0 0 0 0 0 0 0 0 0 0 0 0 0 0 0 0 509 501 506 508 503 489 480 502 501 491 517 499 512 503 507 506 496 514 509 503 493 511 490 0 0 0 0 0 0 0 0 0 0 0 0 0 0 0 0 0 0 0 0 0 0 0 0 0 0 0 0 0 0 0 0 0 0 0 0 0 0 0 0 0 0 0 0 0 0 0 0 0 0 0 0 0 0 0 0 0 0 0 0
0 0 0 0 0 0 0 0 0 0 0 0 0 0 0 0 0 0 0 0 0 0 0 0 0 0 0 0 0 0 0 0 0 0 0 525 522 511 496 510 498 505 505 511 504 518 500 500 510 494 502 498 523 514 515 506 519 511 509 524 523 521 543 557 553 0 0 0 0 0 0 0 0 0 0 0 0 0 0 0 0 0 0 0 0 0 0 0 0 0 0 0 0 0 0 0 0 0 0 0 0 0 0 0 0 0 0 0 0 0 0 0 0 0 0 0 0 0 0 0
0 0 0 0 0 0 0 0 0 0 0 0 0 0 0 0 0 0 0 0 0 0 0 0 0 0 0 0 0 0 0 0 0 473 511 499 502 518 502 502 511 507 496 499 507 496 489 488 501 520 504 489 500 497 502 520 504 508 512 518 499 511 497 525 513 493 486 519 522 546 551 536 566 0 593 502 558 529 0 0 0 0 0 0 0 0 0 0 0 0 0 0 0 0 0 0 0 0 0 0 0 0 0 0 0 0 0 0 0 0 0 0 0 0 0 0 0 0 0 0
0 0 0 0 0 0 0 0 0 0 0 0 0 0 0 0 0 0 0 0 0 0 0 0 0 0 0 0 0 0 0 562 510 512 487 510 511 508 507 500 511 500 495 507 507 515 513 508 505 504 513 507 515 501 507 514 513 515 502 519 514 505 512 512 509 523 524 512 546 561 605 590 594 567 581 614 558 596 578 590 625 609 606 630 535 602 520 563 624 588 591 592 558 592 566 564 603 582 554 601 609 583 530 535 0 0 0 0 0 0 0 0 0 0 0 0 0 0 0 0
0 0 0 0 0 0 0 0 0 0 0 0 0 0 0 0 0 0 0 0 0 0 0 0 0 0 0 0 0 0 529 509 497 502 493 498 501 514 503 502 497 502 515 503 502 510 508 505 502 501 500 507 509 516 510 512 513 503 496 521 501 510 514 518 515 508 519 505 514 507 532 531 570 590 573 583 617 582 565 570 570 583 614 579 594 552 543 589 614 589 611 622 596 568 607 591 619 541 610 590 576 634 628 579 640 546 570 583 586 0 0 0 0 0 0 0 0 0 0 0
0 0 0 0 0 0 0 0 0 0 0 0 0 0 0 0 0 0 0 0 0 0 0 0 0 0 0 0 480 491 485 497 499 498 501 503 491 504 505 499 500 498 502 498 507 508 500 496 498 507 501 506 500 503 501 508 508 507 505 507 502 490 511 498 516 500 503 509 513 514 508 542 524 543 572 559 533 548 541 569 567 540 593 566 580 562 563 590 581 590 571 574 559 535 569 536 528 533 560 524 552 542 519 553 582 573 601 559 539 0 0 0 0 0 0 0 0 0 0 0
0 0 0 0 0 0 0 0 0 0 0 0 0 0 0 0 0 0 0 0 0 0 0 0 0 0 0 536 504 514 502 493 498 512 493 510 496 513 512 498 505 508 497 512 496 514 508 507 516 508 508 516 512 515 515 511 508 493 509 514 518 511 506 512 520 514 503 515 514 521 513 513 555 602 565 569 597 565 571 549 591 553 593 585 614 570 585 589 602 607 609 565 583 598 538 582 557 596 575 625 598 580 582 599 559 597 551 563 553 0 0 0 0 0 0 0 0 0 0 0
0 0 0 0 0 0 0 0 0 0 0 0 0 0 0 0 0 0 0 0 0 0 0 0 0 0 501 494 483 497 501 499 497 487 499 499 497 488 503 503 501 511 500 507 503 510 496 494 494 494 509 502 512 507 496 501 503 510 510 515 509 511 506 507 506 511 509 501 513 507 508 509 525 560 546 565 598 553 565 508 555 586 566 524 563 535 539 569 547 556 563 557 533 550 561 540 543 592 564 553 559 553 573 541 589 558 546 519 585 0 0 0 0 0 0 0 0 0 0 0
0 0 0 0 0 0 0 0 0 0 0 0 0 0 0 0 0 0 0 0 0 0 0 0 0 449 487 483 499 488 492 493 508 492 492 480 502 497 496 497 505 505 510 508 498 496 510 513 495 493 499 507 498 497 498 503 508 511 501 510 512 502 511 511 505 497 502 502 515 511 512 507 508 528 512 513 540 556 538 534 521 521 545 515 551 579 555 533 549 517 525 578 530 530 525 546 540 545 544 536 527 561 500 548 539 538 521 533 470 525 471 0 0 0 0 0 0 0 0 0
0 0 0 0 0 0 0 0 0 0 0 0 0 0 0 0 0 0 0 0 0 0 0 0 0 496 494 493 504 488 498 493 501 500 485 502 498 494 507 498 496 503 511 499 499 498 509 502 498 503 506 505 512 500 498 504 509 504 510 506 508 508 507 517 509 506 509 513 499 507 516 512 514 508 534 569 538 583 561 562 550 555 572 573 539 537 568 557 556 575 575 553 548 546 525 535 562 546 586 557 561 586 569 541 574 581 584 602 560 0 523 0 546 575 0 0 0 0 0 0
0 0 0 0 0 0 0 0 0 0 0 0 0 0 0 0 0 0 0 0 0 0 0 0 493 490 500 488 488 489 500 493 498 487 489 495 494 489 495 492 505 504 491 493 490 503 499 500 488 507 499 500 504 500 498 511 498 491 500 498 501 502 499 499 508 515 509 497 503 504 507 501 513 500 526 536 505 534 548 541 529 536 508 510 534 524 518 537 523 529 534 526 543 493 526 515 517 552 543 515 499 528 508 512 523 526 531 542 487 475 0 0 0 0 0 0 0 0 0 0
0 0 0 0 0 0 0 0 0 0 0 0 0 0 0 0 0 0 0 0 0 0 0 0 487 481 495 493 504 495 491 496 495 492 493 491 500 497 495 503 497 498 506 496 491 509 503 500 506 502 503 507 507 503 507 501 505 508 508 505 505 504 500 512 502 518 506 502 504 513 505 509 508 505 506 521 543 539 535 531 560 538 549 531 548 556 558 547 541 537 572 527 552 548 535 527 540 556 566 545 550 558 560 524 548 545 549 542 558 524 0 0 0 0 0 0 0 0 0 0
0 0 0 0 0 0 0 0 0 0 0 0 0 0 0 0 0 0 0 0 0 0 0 477 507 488 490 500 489 476 492 499 483 492 487 493 499 500 493 493 496 499 509 499 497 502 505 499 502 497 507 499 503 510 504 507 510 507 495 501 508 505 510 500 501 509 509 507 509 500 508 498 503 502 510 516 545 555 535 532 515 526 549 529 538 568 514 540 520 541 533 538 550 539 550 536 533 527 531 529 534 545 503 537 563 555 520 537 559 0 531 0 0 0 0 0 0 0 0 0
0 0 0 0 0 0 0 0 0 0 0 0 0 0 0 0 0 0 0 0 0 0 0 492 490 491 490 499 489 495 500 487 502 490 492 493 485 495 494 500 499 492 498 506 496 502 499 500 498 495 500 497 497 492 496 505 503 512 502 498 501 508 505 499 502 492 498 502 505 512 510 497 509 512 516 501 528 525 550 545 549 508 541 573 521 542 535 537 534 513 529 521 516 511 529 510 545 510 538 536 528 524 538 538 501 541 544 488 506 558 474 0 0 0 0 0 0 0 0 0
0 0 0 0 0 0 0 0 0 0 0 0 0 0 0 0 0 0 0 0 0 0 469 497 495 503 499 491 498 490 493 507 497 492 494 493 497 498 494 500 501 500 493 508 495 503 507 499 503 502 498 504 498 508 512 497 506 509 509 503 512 509 505 508 505 508 513 507 504 511 513 509 504 509 505 503 534 549 553 533 568 558 539 555 556 570 561 570 558 553 549 560 588 552 541 520 544 563 565 540 566 550 533 544 545 542 551 546 576 542 561 515 605 0 0 0 0 0 0 0
0 0 0 0 0 0 0 0 0 0 0 0 0 0 0 0 0 0 0 0 0 0 508 506 486 491 482 486 498 490 488 492 493 491 496 497 487 494 502 504 493 494 494 497 495 498 501 499 502 501 501 500 497 504 499 507 506 504 505 504 503 507 497 507 506 502 506 511 511 497 506 509 508 508 505 512 524 517 533 524 523 533 493 524 526 528 514 514 503 518 539 558 512 509 538 511 530 520 547 545 494 540 535 514 522 550 546 500 527 526 522 546 0 0 0 0 0 0 0 0
0 0 0 0 0 0 0 0 0 0 0 0 0 0 0 0 0 0 0 0 0 0 482 485 484 485 489 492 494 490 497 493 487 483 492 478 492 498 493 493 492 496 496 498 496 502 492 492 494 498 492 500 499 503 499 491 507 505 508 497 502 502 501 504 499 499 508 503 506 506 506 494 507 506 513 500 509 514 493 512 502 501 499 499 516 527 507 493 534 505 502 502 500 516 533 519 504 532 518 527 502 493 542 514 525 535 512 503 554 513 521 518 477 469 0 0 0 0 0 0
0 0 0 0 0 0 0 0 0 0 0 0 0 0 0 0 0 0 0 0 0 0 480 491 485 492 494 495 495 488 498 491 488 493 488 490 484 487 488 491 499 494 491 500 502 493 498 505 496 500 496 503 502 495 498 503 499 500 501 503 508 507 506 507 501 496 501 501 507 506 513 506 507 514 509 516 511 514 546 525 538 532 532 518 533 552 529 540 547 545 509 519 534 536 541 521 538 546 534 525 548 532 547 559 519 532 555 527 557 554 524 547 504 0 0 0 0 0 0 0
0 0 0 0 0 0 0 0 0 0 0 0 0 0 0 0 0 0 0 0 0 0 483 479 483 481 481 489 486 500 488 492 496 484 485 486 486 485 487 489 493 489 502 498 498 501 491 501 497 497 497 504 496 497 499 494 505 497 502 495 505 505 503 497 504 501 497 501 507 499 507 500 507 500 500 500 499 520 498 501 503 486 486 510 492 490 486 509 529 494 488 508 495 491 485 489 503 500 541 499 502 503 492 498 480 495 529 511 475 453 481 495 534 0 0 0 0 0 0 0
0 0 0 0 0 0 0 0 0 0 0 0 0 0 0 0 0 0 0 0 0 0 488 473 489 496 488 489 488 486 494 490 488 487 490 482 498 490 502 491 498 493 493 497 491 494 492 495 499 494 493 499 498 497 497 502 503 505 502 501 506 501 501 505 505 506 503 510 496 510 500 513 506 513 510 498 505 510 512 538 520 492 526 509 541 519 509 515 530 510 527 547 521 532 513 491 477 543 507 519 523 520 507 538 560 523 519 542 0 487 478 0 553 0 0 0 0 0 0 0
0 0 0 0 0 0 0 0 0 0 0 0 0 0 0 0 0 0 0 0 0 451 491 488 485 486 486 489 490 487 482 486 489 497 485 485 498 490 491 499 494 494 492 495 495 497 495 496 495 493 498 498 500 502 503 499 497 504 503 499 506 508 506 502 503 500 507 508 516 509 504 504 508 505 507 509 505 510 529 542 514 535 500 527 532 535 525 533 527 517 510 516 541 531 548 517 538 530 520 554 540 532 531 528 538 499 529 512 496 538 481 0 0 0 0 0 0 0 0 0
0 0 0 0 0 0 0 0 0 0 0 0 0 0 0 0 0 0 0 0 0 437 481 482 482 483 479 479 483 487 482 488 488 484 481 488 491 488 488 490 495 493 488 489 493 497 493 496 505 491 497 497 499 495 500 498 502 506 501 499 496 496 500 497 500 504 503 498 497 494 497 499 504 501 510 507 507 515 522 508 531 517 515 506 504 534 488 502 501 494 479 475 507 521 484 512 477 486 501 488 520 550 495 492 490 492 499 495 511 468 492 488 470 0 0 0 0 0 0 0
0 0 0 0 0 0 0 0 0 0 0 0 0 0 0 0 0 0 0 0 0 473 474 486 484 479 484 490 483 488 483 491 487 491 491 488 485 494 493 490 495 491 488 495 492 494 494 497 500 499 499 498 498 495 497 504 499 506 507 501 509 507 507 506 501 502 505 506 510 500 496 504 503 506 511 499 508 506 515 513 492 517 512 525 521 530 501 541 537 503 557 536 496 501 499 498 503 508 529 505 511 509 545 509 497 533 540 526 545 530 549 482 549 0 0 0 0 0 0 0
0 0 0 0 0 0 0 0 0 0 0 0 0 0 0 0 0 0 0 0 0 448 475 477 486 477 482 476 487 484 484 483 485 487 482 488 488 485 486 491 491 491 488 497 494 497 492 495 492 490 497 499 496 498 499 496 504 494 509 495 495 502 499 499 500 500 504 504 496 506 501 499 502 506 501 507 499 505 509 496 489 520 516 502 517 494 508 512 501 495 510 516 483 505 479 491 514 499 496 495 471 495 518 512 512 498 504 499 526 525 515 490 538 0 0 0 0 0 0 0
0 0 0 0 0 0 0 0 0 0 0 0 0 0 0 0 0 0 0 0 0 462 489 478 491 483 477 480 484 478 486 480 484 487 486 483 484 488 486 490 488 492 490 490 493 489 487 494 495 494 497 499 499 503 498 494 498 494 498 498 500 499 500 494 503 507 499 499 499 499 502 506 498 507 502 498 496 503 505 489 487 514 507 504 483 506 502 486 491 500 514 488 500 499 503 485 497 497 485 489 476 496 514 499 516 492 488 509 508 514 493 455 478 0 0 0 0 0 0 0
0 0 0 0 0 0 0 0 0 0 0 0 0 0 0 0 0 0 0 0 0 470 476 482 481 481 479 482 478 480 484 487 490 487 488 493 482 487 491 493 489 492 493 490 496 494 496 494 500 493 492 496 499 502 500 504 498 499 498 500 496 495 501 505 494 505 501 500 505 504 503 500 500 505 499 503 498 496 520 503 517 521 521 517 515 504 503 517 510 494 507 523 516 509 548 519 521 509 486 505 536 544 530 520 507 523 514 529 535 523 517 570 490 565 0 0 0 0 0 0
0 0 0 0 0 0 0 0 0 0 0 0 0 0 0 0 0 0 0 0 0 445 472 477 474 480 480 481 482 476 479 483 488 482 482 481 488 489 485 492 491 488 487 489 487 497 492 497 492 491 495 494 494 495 494 494 495 498 505 496 501 498 503 499 491 494 499 499 499 506 500 498 504 499 492 500 496 488 487 477 503 480 486 496 498 494 490 495 496 481 484 490 503 512 472 495 510 477 500 504 481 518 505 468 498 524 500 478 513 470 518 461 513 0 0 0 0 0 0 0
0 0 0 0 0 0 0 0 0 0 0 0 0 0 0 0 0 0 0 0 0 500 488 477 483 481 485 477 477 478 490 492 488 486 486 487 483 482 488 491 485 486 488 499 498 493 495 491 493 495 493 498 500 494 499 499 498 498 496 496 495 496 499 499 500 500 499 497 503 497 503 495 500 495 499 492 501 500 495 522 504 521 504 505 513 506 523 513 510 512 480 495 510 519 525 520 506 545 526 531 505 532 519 504 533 517 544 525 517 482 497 516 566 0 0 0 0 0 0 0
0 0 0 0 0 0 0 0 0 0 0 0 0 0 0 0 0 0 0 0 0 453 477 474 477 481 479 484 482 484 485 488 483 491 482 486 484 486 488 492 491 483 487 489 492 494 494 493 498 490 498 491 493 494 499 497 501 496 494 494 498 498 500 500 498 499 500 502 496 502 496 497 500 496 502 502 497 503 508 505 499 515 503 501 531 489 530 519 488 496 516 535 504 500 507 508 500 487 511 510 526 502 513 513 546 495 508 478 526 529 460 502 485 532 0 0 0 0 0 0
0 0 0 0 0 0 0 0 0 0 0 0 0 0 0 0 0 0 0 0 0 446 472 466 475 473 478 480 476 483 479 482 489 481 480 481 485 484 489 485 486 486 487 496 492 492 489 487 492 498 493 490 492 494 498 496 495 499 496 491 495 499 499 500 492 500 497 496 497 500 499 498 497 503 495 500 498 500 516 500 504 489 506 487 494 504 496 477 482 492 492 506 506 502 500 488 502 513 489 496 493 504 510 498 474 499 521 497 510 502 489 491 452 475 0 0 0 0 0 0
0 0 0 0 0 0 0 0 0 0 0 0 0 0 0 0 0 0 0 0 0 498 470 480 478 480 485 480 477 477 477 482 487 485 485 482 488 486 481 489 486 492 493 490 488 490 489 496 494 494 494 497 495 494 494 494 494 495 494 495 497 498 500 501 500 503 496 498 501 496 497 501 503 502 506 499 499 498 512 496 520 502 490 495 519 486 496 493 496 501 507 526 506 485 511 533 520 501 529 530 509 542 528 497 503 497 516 498 502 479 540 517 542 530 0 0 0 0 0 0
0 0 0 0 0 0 0 0 0 0 0 0 0 0 0 0 0 0 0 0 0 0 472 479 477 481 475 476 485 484 480 478 487 483 485 484 490 480 486 487 483 488 490 490 487 487 494 488 492 499 495 498 489 497 500 495 493 496 490 490 498 496 496 499 498 499 499 496 497 495 503 502 499 501 497 496 498 491 497 511 502 497 495 497 488 487 505 500 503 508 501 496 514 500 500 521 513 483 505 487 511 512 503 480 501 467 475 520 503 498 506 460 473 434 0 0 0 0 0 0
0 0 0 0 0 0 0 0 0 0 0 0 0 0 0 0 0 0 0 0 0 0 483 472 471 478 477 479 475 482 481 478 480 484 479 481 481 489 489 486 484 486 481 483 489 488 487 491 491 486 494 492 496 496 494 492 494 489 495 497 497 497 495 498 496 492 501 499 498 491 497 495 493 493 498 494 500 502 516 498 507 517 515 501 517 519 508 524 510 501 526 503 500 502 520 515 513 517 474 502 492 488 479 483 521 469 463 457 501 472 513 457 499 457 0 0 0 0 0 0
0 0 0 0 0 0 0 0 0 0 0 0 0 0 0 0 0 0 0 0 0 0 535 472 476 477 479 480 480 476 481 479 481 488 483 486 486 488 479 487 491 486 489 490 493 488 487 483 494 490 489 493 496 491 498 494 493 493 495 496 497 492 494 500 501 495 497 498 494 499 495 494 497 497 495 497 495 507 501 513 508 494 507 524 508 517 529 505 515 521 509 534 513 527 499 529 525 485 520 524 509 513 490 534 551 490 488 503 530 535 544 554 505 528 458 499 0 0 0 0
0 0 0 0 0 0 0 0 0 0 0 0 0 0 0 0 0 0 0 0 0 0 592 474 474 475 475 472 473 478 477 476 479 476 478 487 482 478 484 483 485 483 489 489 490 489 490 488 496 488 487 496 494 493 496 497 495 499 491 497 492 497 503 496 494 496 498 496 497 490 491 498 495 499 497 488 492 490 509 500 509 483 505 520 509 502 493 497 504 516 500 502 527 512 522 522 503 526 485 506 484 489 501 487 486 481 491 503 506 500 456 462 481 472 0 0 0 0 0 0
0 0 0 0 0 0 0 0 0 0 0 0 0 0 0 0 0 0 0 0 0 0 0 477 473 471 476 474 474 474 482 481 480 482 477 480 480 483 482 481 485 489 489 492 492 486 483 489 485 490 492 491 495 486 487 493 493 492 495 495 492 496 495 494 495 494 490 503 497 495 501 493 495 498 492 498 489 494 486 508 507 505 504 514 498 505 493 484 497 518 488 516 513 516 518 523 498 526 518 525 527 507 507 508 514 512 520 487 523 490 513 511 494 0 0 0 0 0 0 0
0 0 0 0 0 0 0 0 0 0 0 0 0 0 0 0 0 0 0 0 0 0 0 492 473 472 483 474 474 478 478 480 474 480 483 481 482 483 484 482 486 483 494 489 487 489 490 493 488 489 492 488 485 493 492 497 498 493 496 495 488 496 493 496 493 496 498 497 497 494 497 494 493 494 495 494 494 495 494 501 493 515 498 482 494 511 500 487 491 498 499 491 506 519 478 527 510 541 486 528 504 506 541 503 510 513 502 509 489 494 489 483 462 0 0 0 0 0 0 0
0 0 0 0 0 0 0 0 0 0 0 0 0 0 0 0 0 0 0 0 0 0 0 510 470 471 471 479 474 473 477 478 480 475 477 476 476 477 480 484 486 484 486 484 487 490 489 488 489 484 491 490 488 493 494 490 494 497 488 494 495 494 493 497 495 496 491 495 491 494 494 494 497 497 494 495 481 494 505 498 509 505 488 480 510 492 499 517 500 527 500 494 476 495 495 481 489 493 512 500 498 513 489 459 475 498 482 484 496 479 457 469 465 536 450 0 0 0 0 0
0 0 0 0 0 0 0 0 0 0 0 0 0 0 0 0 0 0 0 0 0 0 0 0 472 468 471 477 472 476 477 473 473 476 481 477 477 482 482 481 481 488 485 488 490 489 488 490 490 489 490 491 492 494 493 491 495 494 487 495 490 498 495 498 496 494 492 497 498 500 499 491 492 491 493 485 494 500 505 514 496 542 503 516 498 512 515 504 505 496 524 500 505 507 535 507 508 526 494 525 508 532 517 518 481 526 482 526 546 538 516 459 477 497 488 508 0 0 0 0
0 0 0 0 0 0 0 0 0 0 0 0 0 0 0 0 0 0 0 0 0 0 0 0 521 466 472 470 471 474 474 471 480 477 476 480 474 476 484 479 481 485 484 483 486 487 489 485 486 489 494 495 489 489 490 489 492 493 490 490 496 488 493 495 491 493 493 494 486 493 495 494 493 492 491 490 488 492 495 503 496 496 502 496 501 526 491 513 494 477 514 501 506 504 501 507 516 483 497 483 461 520 507 480 461 467 458 484 466 474 471 493 476 439 433 0 0 0 0 0
0 0 0 0 0 0 0 0 0 0 0 0 0 0 0 0 0 0 0 0 0 0 0 0 0 473 465 470 462 472 470 473 479 470 472 474 477 480 477 481 478 476 483 483 488 481 486 485 487 488 490 484 491 489 487 488 496 487 486 489 490 491 491 491 491 486 493 496 493 500 491 492 493 487 493 489 490 477 477 493 494 507 505 491 493 488 495 497 497 487 497 508 481 481 513 493 494 512 500 482 506 503 498 473 492 479 474 463 497 485 476 447 463 472 0 0 0 0 0 0
0 0 0 0 0 0 0 0 0 0 0 0 0 0 0 0 0 0 0 0 0 0 0 0 0 543 477 475 471 470 473 476 474 470 475 482 480 478 481 479 487 485 479 489 485 484 483 486 481 484 487 484 489 490 493 492 496 491 494 493 485 489 489 491 491 493 495 490 488 491 496 493 497 490 488 494 490 484 498 482 495 495 495 486 492 499 497 498 504 497 486 512 483 490 508 518 502 513 500 532 516 516 516 516 487 467 476 478 494 502 480 490 524 533 503 0 0 0 0 0
0 0 0 0 0 0 0 0 0 0 0 0 0 0 0 0 0 0 0 0 0 0 0 0 0 0 470 472 455 474 466 468 468 472 472 474 481 476 476 477 473 478 480 481 487 485 481 483 489 484 488 489 491 489 489 489 487 489 489 488 489 482 487 490 490 486 490 485 490 492 496 493 493 489 479 485 485 492 489 486 475 493 478 494 477 498 474 468 481 473 485 481 482 486 509 482 478 483 478 495 485 503 473 487 449 455 481 472 472 448 487 508 450 488 0 0 0 0 0 0
0 0 0 0 0 0 0 0 0 0 0 0 0 0 0 0 0 0 0 0 0 0 0 0 0 0 0 465 471 463 471 473 472 476 473 475 474 479 477 478 477 483 476 480 479 480 482 481 484 487 484 489 484 489 488 486 489 489 483 490 490 489 488 487 486 488 488 496 491 495 491 486 486 485 483 485 486 483 500 470 497 486 478 485 491 486 487 479 470 487 480 486 473 497 479 515 507 498 504 498 504 478 501 457 486 469 455 476 487 442 492 474 488 459 517 0 0 0 0 0
0 0 0 0 0 0 0 0 0 0 0 0 0 0 0 0 0 0 0 0 0 0 0 0 0 0 0 517 473 466 467 471 473 477 475 473 476 475 473 478 475 476 478 481 482 483 484 483 485 488 485 486 491 489 486 485 490 483 489 492 488 486 490 491 488 487 491 486 492 490 489 485 488 486 493 482 483 490 483 487 484 505 477 493 490 503 511 494 511 487 480 486 496 507 485 508 476 483 497 514 481 507 493 465 503 432 481 515 501 462 464 523 489 496 0 0 0 0 0 0
0 0 0 0 0 0 0 0 0 0 0 0 0 0 0 0 0 0 0 0 0 0 0 0 0 0 0 0 487 465 465 469 469 469 470 472 473 472 475 473 473 476 477 470 478 484 474 476 480 483 484 482 486 484 485 482 481 484 486 486 487 483 486 487 485 486 490 487 493 484 482 491 478 476 483 478 488 472 487 477 486 471 475 480 502 477 505 485 471 492 500 480 498 489 465 484 471 477 475 486 481 499 468 471 451 430 475 454 493 441 471 490 483 438 468 0 0 0 0 0
0 0 0 0 0 258 230 279 334 0 0 0 0 0 0 0 0 0 0 0 0 2328 0 0 0 0 0 0 0 515 465 472 463 470 469 473 471 475 468 477 479 474 477 477 482 480 480 483 479 484 482 483 482 484 485 482 485 486 483 485 486 486 485 487 482 487 491 484 484 486 480 486 488 489 494 491 478 492 508 498 498 489 483 491 502 489 498 500 493 497 485 516 518 493 507 486 489 489 495 494 498 497 506 495 518 498 454 472 489 477 498 485 506 506 544 0 0 0 0 0
0 0 0 0 243 228 227 233 236 286 354 0 0 0 0 0 0 0 0 0 0 0 0 0 0 0 0 0 0 0 470 465 461 468 467 470 471 472 475 472 472 477 472 471 483 475 481 475 478 478 480 486 485 481 479 484 483 482 483 483 482 482 486 484 484 488 483 488 479 480 478 479 478 477 481 480 485 476 477 469 478 476 475 485 488 479 466 478 480 474 477 489 477 482 473 475 477 474 499 497 477 489 480 458 452 451 484 450 458 466 444 473 474 424 0 0 0 0 0 0
0 0 0 215 219 228 224 222 231 235 346 0 0 0 0 0 0 0 0 0 0 0 0 0 0 0 0 0 0 0 0 465 457 463 462 467 465 468 464 467 466 471 472 473 474 476 471 470 475 474 482 475 477 476 480 479 480 478 483 478 480 484 480 478 478 477 482 477 471 478 462 470 467 487 477 476 470 474 486 476 474 471 486 476 475 483 483 476 474 482 471 488 477 467 476 485 467 458 489 484 468 466 467 519 441 438 464 439 460 458 471 450 458 429 442 0 0 0 0 0
227 265 254 284 258 274 267 233 237 234 319 0 411 423 403 414 391 423 414 441 463 456 445 435 459 445 448 460 434 450 451 459 462 471 463 467 463 469 472 465 463 471 475 464 475 472 474 471 474 474 476 478 477 483 480 476 476 475 476 478 472 478 485 479 482 482 481 487 488 479 476 472 488 474 480 473 475 484 466 478 473 463 472 473 484 484 471 483 463 476 470 465 479 488 475 483 488 479 471 478 486 474 457 446 465 489 475 492 489 482 450 467 445 482 449 0 0 0 0 0
204 194 175 214 219 241 222 224 230 259 352 390 391 379 390 397 384 399 395 406 398 399 409 404 431 431 434 423 441 450 448 455 457 451 452 455 458 456 460 453 460 458 463 463 458 464 468 469 471 473 469 471 470 474 472 468 474 469 472 472 471 469 472 468 474 471 478 475 469 473 467 471 473 457 456 458 463 457 440 454 454 457 451 449 454 457 447 441 455 449 453 455 432 443 449 445 462 459 444 447 451 456 443 452 445 454 454 433 447 440 438 449 416 445 425 464 431 0 0 0
175 202 217 219 214 240 234 223 228 314 372 362 369 354 370 385 376 383 378 394 390 397 390 402 413 418 406 425 438 438 440 450 441 446 436 446 442 448 449 449 448 453 450 448 449 453 449 458 449 458 459 459 460 463 453 455 453 459 462 463 459 469 453 465 463 457 454 462 459 455 454 449 446 439 441 444 433 432 429 436 429 428 429 426 429 433 429 429 422 431 421 421 434 435 435 438 407 426 434 428 422 434 424 432 415 434 411 414 431 423 413 419 427 420 415 493 412 443 435 0
308 278 252 221 230 229 230 236 252 343 353 338 344 339 342 345 345 344 345 351 354 350 374 372 376 390 391 408 412 420 415 419 424 434 426 435 433 431 438 426 432 431 427 432 441 432 439 436 442 439 444 440 443 438 435 445 445 445 446 438 448 440 451 444 435 445 444 436 441 440 436 430 431 432 426 421 413 399 402 403 402 398 404 395 402 403 403 388 400 401 403 393 403 395 405 396 401 416 398 393 394 395 399 396 396 372 384 390 394 393 386 392 401 400 400 395 390 414 439 0
303 287 270 225 237 236 232 253 271 299 307 309 300 296 301 313 301 301 313 325 318 313 326 345 348 369 376 382 399 401 395 399 407 408 409 409 415 407 411 412 417 415 412 414 418 416 418 414 415 418 416 415 425 418 417 424 420 420 418 422 422 427 418 420 412 415 426 421 418 418 408 409 399 399 401 393 376 374 370 365 360 366 353 343 362 356 365 371 364 362 350 367 357 353 359 359 350 362 356 362 365 359 358 360 356 352 351 348 351 355 369 334 351 346 332 337 333 363 317 379
300 285 272 273 257 264 265 301 286 289 292 299 280 296 288 289 284 284 288 312 303 305 320 324 327 342 359 374 371 379 382 387 394 385 392 390 392 399 395 396 400 389 396 398 394 395 395 390 398 396 399 400 401 401 403 395 400 397 397 397 401 397 401 400 394 387 402 394 401 396 395 397 392 383 377 365 370 353 337 337 336 340 338 336 334 330 322 331 335 331 330 341 340 343 338 348 341 328 331 335 331 332 334 341 342 340 335 334 332 325 346 340 346 327 352 361 314 340 349 370
248 239 251 246 239 247 253 248 259 260 257 251 258 263 255 261 256 256 266 276 271 283 291 303 314 312 325 341 341 355 362 360 361 363 363 365 367 372 365 366 371 365 376 376 375 378 369 369 367 368 372 375 381 376 382 376 371 376 381 376 381 374 381 377 374 377 377 375 375 370 366 363 359 359 347 348 331 316 310 308 302 305 310 297 305 313 308 303 288 298 296 293 309 295 304 318 297 301 294 300 311 311 307 299 304 310 310 295 310 312 287 307 300 305 279 303 275 307 322 311
232 237 236 228 233 231 237 238 245 243 240 242 236 240 242 240 234 244 250 250 257 270 268 280 294 301 309 327 327 335 330 336 335 347 339 346 341 340 335 340 350 343 350 347 345 348 350 354 345 343 339 347 347 355 352 353 354 349 351 348 353 353 350 345 350 346 345 346 347 346 348 344 343 339 325 321 301 295 289 283 274 276 286 270 283 271 281 278 279 269 270 280 278 282 274 264 264 277 280 280 275 283 280 274 281 281 272 282 285 282 288 283 282 291 274 294 269 263 277 291
220 219 240 226 231 220 222 227 225 228 234 226 229 233 231 226 231 233 233 234 234 245 258 267 276 287 299 287 303 306 310 323 317 316 315 318 315 322 327 327 324 324 319 314 326 325 322 327 321 330 324 325 330 328 330 329 329 316 333 329 328 330 323 328 322 326 329 328 322 323 324 318 323 313 303 306 283 279 280 272 269 270 268 270 270 268 261 254 257 261 263 265 269 257 263 264 261 257 268 256 268 258 258 261 260 259 258 253 266 260 263 262 252 266 256 264 268 272 296 308
197 205 199 205 210 208 209 213 208 211 211 206 210 211 211 211 217 220 216 217 234 239 245 250 257 266 268 271 276 282 283 292 295 291 293 296 292 302 302 305 298 297 298 299 302 297 307 301 307 300 307 298 297 299 297 303 305 302 302 305 304 301 304 308 308 299 300 301 299 304 293 297 301 294 285 279 272 258 251 249 242 244 243 241 244 247 249 240 237 239 237 238 240 238 241 238 240 233 244 242 239 239 245 236 234 245 235 241 240 241 243 248 244 252 235 255 234 235 253 242
198 199 200 201 205 209 209 210 200 207 206 201 189 193 201 190 190 193 212 213 212 226 235 235 241 246 253 259 263 273 273 272 268 273 280 276 283 277 279 283 283 283 288 286 284 284 282 285 286 287 284 286 281 284 285 284 283 291 287 283 282 285 285 287 291 287 286 285 285 283 282 283 274 270 268 261 256 246 239 233 230 224 228 231 228 229 229 225 227 232 230 231 229 225 220 224 222 221 228 227 228 226 222 221 224 222 225 233 228 234 233 229 248 236 259 233 244 226 250 233
177 174 191 195 183 180 183 200 189 180 184 181 187 184 181 186 186 187 189 207 210 211 225 225 229 232 237 245 253 249 258 255 254 259 259 259 261 257 265 268 263 263 265 266 266 263 268 266 266 262 264 265 266 270 270 267 266 269 264 274 269 271 266 274 270 273 268 270 266 261 266 255 256 255 251 249 238 235 225 225 225 220 216 220 220 222 221 215 216 221 223 220 218 215 214 212 212 211 214 219 221 219 219 212 212 211 211 217 226 223 220 228 236 233 207 212 229 242 234 224
171 176 164 178 176 178 178 182 179 176 180 181 179 176 177 177 180 189 187 190 186 189 190 214 213 217 221 225 227 230 233 241 240 242 240 243 235 246 246 245 243 246 247 247 248 248 247 246 244 249 247 248 247 250 244 246 251 252 247 250 250 245 249 246 242 247 247 246 246 249 245 243 237 239 235 225 220 213 195 200 198 195 190 189 195 190 194 195 189 191 192 190 190 193 189 183 185 183 189 195 188 194 207 186 194 187 178 202 182 200 205 200 203 203 198 203 211 191 200 207
170 177 175 177 175 179 172 178 178 180 179 178 180 177 180 180 180 183 185 185 186 189 190 189 194 206 212 213 219 227 228 225 226 227 233 235 231 237 233 232 227 235 235 235 234 236 229 232 233 234 232 236 236 235 237 233 235 238 237 241 232 239 236 236 236 237 232 230 233 233 233 232 226 222 222 218 198 199 188 199 196 196 193 195 189 191 194 194 183 191 193 181 192 180 190 191 185 188 187 190 174 182 181 179 188 202 190 185 177 186 185 199 204 188 208 204 199 205 209 213
162 165 171 172 168 168 169 166 167 170 169 167 170 171 171 172 173 174 174 182 172 184 186 188 185 183 185 192 193 210 197 200 210 212 214 217 216 215 213 199 217 220 219 218 218 222 219 217 220 225 219 221 220 218 221 221 218 221 219 221 216 226 225 218 221 218 221 216 221 219 214 219 216 210 194 199 185 198 196 190 188 184 186 183 185 181 180 186 186 187 184 187 183 181 179 185 183 179 184 183 185 185 182 181 179 183 179 179 176 183 172 180 182 178 180 168 178 177 191 173
149 154 157 156 162 169 162 165 161 163 158 155 159 159 161 159 160 169 164 173 170 176 180 180 184 188 185 185 192 188 181 187 184 184 195 191 186 184 198 192 196 194 190 190 194 196 194 192 192 194 196 198 198 199 196 193 195 193 197 196 200 193 198 189 191 194 196 196 197 193 198 199 197 193 199 187 195 189 186 178 178 176 181 175 177 174 174 176 173 174 176 178 176 176 172 172 170 171 169 175 174 169 172 172 173 165 168 164 171 177 167 172 169 173 175 173 171 174 166 167
146 154 154 153 158 154 155 158 160 158 157 158 156 155 157 157 159 158 161 163 167 171 178 178 179 182 181 185 184 186 187 185 194 194 190 186 192 195 193 191 194 194 193 198 194 195 194 200 196 191 192 198 196 195 199 198 194 198 197 189 197 197 199 188 193 195 199 198 199 196 199 196 195 190 188 185 187 184 178 171 176 171 169 163 165 169 172 170 171 169 169 168 171 168 166 167 165 164 163 172 171 168 168 168 165 165 157 167 169 171 168 161 175 166 178 164 163 170 175 154
141 142 146 146 148 148 149 150 152 155 150 150 147 154 151 150 154 150 153 159 163 163 168 174 170 172 174 173 177 178 176 177 179 181 177 181 184 182 186 182 185 185 186 184 185 185 184 184 188 184 186 189 190 185 189 186 188 193 0 188 190 187 188 185 187 187 189 187 185 187 184 183 181 180 179 175 175 174 170 165 161 155 162 162 163 162 162 162 166 161 161 162 158 163 163 161 155 158 167 162 159 159 162 157 161 159 153 157 158 163 158 156 162 162 152 160 155 164 162 169
134 141 139 142 139 149 152 146 143 149 145 143 142 146 147 147 144 148 148 149 161 163 164 168 168 168 169 166 169 171 169 174 178 172 169 172 175 174 175 178 178 182 178 176 177 179 176 179 178 178 182 178 181 180 181 180 182 0 0 179 177 181 179 181 181 178 180 178 181 174 176 178 172 177 174 171 170 163 162 159 163 157 154 152 161 155 157 155 155 155 155 153 159 157 155 153 154 152 154 154 150 157 152 154 157 145 146 149 159 158 152 150 151 148 151 161 156 150 157 167
137 135 136 138 143 146 150 140 143 142 137 139 145 143 144 142 142 148 148 148 148 156 157 159 159 159 161 164 164 167 164 164 167 168 166 168 164 171 167 171 170 0 173 171 171 174 172 174 173 174 174 175 176 177 176 177 176 173 0 0 174 0 175 171 173 173 173 166 173 170 169 166 168 169 165 166 165 157 157 157 150 157 155 150 153 150 152 149 151 158 146 151 149 151 150 148 153 153 154 153 150 146 149 150 145 147 143 147 151 145 151 147 147 160 155 144 148 168 157 163
128 124 116 115 132 135 143 138 131 123 130 131 133 126 136 135 136 134 136 142 138 146 151 153 149 156 156 156 156 158 160 158 158 160 157 158 161 165 0 0 0 0 0 0 0 0 0 166 166 165 164 167 168 168 0 0 0 169 169 0 0 0 0 0 165 168 165 0 160 162 163 160 158 157 158 157 153 154 147 146 150 149 144 146 146 151 143 145 148 144 141 145 144 147 141 138 142 144 142 142 138 140 138 137 134 133 134 135 140 138 139 147 144 144 139 147 139 135 138 133
124 128 126 118 128 134 134 134 135 131 127 130 132 133 133 134 131 136 136 137 140 141 147 150 147 150 155 153 156 154 155 153 158 158 152 155 157 0 0 0 0 0 0 0 0 0 0 0 0 162 165 163 0 0 0 0 0 0 0 0 0 0 0 0 163 161 0 0 0 0 0 159 159 156 154 149 147 151 149 147 144 144 145 144 141 141 140 139 146 140 138 141 138 142 137 137 143 144 137 140 137 136 136 138 130 137 137 136 141 149 139 151 138 148 140 145 144 130 140 153
113 108 118 124 119 127 129 129 128 127 130 123 119 119 116 130 133 133 129 136 129 127 135 145 141 143 143 147 146 147 150 148 153 150 149 149 0 0 0 0 0 0 0 0 0 0 0 0 151 154 158 0 0 0 0 0 0 0 0 0 0 0 0 0 0 0 0 0 0 0 0 0 148 153 150 147 148 144 139 144 139 140 129 140 129 126 136 140 127 132 142 130 130 127 118 131 139 140 134 134 131 138 132 117 125 133 132 125 133 138 134 143 137 140 148 137 136 128 113 138
103 112 112 109 106 114 120 118 115 120 115 114 115 116 127 124 123 130 116 119 130 126 124 126 137 140 138 141 142 142 144 144 144 143 147 143 0 0 0 0 0 0 0 0 0 0 0 0 145 0 0 0 0 0 0 0 0 0 0 0 0 0 0 0 0 0 0 0 0 0 0 0 146 139 143 131 139 132 128 127 124 120 122 123 126 120 123 123 124 130 123 124 116 125 126 129 125 132 121 119 122 129 133 114 128 122 127 122 121 132 133 137 119 130 125 114 110 108 120 130
111 106 117 117 112 115 115 115 118 118 116 116 118 115 119 122 120 120 122 119 119 118 122 115 137 137 136 137 0 140 0 0 0 129 141 140 0 0 0 0 0 0 0 0 0 0 0 0 0 0 0 0 0 0 0 0 0 0 0 0 0 0 0 0 0 0 0 0 0 0 0 0 0 143 137 137 122 126 123 129 122 120 125 125 115 121 114 121 120 116 123 123 118 117 113 123 120 118 120 119 121 121 130 121 121 118 128 121 111 129 130 107 126 124 136 128 107 135 153 134
97 97 107 111 107 101 105 103 99 102 111 105 105 106 103 107 108 112 114 111 114 116 112 118 118 124 125 120 121 127 130 0 0 0 126 0 0 0 0 0 0 0 0 0 0 0 0 0 0 0 0 0 0 0 0 0 0 0 0 0 0 0 0 0 0 0 0 0 0 0 0 0 131 0 0 126 122 119 119 115 115 115 108 119 112 117 110 112 110 113 110 111 107 112 112 106 113 114 111 111 111 113 110 117 111 113 110 113 107 104 104 116 108 115 117 103 103 120 99 137
97 103 90 96 100 106 105 101 101 105 101 103 104 108 106 103 107 109 114 109 110 111 110 109 117 110 116 121 119 123 0 127 0 0 0 0 0 0 0 0 0 0 0 0 0 0 0 0 0 0 0 0 0 0 0 0 0 0 0 0 0 0 0 0 0 0 0 0 0 0 0 0 0 123 0 118 121 117 115 112 114 113 106 102 112 108 108 119 104 110 115 114 112 114 107 113 107 105 98 118 115 109 113 104 106 111 108 108 108 112 111 107 117 107 110 124 123 104 103 130
101 103 99 105 98 102 99 92 94 98 100 96 105 97 101 93 106 106 112 117 114 106 100 106 114 110 113 115 115 118 118 119 121 0 0 0 0 0 0 0 0 0 0 0 0 0 0 0 0 0 0 0 0 0 0 0 0 0 0 0 0 0 0 0 0 0 0 0 0 0 0 0 125 123 110 122 110 118 119 117 105 110 102 120 106 107 103 102 104 106 107 109 112 94 99 101 107 105 117 107 103 107 108 104 109 108 108 95 102 100 105 98 105 104 121 101 142 131 100 127
87 85 84 84 82 82 79 99 90 83 90 92 97 94 94 89 77 91 90 90 93 86 100 106 101 103 116 110 0 113 109 108 117 0 111 0 0 0 113 0 0 0 0 0 0 0 0 0 0 0 0 0 0 0 0 0 0 0 0 0 0 0 0 0 0 0 0 0 0 0 0 118 113 109 104 112 105 105 103 102 99 102 99 95 103 95 91 99 105 98 90 97 104 84 84 94 93 100 84 95 86 97 92 93 86 92 97 93 93 89 89 86 80 92 84 102 92 89 94 114
92 87 91 90 100 98 98 108 92 96 97 95 96 89 97 100 96 92 104 98 96 107 106 106 107 105 112 108 0 106 111 110 119 113 121 110 114 0 0 0 0 119 0 0 0 0 0 0 0 0 0 0 0 0 0 0 0 0 0 0 0 0 0 0 111 0 0 0 112 0 111 109 116 115 114 107 112 110 103 101 112 108 107 89 99 103 106 105 102 105 107 105 110 98 104 104 102 99 103 109 104 96 102 99 97 101 101 86 95 85 93 96 89 106 106 106 125 115 138 164
84 94 90 90 97 96 92 94 86 96 88 87 86 94 89 85 96 98 99 96 100 92 98 113 92 104 105 100 102 105 94 104 104 102 100 100 0 115 117 0 108 0 0 0 0 0 0 0 0 0 0 0 0 0 0 0 0 110 0 0 111 108 106 110 113 113 107 102 113 105 110 101 105 104 115 109 101 91 102 98 94 96 101 83 93 92 92 102 106 93 98 103 109 87 95 87 92 89 93 87 93 85 93 98 88 87 98 89 96 88 97 89 83 85 87 90 100 117 132 95
85 83 82 90 91 93 102 89 89 82 86 86 85 93 88 89 88 89 94 88 80 92 97 83 87 94 92 91 104 92 93 99 98 96 95 108 99 101 103 102 105 99 99 109 108 90 0 0 98 0 0 109 107 92 102 111 109 102 108 105 99 107 106 101 99 109 103 91 101 108 95 104 105 102 107 93 95 98 98 91 94 90 94 96 97 95 89 93 96 94 99 91 91 95 95 92 95 85 93 82 85 89 93 91 92 92 89 87 79 91 86 96 100 108 85 86 109 78 95 110
84 83 87 83 81 89 98 101 87 83 85 81 83 87 82 91 85 93 93 96 87 97 95 94 92 94 95 90 99 100 95 88 96 92 95 95 101 101 97 106 104 96 100 107 99 92 107 0 103 105 100 107 100 98 104 104 102 108 97 108 106 94 98 104 105 101 97 100 94 106 97 106 102 97 106 89 94 95 94 86 100 96 84 94 97 96 89 85 94 89 89 96 87 92 95 94 90 96 98 93 82 100 82 92 91 103 94 98 90 86 88 100 112 96 95 110 109 105 126 136
82 74 69 72 78 82 88 89 86 79 86 81 85 80 85 86 88 85 85 88 91 83 92 89 88 87 92 93 87 94 91 93 81 93 96 93 98 86 89 97 92 89 98 92 97 92 89 103 95 89 95 98 98 89 90 82 99 88 102 97 96 99 81 79 98 99 95 93 95 98 91 87 97 94 87 97 90 96 98 94 87 90 83 87 81 90 88 87 83 87 92 80 90 78 88 86 84 75 82 86 80 84 81 75 84 82 85 85 83 81 71 84 86 89 78 70 99 87 78 61
76 74 83 86 72 87 89 88 84 77 82 78 79 84 85 90 87 88 83 88 87 94 84 93 88 93 94 85 93 91 86 94 92 96 87 92 96 94 89 94 93 81 97 90 85 99 89 89 100 89 95 98 98 88 102 95 91 88 93 96 98 99 90 96 94 96 90 96 107 96 97 97 91 84 97 98 93 87 96 96 91 90 88 87 79 90 90 80 96 91 77 87 81 81 92 83 94 85 80 84 84 78 81 78 76 86 83 90 90 97 87 85 83 101 83 96 84 116 99 207
