0 0 0 0 0 0 0 0 0 0 0 0 0 0 0 0 0 0 0 0 0 0 0 0 0 0 0 0 0 0 0 0 0 0 0 0 0 0 0 0 0 0 0 0 0 0 0 0 0 0 0 0 0 0 0 0 0 0 0 0 0 0 0 0 0 0 0 0 0 0 0 0 0 0 0 0 0 0 0 0 0 0 0 0 0 0 0 0 0 0 0 0 0 0 0 0 0 0 0 0 0 0 0 0 0 0 0 0 0 0 0 0 0 0 0 0 0 0 0 0
0 0 0 0 0 0 0 0 0 0 0 0 0 0 0 0 0 0 0 0 0 0 0 0 0 0 0 0 0 0 0 0 0 0 0 0 0 0 0 0 0 0 0 0 0 0 0 0 0 0 0 0 0 0 0 0 0 0 0 0 0 0 0 0 0 0 0 0 0 0 0 0 0 0 0 0 0 0 0 0 0 0 0 0 0 0 0 0 0 0 0 0 0 0 0 0 0 0 0 0 0 0 0 0 0 0 0 0 0 0 0 0 0 0 0 0 0 0 0 0
0 0 0 0 0 0 0 0 0 0 0 0 0 0 0 0 0 0 0 0 0 0 0 0 0 0 0 0 0 0 0 0 0 0 0 0 0 0 0 0 0 0 0 0 0 0 0 0 0 0 0 0 0 0 0 0 0 0 0 0 0 0 0 0 0 0 0 0 0 0 0 0 0 0 0 0 0 0 0 0 0 0 0 0 0 0 0 0 0 0 0 0 0 0 0 0 0 0 0 0 0 0 0 0 0 0 0 0 0 0 0 0 0 0 0 0 0 0 0 0
0 0 0 0 0 0 0 0 0 0 0 0 0 0 0 0 0 0 0 0 0 0 0 0 0 0 0 0 0 0 0 0 0 0 0 0 0 0 0 0 0 0 0 0 0 0 0 0 0 0 0 0 0 0 0 0 0 0 0 0 0 0 0 0 0 0 0 0 0 0 0 0 0 0 0 0 0 0 0 0 0 0 0 0 0 0 0 0 0 0 0 0 0 0 0 0 0 0 0 0 0 0 0 0 0 0 0 0 0 0 0 0 0 0 0 0 0 0 0 0
0 0 0 0 0 0 0 0 0 0 0 0 0 0 0 0 0 0 0 0 0 0 0 0 0 0 0 0 0 0 0 0 0 0 0 0 0 0 0 0 0 0 0 0 0 0 0 0 0 0 0 0 0 0 0 0 0 0 0 0 0 0 0 0 0 0 0 0 0 0 0 0 0 0 0 0 0 0 0 0 0 0 0 0 0 0 0 0 0 0 0 0 0 0 0 0 0 0 0 0 0 0 0 0 0 0 0 0 0 0 0 0 0 0 0 0 0 0 0 0
0 0 0 0 0 0 0 0 0 0 0 0 0 0 0 0 0 0 0 0 0 0 0 0 0 0 0 0 0 0 0 0 0 0 0 0 0 0 0 486 517 521 506 501 530 517 488 518 499 520 507 528 524 536 492 528 0 0 0 0 0 0 0 0 0 0 0 0 0 0 0 0 0 0 0 0 0 0 0 0 0 0 0 0 0 0 0 0 0 0 0 0 0 0 0 0 0 0 0 0 0 0 0 0 0 0 0 0 0 0 0 0 0 0 0 0 0 0 0 0
0 0 0 0 0 0 0 0 0 0 0 0 0 0 0 0 0 0 0 0 0 0 0 0 0 0 0 0 0 0 0 0 0 0 0 0 0 495 526 511 512 505 498 508 522 524 512 508 524 516 507 505 513 512 511 510 505 505 528 558 0 0 0 0 0 0 0 0 0 0 0 0 0 0 0 0 0 0 0 0 0 0 0 0 0 0 0 0 0 0 0 0 0 0 0 0 0 0 0 0 0 0 0 0 0 0 0 0 0 0 0 0 0 0 0 0 0 0 0 0
0 0 0 0 0 0 0 0 0 0 0 0 0 0 0 0 0 0 0 0 0 0 0 0 0 0 0 0 0 0 0 0 0 0 0 466 504 492 493 491 513 497 495 506 500 501 499 506 506 488 493 499 508 514 502 516 516 502 508 521 522 505 490 495 522 0 0 0 0 0 0 0 0 0 0 0 0 0 0 0 0 0 0 0 0 0 0 0 0 0 0 0 0 0 0 0 0 0 0 0 0 0 0 0 0 0 0 0 0 0 0 0 0 0 0 0 0 0 0 0
0 0 0 0 0 0 0 0 0 0 0 0 0 0 0 0 0 0 0 0 0 0 0 0 0 0 0 0 0 0 0 0 0 495 513 502 502 515 507 505 510 506 514 512 516 505 510 515 511 522 500 498 514 508 494 522 506 505 510 515 508 509 502 506 518 510 528 539 596 614 590 606 618 0 580 587 560 576 0 631 0 0 0 0 0 0 0 0 0 0 0 0 0 0 0 0 0 0 0 0 0 0 0 0 0 0 0 0 0 0 0 0 0 0 0 0 0 0 0 0
0 0 0 0 0 0 0 0 0 0 0 0 0 0 0 0 0 0 0 0 0 0 0 0 0 0 0 0 0 0 0 542 509 506 503 489 502 505 504 496 516 492 506 503 501 508 495 504 510 506 505 513 507 516 509 505 507 517 496 512 509 504 512 504 511 515 503 515 517 574 570 566 576 616 602 579 583 588 605 560 603 558 597 558 0 555 0 588 577 619 557 596 621 587 551 576 608 581 569 603 548 565 575 577 0 0 0 0 0 0 0 0 0 0 0 0 0 0 0 0
0 0 0 0 0 0 0 0 0 0 0 0 0 0 0 0 0 0 0 0 0 0 0 0 0 0 0 0 0 0 501 500 503 489 484 490 499 497 501 516 503 497 503 498 501 501 508 505 500 498 498 513 501 504 499 513 501 509 491 510 495 505 504 509 497 503 503 506 513 503 526 557 528 558 539 563 555 604 513 564 529 549 531 537 522 618 523 537 553 544 591 514 563 535 571 559 518 552 563 533 527 521 527 552 538 522 570 0 567 0 0 0 0 0 0 0 0 0 0 0
0 0 0 0 0 0 0 0 0 0 0 0 0 0 0 0 0 0 0 0 0 0 0 0 0 0 0 0 505 498 508 506 502 504 492 495 499 504 501 505 511 517 502 500 510 508 505 502 512 513 505 508 511 501 513 511 501 511 506 515 508 504 513 508 514 521 507 504 503 512 519 580 580 583 561 558 601 554 585 609 569 566 583 605 564 597 599 602 575 612 567 608 581 616 592 570 593 568 583 557 595 604 537 577 591 562 568 629 597 0 0 0 0 0 0 0 0 0 0 0
0 0 0 0 0 0 0 0 0 0 0 0 0 0 0 0 0 0 0 0 0 0 0 0 0 0 0 470 497 496 501 494 496 495 484 492 505 496 508 491 501 505 497 506 498 510 500 495 495 506 503 491 507 497 508 500 505 506 504 505 502 512 499 512 504 501 502 504 503 505 505 519 526 536 562 550 534 536 519 546 535 557 536 579 523 537 521 543 553 493 534 509 515 541 551 521 501 538 537 528 544 558 506 561 554 508 529 573 0 0 0 0 0 0 0 0 0 0 0 0
0 0 0 0 0 0 0 0 0 0 0 0 0 0 0 0 0 0 0 0 0 0 0 0 0 0 496 501 499 498 498 498 500 491 500 506 500 487 508 506 489 506 503 506 500 510 505 502 497 509 503 497 512 496 503 499 497 509 507 510 507 514 514 513 507 510 506 502 509 502 505 518 536 560 563 549 551 529 549 531 559 521 576 537 522 551 568 557 518 562 584 545 541 562 572 585 547 506 535 540 544 528 524 542 536 533 512 553 573 0 0 0 0 0 0 0 0 0 0 0
0 0 0 0 0 0 0 0 0 0 0 0 0 0 0 0 0 0 0 0 0 0 0 0 0 467 495 495 504 496 498 503 496 486 501 491 500 498 503 502 498 506 502 508 502 501 501 508 501 498 497 506 501 503 501 510 504 502 512 499 517 503 510 508 507 507 490 510 522 513 513 506 521 532 545 563 525 529 550 529 572 579 534 576 549 532 546 550 572 547 567 560 554 563 536 535 587 557 551 572 550 546 550 549 540 537 564 558 561 0 547 0 0 0 0 0 0 0 0 0
0 0 0 0 0 0 0 0 0 0 0 0 0 0 0 0 0 0 0 0 0 0 0 0 0 477 492 473 489 476 485 489 491 498 487 500 494 494 493 499 495 490 505 499 498 491 499 502 491 495 499 502 510 502 499 500 511 495 498 502 505 497 512 511 495 505 509 516 496 505 512 512 503 511 501 541 506 520 542 529 529 529 513 518 484 553 504 542 530 538 519 553 513 529 538 531 506 550 492 518 532 511 542 495 518 507 555 510 518 492 0 0 0 527 0 0 0 0 0 0
0 0 0 0 0 0 0 0 0 0 0 0 0 0 0 0 0 0 0 0 0 0 0 0 494 488 493 491 493 488 503 495 490 508 501 499 500 497 494 498 502 507 490 501 504 512 502 505 493 504 497 503 505 508 506 512 507 509 507 504 502 498 511 509 504 516 499 503 504 510 510 518 509 512 538 570 515 555 533 567 538 576 541 564 541 579 540 559 545 556 513 561 530 530 532 512 569 574 549 555 565 572 579 565 530 520 575 559 531 582 0 0 0 0 0 0 0 0 0 0
0 0 0 0 0 0 0 0 0 0 0 0 0 0 0 0 0 0 0 0 0 0 0 0 495 496 494 487 503 490 493 492 498 485 494 500 501 495 497 508 500 492 504 498 492 498 507 497 497 494 506 504 501 505 501 500 504 499 501 500 505 504 501 506 505 508 506 503 502 515 506 512 504 511 513 535 542 534 529 540 536 543 524 540 534 544 564 550 549 527 533 569 552 526 544 548 576 545 583 563 528 563 534 551 534 561 552 527 561 491 0 0 0 0 0 0 0 0 0 0
0 0 0 0 0 0 0 0 0 0 0 0 0 0 0 0 0 0 0 0 0 0 0 468 488 490 498 494 484 493 500 498 492 496 496 487 503 492 487 494 491 496 497 490 497 502 497 488 493 508 509 494 505 504 509 499 502 508 507 504 511 497 506 503 502 498 507 507 507 502 509 503 511 510 512 515 496 519 503 524 490 504 486 537 507 520 517 542 520 522 514 533 530 519 553 523 514 496 544 521 508 522 502 537 538 540 519 532 438 483 446 0 0 0 0 0 0 0 0 0
0 0 0 0 0 0 0 0 0 0 0 0 0 0 0 0 0 0 0 0 0 0 0 502 499 487 481 495 493 493 502 492 497 488 494 500 489 498 492 499 496 496 503 498 502 498 503 502 498 508 497 505 496 503 503 504 505 504 508 500 506 507 505 501 505 510 507 506 504 509 508 506 510 512 501 526 537 539 542 570 539 553 541 556 541 552 534 534 562 560 548 533 576 506 539 565 571 546 530 568 564 559 552 581 553 548 576 547 599 531 548 0 0 0 0 0 0 0 0 0
0 0 0 0 0 0 0 0 0 0 0 0 0 0 0 0 0 0 0 0 0 0 454 491 480 488 480 489 485 482 487 495 498 493 492 488 488 489 491 487 493 497 498 508 494 501 505 497 492 505 498 497 494 499 509 491 499 507 508 498 499 509 504 502 493 505 503 510 510 506 496 501 505 504 502 498 507 516 520 541 508 481 540 525 508 500 528 492 492 542 498 553 511 539 510 522 522 530 526 530 501 517 541 540 530 527 540 561 481 473 515 0 546 0 0 0 0 0 0 0
0 0 0 0 0 0 0 0 0 0 0 0 0 0 0 0 0 0 0 0 0 0 490 485 491 485 486 491 503 490 490 494 492 486 497 495 488 498 490 503 495 498 491 501 501 493 509 505 499 493 500 505 496 498 498 507 504 508 505 505 510 500 500 504 508 504 511 508 508 499 509 508 513 507 510 511 508 529 524 485 513 522 546 508 541 515 507 504 524 565 518 500 509 493 519 521 513 515 540 519 512 509 527 522 485 506 503 514 546 493 494 533 0 0 0 0 0 0 0 0
0 0 0 0 0 0 0 0 0 0 0 0 0 0 0 0 0 0 0 0 0 0 504 478 485 494 488 495 486 491 492 494 483 490 485 490 489 492 498 495 490 493 499 496 497 502 498 499 495 498 499 499 507 498 506 498 501 503 512 502 503 508 502 502 510 506 502 495 507 509 506 497 510 507 508 506 511 518 520 527 528 534 543 538 545 505 527 546 546 546 540 548 538 538 532 563 533 519 515 525 538 557 542 520 557 533 548 565 537 542 513 550 582 0 0 0 0 0 0 0
0 0 0 0 0 0 0 0 0 0 0 0 0 0 0 0 0 0 0 0 0 0 493 490 488 480 484 493 483 491 488 489 484 488 490 487 487 493 489 497 496 491 488 488 502 492 494 493 497 498 498 501 494 507 507 500 503 500 502 504 503 501 500 511 497 503 507 499 498 505 516 504 494 496 502 512 503 515 520 499 489 509 491 506 516 495 488 510 503 516 520 472 513 497 508 470 496 511 533 515 541 495 517 484 508 527 500 561 502 470 508 434 482 0 0 0 0 0 0 0
0 0 0 0 0 0 0 0 0 0 0 0 0 0 0 0 0 0 0 0 0 0 502 495 483 486 499 489 502 494 496 494 502 484 495 492 492 493 497 496 491 492 503 499 502 494 496 502 506 504 501 507 500 500 503 507 507 502 503 499 505 513 506 505 505 507 503 504 505 512 506 504 518 507 502 506 513 527 529 539 551 511 536 526 555 551 530 538 534 536 536 542 538 500 517 510 516 533 555 542 545 521 545 532 545 545 553 581 525 579 535 477 556 0 0 0 0 0 0 0
0 0 0 0 0 0 0 0 0 0 0 0 0 0 0 0 0 0 0 0 0 0 487 484 486 487 479 484 480 487 494 481 484 484 499 484 495 492 499 494 492 497 494 500 488 488 493 494 503 495 494 500 498 506 492 502 502 500 501 500 504 507 506 503 504 500 500 492 492 503 496 500 495 498 505 505 507 510 515 528 519 507 535 487 518 513 517 519 526 531 518 510 517 529 506 570 515 520 486 528 494 510 509 537 535 513 533 516 0 0 532 0 550 0 0 0 0 0 0 0
0 0 0 0 0 0 0 0 0 0 0 0 0 0 0 0 0 0 0 0 0 429 482 495 485 491 490 493 494 489 483 494 476 488 488 487 497 495 489 492 491 498 491 489 502 493 495 497 494 495 502 497 494 503 501 497 502 500 505 507 507 505 507 505 502 499 506 504 501 504 505 503 506 510 503 512 504 499 513 504 525 514 528 506 501 518 494 490 498 505 514 493 522 499 530 523 542 531 534 540 554 522 508 516 514 509 478 504 504 507 497 0 502 0 0 0 0 0 0 0
0 0 0 0 0 0 0 0 0 0 0 0 0 0 0 0 0 0 0 0 0 451 485 483 483 480 490 481 484 482 481 487 495 491 490 495 489 489 493 491 495 501 494 492 500 496 493 499 497 498 497 500 496 501 507 504 504 502 501 507 499 504 498 498 504 510 508 503 498 509 507 504 496 509 507 509 501 490 528 523 545 523 515 529 546 515 530 530 544 555 517 516 553 523 527 539 530 513 522 493 510 521 516 558 540 523 522 547 511 547 535 534 514 0 0 0 0 0 0 0
0 0 0 0 0 0 0 0 0 0 0 0 0 0 0 0 0 0 0 0 0 450 478 478 492 481 484 487 477 486 481 484 481 486 477 485 482 492 489 489 486 489 491 489 492 495 490 491 493 497 493 496 495 497 496 499 497 500 499 500 505 502 502 503 496 500 507 506 505 498 494 497 502 503 509 504 503 510 512 496 496 512 517 510 511 524 504 499 506 500 511 507 491 491 515 503 498 531 507 506 518 507 533 498 472 523 498 498 461 493 483 512 522 0 0 0 0 0 0 0
0 0 0 0 0 0 0 0 0 0 0 0 0 0 0 0 0 0 0 0 0 450 475 473 476 475 480 483 483 491 482 486 480 487 485 485 486 491 487 493 489 490 490 497 493 491 494 496 495 496 493 498 497 497 500 493 500 496 496 498 496 497 500 499 499 511 502 502 498 503 494 497 511 503 498 512 496 499 503 520 510 503 511 481 520 505 514 501 500 499 487 500 511 510 520 509 507 505 489 510 498 508 514 524 504 500 543 482 498 492 512 500 494 449 0 0 0 0 0 0
0 0 0 0 0 0 0 0 0 0 0 0 0 0 0 0 0 0 0 0 0 457 493 480 481 476 481 482 483 480 485 482 485 489 488 482 486 488 488 492 498 489 490 493 491 492 494 493 491 496 494 501 500 498 497 501 497 499 504 497 502 500 496 498 505 503 497 501 501 501 500 503 500 505 501 502 498 505 513 534 508 507 511 538 504 536 489 522 537 518 516 508 516 516 513 522 502 517 504 510 527 516 519 536 526 517 514 529 534 532 487 470 0 0 0 0 0 0 0 0
0 0 0 0 0 0 0 0 0 0 0 0 0 0 0 0 0 0 0 0 0 421 475 477 484 485 479 477 478 488 481 486 487 481 486 487 486 488 491 489 489 484 493 492 491 495 495 494 495 494 491 494 496 497 497 496 489 490 499 498 499 497 495 501 496 501 500 502 496 497 499 499 505 503 498 494 499 490 493 495 513 489 496 499 504 511 519 489 489 487 496 519 517 484 502 473 491 516 500 505 501 491 516 496 475 502 467 534 515 527 485 484 532 0 0 0 0 0 0 0
0 0 0 0 0 0 0 0 0 0 0 0 0 0 0 0 0 0 0 0 0 470 482 476 478 481 474 477 484 486 483 483 488 482 487 486 487 492 487 491 493 490 489 494 489 493 493 495 493 498 495 495 492 501 492 506 494 498 503 493 500 496 494 502 498 495 496 502 500 501 496 504 504 499 500 499 507 498 505 509 504 524 495 518 512 533 510 537 512 503 521 511 478 541 507 536 501 487 534 525 537 554 510 542 504 523 517 519 521 521 551 546 491 536 0 0 0 0 0 0
0 0 0 0 0 0 0 0 0 0 0 0 0 0 0 0 0 0 0 0 0 457 479 475 475 481 476 481 477 480 476 484 484 482 483 482 487 482 484 490 489 486 486 488 490 486 488 492 487 490 488 493 495 497 495 497 494 495 491 497 500 495 501 497 498 502 496 494 495 497 498 501 490 499 501 500 496 495 493 507 510 511 515 504 512 506 490 512 488 516 490 510 508 515 489 504 503 501 500 503 513 524 525 478 509 499 476 525 542 527 498 498 527 0 0 0 0 0 0 0
0 0 0 0 0 0 0 0 0 0 0 0 0 0 0 0 0 0 0 0 0 450 475 472 476 473 470 475 482 484 476 483 481 479 481 484 485 483 487 492 486 484 486 489 487 491 487 492 494 495 495 491 497 495 490 492 497 496 492 500 498 500 499 497 500 497 499 497 493 496 496 497 500 499 498 499 495 500 498 493 483 492 507 516 518 490 489 485 505 500 486 523 489 492 517 494 471 504 527 508 493 517 484 511 489 484 504 482 498 507 468 453 489 479 0 0 0 0 0 0
0 0 0 0 0 0 0 0 0 0 0 0 0 0 0 0 0 0 0 0 0 456 477 478 476 481 478 487 480 481 480 485 479 489 480 483 489 482 486 486 485 489 485 490 488 488 488 488 487 493 492 497 494 497 497 496 492 499 498 495 492 497 500 499 500 498 500 501 496 499 501 496 500 499 501 501 500 495 496 533 508 499 516 522 505 499 514 503 531 516 488 514 516 535 541 530 521 489 525 515 534 494 512 531 540 506 514 514 548 507 529 523 502 509 0 0 0 0 0 0
0 0 0 0 0 0 0 0 0 0 0 0 0 0 0 0 0 0 0 0 0 471 468 473 473 473 479 476 476 482 479 476 485 486 488 488 483 482 479 482 481 487 493 486 490 489 487 489 489 494 490 493 491 492 497 495 493 494 493 494 495 497 498 498 498 496 496 496 498 493 496 497 496 493 495 497 493 503 497 491 494 483 492 492 494 505 493 484 484 471 490 517 492 493 508 495 470 513 485 504 508 495 486 516 463 495 452 520 530 485 489 455 493 483 460 0 0 0 0 0
0 0 0 0 0 0 0 0 0 0 0 0 0 0 0 0 0 0 0 0 0 0 477 479 477 476 470 476 482 485 480 477 485 475 479 482 482 485 484 488 484 480 486 489 492 489 491 489 493 494 493 491 490 498 493 495 492 493 492 492 493 499 500 501 499 499 495 491 498 496 497 498 497 496 496 498 487 501 492 491 516 490 491 486 496 506 481 493 473 485 504 487 506 493 491 503 502 471 482 492 476 521 486 506 505 497 486 498 470 475 508 466 506 489 0 0 0 0 0 0
0 0 0 0 0 0 0 0 0 0 0 0 0 0 0 0 0 0 0 0 0 0 488 470 474 477 481 476 481 480 479 477 481 489 482 482 482 485 485 480 488 482 487 490 487 492 488 489 491 490 493 490 492 494 493 493 497 493 495 495 498 497 492 494 496 497 499 501 498 493 496 496 497 495 497 494 497 502 499 512 521 533 504 522 530 510 520 519 535 521 558 509 521 512 513 530 528 490 525 534 483 485 514 522 531 525 530 500 528 515 502 505 534 537 0 0 0 0 0 0
0 0 0 0 0 0 0 0 0 0 0 0 0 0 0 0 0 0 0 0 0 0 520 473 469 475 475 468 474 477 478 477 481 483 479 483 484 484 481 490 484 484 488 486 488 487 491 488 490 490 489 493 491 497 491 495 489 494 492 496 498 494 499 495 497 492 499 500 496 495 495 499 492 495 492 495 497 497 505 492 498 500 494 490 505 501 516 493 504 481 501 516 521 492 491 516 508 506 490 522 490 492 478 497 490 480 495 477 492 458 487 479 480 481 482 469 0 0 0 0
0 0 0 0 0 0 0 0 0 0 0 0 0 0 0 0 0 0 0 0 0 0 598 480 474 479 473 482 484 478 477 480 475 478 483 482 483 487 482 487 487 488 486 486 491 484 494 492 493 495 491 491 495 494 493 492 495 496 493 496 497 496 501 498 497 495 494 495 495 499 498 495 498 497 495 493 496 499 497 501 501 527 513 514 514 526 518 525 524 493 522 514 556 533 540 541 524 512 526 501 514 501 485 510 501 492 499 485 515 520 522 520 500 565 564 0 0 0 0 0
0 0 0 0 0 0 0 0 0 0 0 0 0 0 0 0 0 0 0 0 0 0 0 480 469 468 473 473 477 476 477 483 481 486 478 477 477 480 483 484 484 485 486 489 490 482 488 485 490 492 493 493 497 489 493 490 492 491 493 493 493 495 496 493 498 491 493 498 495 491 496 490 498 493 493 486 495 486 485 487 492 497 472 489 500 491 497 521 504 500 494 520 485 518 502 489 506 508 497 505 494 520 496 518 493 498 469 499 514 474 489 512 506 0 0 0 0 0 0 0
0 0 0 0 0 0 0 0 0 0 0 0 0 0 0 0 0 0 0 0 0 0 0 498 472 470 478 470 476 473 478 477 478 474 479 479 472 476 481 483 483 484 490 486 485 485 487 490 489 494 490 489 490 493 496 487 493 493 491 491 493 488 497 493 496 497 493 500 498 495 496 491 496 493 491 489 484 488 482 488 491 499 491 489 491 488 491 498 488 492 477 486 502 504 491 497 499 484 485 504 524 506 498 488 465 463 486 470 483 466 508 480 503 479 0 0 0 0 0 0
0 0 0 0 0 0 0 0 0 0 0 0 0 0 0 0 0 0 0 0 0 0 0 541 475 480 471 470 476 471 479 476 480 478 475 479 479 480 479 481 485 483 488 484 486 488 489 489 491 490 489 491 489 489 494 486 494 494 492 497 495 492 497 499 494 498 496 495 494 495 497 495 499 498 498 487 497 501 510 499 503 503 512 518 510 497 506 492 525 525 519 522 515 496 538 488 513 502 515 527 518 511 505 481 511 501 497 483 495 506 496 477 479 509 522 0 0 0 0 0
0 0 0 0 0 0 0 0 0 0 0 0 0 0 0 0 0 0 0 0 0 0 0 0 475 466 468 471 470 473 474 466 471 479 475 478 482 479 481 478 480 481 478 486 485 488 488 487 493 488 488 489 491 489 492 487 491 493 487 492 493 493 491 491 500 494 494 492 495 492 496 497 494 496 489 485 491 488 490 491 501 492 496 492 491 520 499 503 504 482 497 493 487 484 510 482 485 480 508 495 508 493 468 490 463 451 463 465 460 489 466 468 461 465 464 501 0 0 0 0
0 0 0 0 0 0 0 0 0 0 0 0 0 0 0 0 0 0 0 0 0 0 0 0 500 469 467 468 476 470 478 473 474 475 478 481 479 480 483 483 482 480 482 480 483 484 491 486 487 492 492 491 489 489 495 491 492 491 493 487 492 491 489 498 494 496 499 493 494 489 494 491 490 493 494 491 493 495 492 497 481 492 467 483 493 479 494 496 493 482 510 500 541 499 546 518 544 479 519 499 475 490 481 470 481 478 481 462 515 456 490 475 485 450 436 482 0 0 0 0
0 0 0 0 0 0 0 0 0 0 0 0 0 0 0 0 0 0 0 0 0 0 0 0 0 473 461 473 469 473 470 467 479 471 475 478 478 479 480 480 476 477 481 484 488 485 485 484 484 485 490 482 488 491 484 486 490 487 486 499 493 495 493 491 494 491 492 492 495 500 492 498 488 489 489 493 487 492 492 499 484 494 496 495 491 507 488 489 505 490 505 495 500 494 521 496 515 512 503 501 507 509 497 506 474 492 491 477 461 504 499 521 524 466 0 0 0 0 0 0
0 0 0 0 0 0 0 0 0 0 0 0 0 0 0 0 0 0 0 0 0 0 0 0 0 470 461 467 468 470 468 469 474 469 471 473 477 474 477 477 482 477 478 481 483 480 480 480 483 486 487 482 485 486 481 489 488 485 491 489 491 492 492 488 490 492 496 493 494 492 494 493 492 488 493 479 477 480 485 471 482 489 485 484 492 492 492 487 496 468 489 476 493 503 505 483 477 492 481 490 493 508 484 449 463 446 451 456 459 458 460 443 433 456 0 0 0 0 0 0
0 0 0 0 0 0 0 0 0 0 0 0 0 0 0 0 0 0 0 0 0 0 0 0 0 0 484 468 466 469 470 471 471 475 473 475 473 477 477 473 476 475 478 483 486 483 484 480 481 485 484 484 487 486 487 482 483 482 493 488 491 493 488 489 497 487 491 491 494 495 493 493 488 490 483 502 482 485 492 472 500 498 485 488 500 497 498 477 486 488 485 494 482 504 488 508 492 491 501 515 482 500 496 508 475 494 470 468 461 481 500 510 463 482 0 0 0 0 0 0
0 0 0 0 0 0 0 0 0 0 0 0 0 0 0 0 0 0 0 0 0 0 0 0 0 0 0 470 473 466 469 473 473 468 468 475 471 476 475 478 474 476 474 476 474 481 481 480 481 481 482 487 483 484 480 477 483 487 486 491 488 485 495 489 485 491 485 490 488 488 491 488 486 487 474 487 496 482 489 481 487 486 496 480 492 490 498 493 473 472 489 485 502 508 480 495 500 484 508 477 485 503 504 467 456 481 470 497 465 469 514 436 481 439 0 0 0 0 0 0
0 0 0 0 0 0 0 0 0 0 0 0 0 0 0 0 0 0 0 0 0 0 0 0 0 0 0 494 460 466 466 469 468 470 471 475 475 473 474 475 476 478 480 481 480 472 479 480 482 482 481 483 481 483 479 486 485 485 482 490 488 489 485 488 484 482 485 488 489 486 484 485 476 478 480 484 477 500 477 477 466 479 490 486 478 467 481 472 485 479 478 473 473 479 477 521 472 473 466 504 472 464 500 492 474 426 444 490 499 469 447 448 474 455 478 0 0 0 0 0
0 0 0 0 0 0 0 0 0 0 0 0 0 0 0 0 0 0 0 0 0 0 0 0 0 0 0 0 509 467 465 471 472 470 471 470 472 472 475 477 478 476 478 475 477 483 477 483 483 486 487 482 481 483 482 482 486 488 486 488 487 488 487 484 484 486 487 489 485 486 492 490 475 494 488 496 481 492 500 487 493 490 491 487 507 493 495 490 485 499 503 510 509 518 491 501 479 502 493 497 509 519 499 480 513 482 500 470 469 469 490 468 495 466 511 0 0 0 0 0
0 0 0 0 0 253 235 244 249 0 0 0 0 0 0 0 0 0 0 0 0 0 0 0 0 0 0 0 0 504 458 464 470 468 464 472 470 468 470 472 472 473 476 474 475 479 474 482 477 478 478 481 478 481 480 481 482 483 484 483 486 482 483 486 483 486 483 482 483 489 480 483 481 474 476 482 481 478 481 465 493 477 475 480 477 482 472 481 481 486 470 474 485 486 506 468 468 485 468 471 455 489 472 451 464 461 454 489 480 439 433 478 501 479 436 0 0 0 0 0
0 0 0 0 253 228 231 236 242 278 371 0 0 0 0 0 0 0 0 0 0 2363 0 0 0 0 0 0 0 0 464 462 464 467 472 472 470 472 476 469 471 476 473 472 477 478 480 475 476 478 482 482 479 482 480 481 484 480 483 490 485 484 485 484 486 488 479 482 484 488 476 475 470 474 481 485 485 473 457 480 504 483 498 481 492 486 483 481 478 493 472 492 487 495 480 475 502 470 485 492 496 485 483 489 450 457 452 455 473 468 454 472 512 0 0 0 0 0 0 0
0 0 0 227 217 228 228 222 235 237 341 0 0 0 0 0 0 0 0 0 0 0 0 0 0 0 0 0 0 0 0 479 459 467 467 469 471 465 467 469 468 475 472 470 480 476 472 476 479 480 474 474 482 477 481 476 480 476 480 480 481 484 475 480 479 480 485 481 480 481 473 475 474 482 498 497 479 477 469 480 489 482 492 470 482 483 483 477 482 500 486 476 487 469 493 481 503 470 496 494 460 499 488 472 467 435 459 474 464 471 463 460 436 457 488 0 0 0 0 0
225 233 226 223 258 256 257 237 231 230 312 0 420 389 380 412 405 426 406 422 457 459 427 432 431 445 454 439 443 449 448 456 463 464 463 464 464 462 461 465 460 474 469 466 474 465 470 471 473 478 471 474 483 479 482 476 478 475 479 477 474 476 472 478 478 474 474 480 477 478 483 463 480 464 461 465 471 479 469 469 470 465 477 465 468 472 465 477 484 463 462 462 465 477 478 468 480 477 464 480 460 473 464 435 446 440 432 455 457 433 444 454 426 434 413 0 0 0 0 0
200 223 228 213 256 258 280 232 229 261 373 400 404 402 408 409 404 406 416 419 395 412 430 417 423 427 437 444 445 452 457 459 461 467 462 455 461 462 457 456 458 464 461 470 465 461 473 470 473 480 470 476 469 471 472 475 469 472 467 471 475 476 477 479 478 473 476 472 467 471 468 469 473 465 461 461 461 462 460 454 461 459 472 459 443 467 459 453 468 452 471 455 441 449 460 445 449 457 464 461 439 446 474 450 453 456 448 447 448 452 439 435 451 462 440 420 459 435 0 0
206 172 215 215 225 219 237 230 225 335 366 343 377 359 365 373 381 372 373 362 375 386 386 397 399 411 413 414 423 439 436 442 444 442 438 442 439 443 445 446 445 458 443 453 448 451 445 458 461 452 454 455 458 458 449 455 459 449 457 464 465 460 461 462 461 459 457 457 462 456 458 449 454 449 435 453 442 428 426 441 434 429 430 427 430 441 424 424 437 413 418 433 434 430 439 426 420 413 424 407 409 435 437 434 448 411 412 431 428 422 413 424 417 397 413 406 416 406 0 0
250 255 236 220 236 228 230 233 254 308 316 316 334 325 342 327 344 328 332 347 351 349 366 379 374 395 393 413 409 420 414 422 423 433 427 436 433 427 431 431 425 431 434 432 433 434 435 440 440 440 444 442 436 438 440 445 446 446 438 444 445 444 440 449 440 435 438 436 437 436 433 436 430 419 413 417 409 413 409 398 391 387 386 393 389 403 400 387 400 387 393 390 402 394 397 399 384 390 395 390 393 394 392 391 374 386 395 383 373 403 365 380 366 374 377 388 381 365 375 380
297 318 281 241 234 238 234 240 296 306 323 304 310 319 317 322 315 321 312 319 328 328 327 341 357 368 380 390 390 393 405 399 415 410 407 410 411 414 411 410 414 423 413 416 415 420 416 417 417 419 422 417 423 421 422 422 417 427 417 428 425 428 419 419 420 424 419 420 423 416 416 406 409 403 393 390 379 366 372 372 358 372 363 375 356 365 368 371 369 376 361 365 370 370 379 379 356 370 353 362 362 362 365 371 379 363 365 380 362 361 355 375 369 348 358 381 374 387 398 373
274 275 279 276 253 244 250 258 265 283 280 283 276 283 275 285 282 284 286 282 304 304 308 311 331 348 350 370 363 375 382 383 384 382 384 382 393 395 396 399 390 389 388 393 392 396 396 386 399 399 394 399 397 398 396 389 399 391 402 400 399 396 394 393 393 390 401 396 392 388 392 395 383 377 366 363 365 342 334 338 335 327 335 319 331 323 333 333 325 328 323 327 320 330 335 333 332 328 328 319 320 320 327 340 333 331 329 339 325 323 321 329 323 331 329 338 310 342 325 315
257 237 244 253 239 252 250 253 255 268 253 257 256 271 256 259 266 267 275 270 272 281 292 306 312 320 334 341 347 362 358 363 365 368 359 365 359 365 373 362 372 369 362 375 373 373 368 370 365 370 377 373 378 373 377 373 374 375 374 376 383 378 379 370 366 377 373 367 369 370 366 366 361 352 349 336 334 320 316 314 312 304 303 295 302 309 298 301 300 297 305 307 309 303 310 295 307 301 299 298 301 302 300 290 314 288 310 305 307 304 317 299 310 326 297 275 316 332 282 294
222 239 230 232 236 241 245 236 250 241 247 246 252 240 242 248 247 244 254 247 257 256 269 280 293 298 317 335 326 333 332 331 345 344 340 343 346 340 340 341 343 343 357 344 349 344 345 354 343 344 345 351 349 354 349 354 347 356 355 353 350 356 354 342 348 341 343 348 350 352 343 340 344 337 332 324 309 295 292 291 282 272 278 277 289 277 279 282 276 279 282 289 286 284 274 274 270 282 278 281 295 288 292 274 272 279 274 282 282 284 290 289 280 294 282 277 308 290 273 275
210 213 218 219 232 225 222 220 218 217 227 229 217 233 221 218 227 231 232 241 238 240 255 262 272 280 293 303 298 306 310 316 317 315 310 319 317 316 331 324 317 319 317 320 323 319 323 328 324 327 327 321 326 323 325 323 332 324 336 327 326 333 323 326 323 328 329 320 324 316 317 317 319 309 310 295 288 279 271 272 269 266 264 263 262 259 255 257 257 251 256 255 254 258 258 254 255 247 265 260 252 255 261 263 251 250 249 261 252 268 261 267 265 266 259 243 245 249 277 250
214 211 206 216 208 219 221 217 212 216 211 211 208 222 218 222 217 216 224 228 232 231 250 251 254 262 269 277 285 285 289 293 293 296 302 299 296 307 305 306 304 298 291 304 305 301 302 302 302 312 310 299 297 302 296 303 310 308 306 309 306 309 304 311 311 313 305 305 304 300 297 301 301 294 289 275 272 267 257 258 249 249 246 245 242 248 249 240 246 245 247 246 246 251 252 243 237 242 241 240 244 246 255 250 241 244 245 244 248 253 247 250 264 256 242 253 245 245 251 297
194 197 201 197 200 207 199 207 197 188 184 202 202 188 200 192 208 205 212 210 215 228 226 234 239 243 253 260 266 267 271 268 273 275 275 276 280 280 280 281 275 280 279 285 283 279 280 280 280 284 276 274 280 280 280 285 286 289 281 288 285 288 285 282 284 287 286 282 288 287 283 278 277 274 262 265 254 244 239 231 231 231 229 224 227 222 225 222 228 229 236 227 225 224 228 232 226 217 223 220 227 220 222 226 225 228 220 231 232 232 238 224 246 236 234 230 235 239 239 208
181 193 190 193 197 183 188 199 185 177 184 182 181 180 182 187 185 185 191 191 209 214 217 231 223 230 238 244 246 251 259 255 255 257 260 261 263 264 264 268 264 262 261 266 264 263 267 269 268 264 265 268 270 269 264 262 265 269 263 273 271 267 270 270 268 271 271 267 272 265 263 256 256 254 253 246 237 230 227 224 215 223 214 222 218 216 217 195 220 219 213 222 213 215 215 212 212 211 207 216 216 213 212 215 205 213 217 214 223 222 218 222 234 232 216 221 224 224 216 231
173 173 173 176 181 177 172 176 182 182 183 180 184 181 185 185 183 184 181 181 183 185 204 209 215 217 218 225 231 231 234 244 241 242 243 243 242 244 246 245 245 243 246 256 249 254 248 246 245 248 250 249 247 242 241 249 248 251 249 251 247 245 253 246 248 251 249 249 249 245 247 245 243 240 239 229 224 220 199 200 196 194 190 184 188 192 194 213 191 188 191 190 196 186 187 187 189 184 190 208 190 206 204 191 187 189 181 209 183 210 204 208 212 205 211 197 211 212 216 202
170 168 172 174 174 176 170 173 176 176 178 176 177 172 174 180 179 178 182 185 188 189 183 188 208 205 213 217 219 225 225 225 222 225 227 226 229 232 224 227 225 229 231 230 234 236 229 228 235 237 231 233 236 229 231 231 231 236 234 237 233 239 238 232 236 234 235 226 230 232 232 232 231 220 220 217 212 198 187 187 192 194 194 194 190 193 193 189 184 189 182 189 188 188 187 184 179 186 188 179 187 178 187 183 181 178 185 175 174 183 182 198 179 188 204 196 200 184 200 174
165 160 172 169 168 169 172 168 170 164 168 164 168 164 171 172 175 173 173 180 178 182 180 191 186 182 190 190 210 193 212 211 214 216 218 215 216 213 210 199 215 220 219 214 218 223 218 215 219 219 219 219 220 219 217 218 221 219 218 220 218 224 226 220 220 220 218 218 220 221 221 217 216 210 194 189 186 192 193 186 187 183 189 183 183 182 185 181 180 186 185 178 180 182 183 182 180 181 183 178 182 182 180 179 181 175 179 179 176 178 171 178 177 172 205 198 184 196 178 202
152 157 163 159 166 163 159 165 163 163 160 156 161 160 164 163 162 170 168 172 174 177 180 181 181 188 184 183 183 188 182 186 184 195 185 191 190 191 188 189 194 195 190 193 202 196 193 191 196 193 194 193 193 194 196 189 194 194 190 195 202 199 198 191 197 197 195 194 189 199 200 194 200 194 188 196 194 189 188 178 182 177 174 174 172 169 176 176 174 178 171 175 171 173 172 172 169 169 169 174 168 175 172 172 175 172 165 169 171 170 174 176 168 177 173 174 169 169 172 174
145 148 149 153 155 158 155 155 160 156 157 156 155 154 162 157 157 164 155 162 168 167 175 175 179 177 177 180 181 184 190 186 188 185 188 186 188 190 191 194 190 192 192 197 194 197 196 197 197 192 192 195 199 196 196 193 198 198 196 200 195 194 199 197 193 197 191 197 189 193 197 193 192 192 189 183 184 181 177 169 169 170 165 161 164 169 171 167 170 164 169 167 172 169 165 166 166 162 164 170 168 167 169 163 163 162 162 157 165 169 162 169 169 174 177 161 166 164 168 161
144 148 149 144 148 150 148 151 148 152 148 149 148 154 155 150 151 151 153 159 161 161 168 169 167 174 173 173 172 178 179 179 180 180 177 182 185 180 183 185 183 187 189 185 184 189 184 184 187 184 185 185 185 189 188 186 186 188 0 188 190 188 185 186 188 187 187 187 184 186 182 186 181 180 174 176 175 173 170 163 161 156 165 162 163 165 161 163 166 161 159 162 162 155 165 162 158 155 166 163 157 165 161 156 157 159 157 158 159 162 155 163 162 164 162 169 159 160 170 169
136 137 134 143 139 148 147 143 144 144 139 143 139 145 145 142 142 148 148 151 157 155 164 163 170 168 169 166 172 172 171 171 175 172 170 174 175 172 171 176 172 181 176 177 177 178 174 177 179 178 174 178 177 182 180 182 182 0 0 179 178 177 178 180 177 179 180 180 180 175 174 180 172 175 169 167 168 163 162 158 163 155 151 155 158 156 157 156 156 154 151 151 159 153 154 154 154 155 155 153 155 152 151 153 149 152 147 149 155 158 155 153 149 149 151 153 145 152 166 156
136 136 135 138 142 141 149 140 138 137 139 140 142 140 145 140 144 149 143 145 149 153 155 156 160 158 162 162 166 164 164 165 168 166 164 168 164 167 167 169 171 0 172 0 170 172 170 171 170 170 174 171 175 173 175 0 174 171 0 0 174 0 174 174 172 170 173 170 173 171 169 167 171 167 162 165 166 155 155 150 150 154 147 151 155 148 152 149 149 154 146 151 148 152 149 146 152 149 152 148 148 145 149 150 149 147 143 145 152 148 144 141 147 156 148 151 144 150 148 163
128 127 129 123 133 133 139 140 132 121 135 133 133 132 138 126 135 137 135 139 139 144 149 153 148 156 158 158 156 162 159 155 160 160 160 156 163 162 0 0 0 0 0 0 0 0 0 166 164 165 166 163 165 165 0 0 0 167 167 0 0 0 0 0 165 166 168 0 160 164 163 162 160 159 156 155 155 156 148 147 148 145 145 147 142 149 143 144 145 143 144 145 145 144 141 137 142 149 142 145 136 143 142 141 137 134 136 140 140 144 141 146 151 144 153 138 141 140 145 145
116 119 123 116 127 131 131 133 134 130 126 131 132 127 125 128 117 139 136 136 138 143 144 144 145 149 154 151 153 152 155 153 156 157 154 153 155 0 0 0 0 0 0 0 0 0 0 0 0 160 161 160 0 0 0 0 0 0 0 0 0 0 0 0 0 159 0 0 0 0 0 157 161 155 152 149 152 148 149 145 142 142 144 142 141 142 141 142 144 142 135 135 137 141 131 138 141 144 140 136 139 137 140 133 132 133 134 133 136 138 134 145 136 136 138 135 138 124 127 143
110 108 118 125 125 126 119 131 126 126 131 121 122 120 118 131 131 133 129 136 137 128 134 142 143 142 142 143 145 151 152 149 151 150 149 148 0 0 0 0 0 0 0 0 0 0 0 0 153 150 156 0 0 0 0 0 0 0 0 0 0 0 0 0 0 0 0 0 0 0 0 0 148 149 149 147 145 142 142 146 138 142 127 139 127 127 138 141 127 131 138 130 137 136 119 136 139 138 134 131 135 139 132 132 127 133 136 133 130 141 139 133 133 142 146 133 131 127 116 134
106 114 113 110 111 112 122 119 112 121 115 118 117 116 126 124 123 120 119 119 123 124 129 124 135 137 143 138 141 145 143 143 142 143 144 144 0 0 0 0 0 0 0 0 0 0 0 0 0 0 0 0 0 0 0 0 0 0 0 0 0 0 0 0 0 0 0 0 0 0 0 0 143 140 144 140 139 138 129 131 129 121 121 121 128 119 123 124 124 124 123 123 115 128 124 126 121 134 121 121 117 129 131 119 120 129 115 119 134 132 125 136 126 129 110 132 119 106 119 136
110 106 116 118 114 113 117 113 115 115 114 119 115 118 115 122 121 119 120 116 119 117 120 120 131 135 137 129 0 136 0 0 0 0 143 0 0 0 0 0 0 0 0 0 0 0 0 0 0 0 0 0 0 0 0 0 0 0 0 0 0 0 0 0 0 0 0 0 0 0 0 0 0 147 125 125 126 121 120 127 119 118 122 129 117 119 114 118 119 117 117 124 116 114 111 121 117 119 124 117 117 121 131 123 130 116 116 119 109 125 127 111 126 121 132 123 115 131 137 139
101 101 111 109 106 103 106 103 102 102 109 105 108 106 103 111 107 112 114 111 110 117 108 117 122 122 122 122 121 136 0 0 0 0 126 0 0 0 0 0 0 0 0 0 0 0 0 0 0 0 0 0 0 0 0 0 0 0 0 0 0 0 0 0 0 0 0 0 0 0 0 0 130 0 0 126 122 119 125 117 114 116 108 114 112 115 110 112 109 114 113 116 109 109 112 106 112 114 115 112 115 112 110 115 113 113 111 111 122 107 113 114 103 115 124 101 127 133 113 164
97 100 90 94 102 101 101 101 100 101 102 100 105 104 109 102 106 108 115 104 108 111 108 110 112 111 116 119 119 118 0 122 0 0 0 0 0 0 0 0 0 0 0 0 0 0 0 0 0 0 0 0 0 0 0 0 0 0 0 0 0 0 0 0 0 0 0 0 0 0 0 0 0 125 0 113 120 117 114 111 111 112 105 102 112 103 110 115 104 105 115 113 108 109 105 114 106 107 99 115 114 104 110 99 108 116 114 104 114 111 101 100 106 99 105 117 109 109 94 139
99 103 100 103 97 100 103 93 95 100 99 99 104 94 101 97 104 103 111 114 111 103 99 109 112 107 115 114 114 121 122 118 122 0 0 0 0 0 0 0 0 0 0 0 0 0 0 0 0 0 0 0 0 0 0 0 0 0 0 0 0 0 0 0 0 0 0 0 0 0 0 0 121 123 106 120 114 118 117 118 103 108 102 118 105 106 104 104 102 106 106 105 112 92 98 102 107 99 110 105 105 110 110 107 107 111 105 90 101 97 101 102 96 95 106 94 132 135 115 124
86 84 82 87 83 82 82 92 93 84 90 93 96 97 93 86 78 95 89 87 89 85 97 103 101 101 115 109 0 0 105 106 116 0 0 0 0 0 0 0 0 0 0 0 0 0 0 0 0 0 0 0 0 0 0 0 0 0 0 0 0 0 0 0 0 0 0 0 0 0 0 117 110 111 108 112 105 106 104 101 101 99 98 92 100 96 88 100 105 98 91 98 104 84 83 95 93 104 81 97 89 99 94 89 81 95 91 91 95 85 80 78 83 89 103 93 96 82 93 110
93 85 88 89 95 98 94 104 91 95 91 98 91 92 98 95 98 91 102 94 91 103 105 103 104 101 109 106 0 107 109 108 115 112 119 108 0 0 113 0 0 119 0 0 0 0 0 0 0 0 0 0 0 0 0 0 0 0 0 0 116 0 0 0 115 0 0 0 108 0 110 113 112 114 113 107 108 110 103 96 110 103 103 90 98 103 107 104 100 106 107 105 107 100 101 102 101 94 99 110 100 97 95 100 95 104 100 85 86 83 91 100 94 97 100 91 107 114 111 130
86 92 92 88 93 96 90 91 84 99 88 90 87 92 89 83 97 98 99 96 100 94 100 110 90 105 105 101 104 109 96 0 105 103 98 103 0 114 114 0 109 0 0 0 0 0 0 0 0 0 0 0 0 0 0 0 0 109 0 0 107 104 105 113 111 110 106 100 113 108 109 103 104 100 113 109 99 92 103 92 96 96 98 88 97 90 93 104 106 93 96 103 111 89 86 86 86 89 96 84 90 84 91 94 92 91 101 97 99 84 96 95 87 97 101 90 123 129 114 108
85 84 79 88 92 91 102 89 89 82 88 89 85 90 87 90 89 88 89 87 80 94 98 85 85 93 91 91 103 88 94 99 97 99 94 109 100 103 102 101 105 96 100 109 106 91 0 0 95 0 0 107 104 93 99 110 106 101 109 100 101 107 111 98 99 111 106 96 101 108 101 109 104 99 105 93 94 94 99 91 97 92 95 94 94 95 86 92 95 95 96 88 91 93 95 90 87 85 90 85 87 88 92 89 86 81 96 81 88 94 88 91 95 110 77 101 105 104 91 139
86 79 87 84 87 82 100 101 85 89 85 82 90 87 85 92 91 92 89 96 83 100 95 93 92 96 93 87 98 101 96 86 96 94 96 98 97 97 92 106 104 94 101 107 103 95 106 0 102 101 96 105 98 95 102 101 102 103 97 108 106 94 94 106 102 98 95 103 94 107 97 102 101 92 103 87 95 93 93 85 101 93 94 89 94 94 86 86 93 91 85 97 88 92 92 81 95 92 98 88 93 96 80 87 87 102 94 92 91 88 94 90 103 81 106 125 100 98 106 115
81 73 69 68 81 82 89 90 90 79 83 82 86 80 90 82 84 86 84 82 86 81 93 89 87 87 92 94 87 92 95 93 81 96 93 95 95 83 93 83 91 90 87 90 87 94 90 101 92 91 94 98 96 91 88 85 99 89 94 97 97 97 85 98 98 81 96 95 96 98 94 88 94 94 86 95 91 95 92 96 87 90 85 88 86 93 89 90 87 88 89 79 88 82 85 87 84 82 81 90 82 89 82 69 82 83 88 84 82 86 89 89 80 104 100 117 145 129 136 65
72 74 81 86 75 86 89 88 86 81 85 88 81 81 82 84 87 87 81 87 83 92 82 93 87 85 94 85 94 92 93 96 91 96 85 90 87 91 89 96 92 83 91 92 89 97 90 97 98 90 92 87 96 87 102 92 89 97 88 94 97 97 96 95 91 96 86 96 102 94 93 96 89 82 95 83 92 84 95 94 90 90 87 88 81 84 90 80 94 95 77 90 79 78 89 83 88 86 81 83 84 83 76 77 76 82 83 89 81 86 84 90 83 105 92 85 96 131 96 191
