0 0 0 0 0 0 0 0 0 0 0 0 0 0 0 0 0 0 0 0 0 0 0 0 0 0 0 0 0 0 0 0 0 0 0 0 0 0 0 0 0 0 0 0 0 0 0 0 0 0 0 0 0 0 0 0 0 0 0 0 0 0 0 0 0 0 0 0 0 0 0 0 0 0 0 0 0 0 0 0 0 0 0 0 0 0 0 0 0 0 0 0 0 0 0 0 0 0 0 0 0 0 0 0 0 0 0 0 0 0 0 0 0 0 0 0 0 0 0 0
0 0 0 0 0 0 0 0 0 0 0 0 0 0 0 0 0 0 0 0 0 0 0 0 0 0 0 0 0 0 0 0 0 0 0 0 0 0 0 0 0 0 0 0 0 0 0 0 0 0 0 0 0 0 0 0 0 0 0 0 0 0 0 0 0 0 0 0 0 0 0 0 0 0 0 0 0 0 0 0 0 0 0 0 0 0 0 0 0 0 0 0 0 0 0 0 0 0 0 0 0 0 0 0 0 0 0 0 0 0 0 0 0 0 0 0 0 0 0 0
0 0 0 0 0 0 0 0 0 0 0 0 0 0 0 0 0 0 0 0 0 0 0 0 0 0 0 0 0 0 0 0 0 0 0 0 0 0 0 0 0 0 0 0 0 0 0 0 0 0 0 0 0 0 0 0 0 0 0 0 0 0 0 0 0 0 0 0 0 0 0 0 0 0 0 0 0 0 0 0 0 0 0 0 0 0 0 0 0 0 0 0 0 0 0 0 0 0 0 0 0 0 0 0 0 0 0 0 0 0 0 0 0 0 0 0 0 0 0 0
0 0 0 0 0 0 0 0 0 0 0 0 0 0 0 0 0 0 0 0 0 0 0 0 0 0 0 0 0 0 0 0 0 0 0 0 0 0 0 0 0 0 0 0 0 0 0 0 0 0 0 0 0 0 0 0 0 0 0 0 0 0 0 0 0 0 0 0 0 0 0 0 0 0 0 0 0 0 0 0 0 0 0 0 0 0 0 0 0 0 0 0 0 0 0 0 0 0 0 0 0 0 0 0 0 0 0 0 0 0 0 0 0 0 0 0 0 0 0 0
0 0 0 0 0 0 0 0 0 0 0 0 0 0 0 0 0 0 0 0 0 0 0 0 0 0 0 0 0 0 0 0 0 0 0 0 0 0 0 0 0 0 0 0 0 0 0 0 0 0 0 0 0 0 0 0 0 0 0 0 0 0 0 0 0 0 0 0 0 0 0 0 0 0 0 0 0 0 0 0 0 0 0 0 0 0 0 0 0 0 0 0 0 0 0 0 0 0 0 0 0 0 0 0 0 0 0 0 0 0 0 0 0 0 0 0 0 0 0 0
0 0 0 0 0 0 0 0 0 0 0 0 0 0 0 0 0 0 0 0 0 0 0 0 0 0 0 0 0 0 0 0 0 0 0 0 0 0 0 502 520 515 494 515 524 516 493 505 513 510 490 531 524 507 509 510 0 0 0 0 0 0 0 0 0 0 0 0 0 0 0 0 0 0 0 0 0 0 0 0 0 0 0 0 0 0 0 0 0 0 0 0 0 0 0 0 0 0 0 0 0 0 0 0 0 0 0 0 0 0 0 0 0 0 0 0 0 0 0 0
0 0 0 0 0 0 0 0 0 0 0 0 0 0 0 0 0 0 0 0 0 0 0 0 0 0 0 0 0 0 0 0 0 0 0 0 0 517 527 510 513 505 512 516 517 514 517 528 514 522 530 514 497 517 514 534 509 541 515 533 0 0 0 0 0 0 0 0 0 0 0 0 0 0 0 0 0 0 0 0 0 0 0 0 0 0 0 0 0 0 0 0 0 0 0 0 0 0 0 0 0 0 0 0 0 0 0 0 0 0 0 0 0 0 0 0 0 0 0 0
0 0 0 0 0 0 0 0 0 0 0 0 0 0 0 0 0 0 0 0 0 0 0 0 0 0 0 0 0 0 0 0 0 0 0 491 499 496 504 491 501 509 501 510 499 505 501 519 513 501 490 510 503 498 518 512 503 517 493 519 494 491 509 513 531 0 0 0 0 0 0 0 0 0 0 0 0 0 0 0 0 0 0 0 0 0 0 0 0 0 0 0 0 0 0 0 0 0 0 0 0 0 0 0 0 0 0 0 0 0 0 0 0 0 0 0 0 0 0 0
0 0 0 0 0 0 0 0 0 0 0 0 0 0 0 0 0 0 0 0 0 0 0 0 0 0 0 0 0 0 0 0 0 497 502 504 499 512 501 500 514 511 505 510 504 497 509 508 506 514 512 497 510 500 502 517 509 507 492 505 501 509 522 523 508 482 495 523 573 598 503 554 489 0 575 643 589 609 596 572 0 0 0 0 0 0 0 0 0 0 0 0 0 0 0 0 0 0 0 0 0 0 0 0 0 0 0 0 0 0 0 0 0 0 0 0 0 0 0 0
0 0 0 0 0 0 0 0 0 0 0 0 0 0 0 0 0 0 0 0 0 0 0 0 0 0 0 0 0 0 0 506 510 508 497 502 483 499 496 499 513 495 507 500 508 506 505 517 505 509 498 506 507 510 500 515 514 504 500 500 512 500 502 502 496 506 519 525 536 539 561 565 610 585 603 543 614 572 569 598 613 597 621 629 0 609 569 569 561 606 601 637 583 582 601 622 584 567 580 569 590 600 563 571 0 0 0 0 0 0 0 0 0 0 0 0 0 0 0 0
0 0 0 0 0 0 0 0 0 0 0 0 0 0 0 0 0 0 0 0 0 0 0 0 0 0 0 0 0 0 488 489 499 488 483 489 485 481 500 508 504 492 511 497 496 502 514 503 498 509 500 497 506 496 502 502 502 499 488 504 502 503 502 513 505 506 509 518 519 500 531 524 531 518 581 574 563 561 551 615 533 562 538 537 532 519 546 546 577 576 545 505 545 524 550 549 529 512 550 547 550 594 529 525 577 497 608 0 0 0 0 0 0 0 0 0 0 0 0 0
0 0 0 0 0 0 0 0 0 0 0 0 0 0 0 0 0 0 0 0 0 0 0 0 0 0 0 0 487 491 504 499 504 505 507 500 499 505 502 493 499 505 501 494 507 514 508 499 501 501 497 496 506 504 501 504 509 499 505 505 507 498 511 513 513 510 508 496 508 521 504 540 600 542 555 569 577 596 555 578 584 567 593 553 599 554 557 589 584 595 587 592 572 561 572 557 539 577 605 595 601 572 572 569 619 539 528 547 627 0 0 0 0 0 0 0 0 0 0 0
0 0 0 0 0 0 0 0 0 0 0 0 0 0 0 0 0 0 0 0 0 0 0 0 0 0 0 504 497 493 501 504 505 495 499 498 506 500 507 494 508 500 496 508 507 515 502 501 509 512 502 500 505 501 507 505 510 496 506 513 509 511 501 517 507 512 508 510 510 510 523 522 556 551 589 536 608 606 575 583 554 587 555 552 549 544 606 544 553 547 563 565 574 575 595 561 589 591 594 549 604 563 599 553 560 588 630 575 0 0 0 0 0 0 0 0 0 0 0 0
0 0 0 0 0 0 0 0 0 0 0 0 0 0 0 0 0 0 0 0 0 0 0 0 0 0 474 494 496 505 496 500 503 498 486 499 494 507 509 497 495 499 502 508 500 506 502 498 497 503 504 507 506 504 509 499 495 508 510 506 515 508 513 493 515 504 509 501 505 503 513 516 551 566 574 542 534 571 545 555 560 586 548 571 540 568 564 552 582 561 562 544 515 561 562 597 582 565 540 534 570 557 576 574 566 559 559 618 598 549 0 0 0 0 0 0 0 0 0 0
0 0 0 0 0 0 0 0 0 0 0 0 0 0 0 0 0 0 0 0 0 0 0 0 0 466 491 490 505 498 498 496 501 499 496 495 502 502 508 504 500 502 505 508 500 508 503 508 501 511 503 510 509 500 506 510 500 512 507 511 510 505 504 516 509 509 508 503 519 515 512 506 503 546 583 578 556 572 568 558 564 539 529 573 550 601 586 574 576 568 560 603 572 566 565 549 587 554 573 545 591 570 604 613 570 576 540 591 606 592 573 0 0 0 0 0 0 0 0 0
0 0 0 0 0 0 0 0 0 0 0 0 0 0 0 0 0 0 0 0 0 0 0 0 0 490 493 484 492 494 489 491 494 506 495 487 503 488 500 500 495 495 509 490 493 498 501 501 496 501 500 504 505 503 498 497 511 509 504 505 504 500 512 514 505 506 507 514 498 508 517 519 498 510 526 516 519 569 548 554 539 546 574 551 534 531 553 519 568 534 541 525 556 526 555 570 534 536 521 542 545 553 553 513 541 545 542 507 553 510 0 0 496 567 0 0 0 0 0 0
0 0 0 0 0 0 0 0 0 0 0 0 0 0 0 0 0 0 0 0 0 0 0 0 466 488 499 490 483 501 493 492 504 491 495 499 504 495 501 497 494 498 499 502 497 506 504 504 493 503 505 498 506 502 504 507 499 497 501 500 511 506 501 508 496 501 507 507 501 508 503 503 515 507 512 510 530 522 534 513 557 525 526 521 542 512 546 542 528 528 559 540 531 517 497 543 555 503 544 556 527 560 541 549 513 535 555 528 516 534 508 0 0 0 0 0 0 0 0 0
0 0 0 0 0 0 0 0 0 0 0 0 0 0 0 0 0 0 0 0 0 0 0 0 486 498 491 499 489 492 492 492 490 498 488 491 506 492 489 501 494 493 502 493 494 497 507 506 506 496 500 507 505 499 502 502 503 501 502 502 503 501 505 511 510 510 507 505 502 498 508 505 512 512 502 542 536 525 543 535 521 532 581 556 556 534 523 536 534 555 577 546 515 551 529 536 561 553 556 545 555 542 583 533 548 568 534 559 516 554 560 0 0 0 0 0 0 0 0 0
0 0 0 0 0 0 0 0 0 0 0 0 0 0 0 0 0 0 0 0 0 0 0 467 484 489 484 499 485 491 493 492 481 484 501 482 499 488 488 491 485 497 495 495 504 497 500 497 489 505 494 497 498 499 507 501 503 502 498 503 511 499 495 496 495 500 509 507 505 509 501 497 506 498 508 501 510 526 504 550 498 520 511 485 518 505 500 504 539 505 520 511 516 519 520 525 508 473 507 505 499 515 526 524 503 468 479 512 506 491 524 0 0 0 0 0 0 0 0 0
0 0 0 0 0 0 0 0 0 0 0 0 0 0 0 0 0 0 0 0 0 0 0 469 488 495 497 489 490 500 492 495 498 496 489 495 490 495 487 504 496 498 499 497 499 503 502 499 497 509 502 496 497 505 494 505 512 510 494 497 508 505 501 504 503 505 499 504 511 510 507 501 502 509 512 518 526 559 538 549 529 542 517 545 544 549 542 519 562 544 550 539 537 563 528 526 579 560 530 506 543 593 570 553 576 545 546 542 541 515 535 0 0 0 0 0 0 0 0 0
0 0 0 0 0 0 0 0 0 0 0 0 0 0 0 0 0 0 0 0 0 0 483 498 494 495 484 494 499 496 484 500 497 500 490 492 493 497 496 495 499 501 496 501 499 498 508 502 499 506 492 504 498 503 511 498 497 503 502 504 506 504 503 502 500 506 509 517 505 509 504 510 503 505 510 501 523 542 547 520 537 525 523 533 557 527 534 527 556 566 580 537 528 530 526 536 566 525 539 532 531 550 532 528 543 533 558 571 534 551 577 562 538 0 0 0 0 0 0 0
0 0 0 0 0 0 0 0 0 0 0 0 0 0 0 0 0 0 0 0 0 0 446 493 480 483 493 491 489 495 488 487 489 484 499 486 485 486 491 489 494 498 499 491 498 497 500 503 501 499 503 502 501 504 493 502 505 503 498 500 504 502 503 510 503 503 496 502 508 503 502 505 507 504 511 503 517 501 507 499 508 519 525 549 516 532 525 522 531 525 533 491 503 532 538 518 504 552 525 549 511 518 508 519 517 537 520 511 499 502 528 485 0 0 0 0 0 0 0 0
0 0 0 0 0 0 0 0 0 0 0 0 0 0 0 0 0 0 0 0 0 0 498 484 494 491 498 495 486 482 493 493 487 488 499 486 493 495 491 493 497 502 495 495 502 500 498 496 494 496 501 510 503 500 498 504 502 502 512 497 506 506 509 506 499 503 510 502 516 506 506 506 506 500 513 501 504 519 500 523 519 533 556 498 543 530 525 534 558 525 549 528 556 499 535 515 535 550 535 536 546 554 559 576 538 583 532 579 564 525 535 552 508 0 0 0 0 0 0 0
0 0 0 0 0 0 0 0 0 0 0 0 0 0 0 0 0 0 0 0 0 0 509 486 488 486 492 490 492 493 495 484 486 486 494 488 482 489 498 487 492 492 498 491 498 493 498 495 493 503 499 499 493 501 501 503 505 502 499 502 507 503 498 500 496 502 504 501 499 506 510 504 506 495 495 506 515 511 510 519 487 503 526 524 506 521 523 496 536 520 534 487 515 510 527 549 527 516 521 511 520 506 487 498 530 522 510 501 547 486 504 506 488 476 0 0 0 0 0 0
0 0 0 0 0 0 0 0 0 0 0 0 0 0 0 0 0 0 0 0 0 0 476 485 484 486 492 492 483 493 488 483 493 477 486 481 494 485 486 489 496 495 496 495 493 496 491 491 499 496 496 503 496 500 501 498 499 497 500 496 502 508 498 500 500 505 494 493 501 500 502 495 510 499 509 502 508 527 511 508 500 501 499 496 524 524 502 508 515 510 528 489 523 491 500 500 503 513 492 516 532 477 518 511 508 524 523 513 504 519 493 547 547 0 0 0 0 0 0 0
0 0 0 0 0 0 0 0 0 0 0 0 0 0 0 0 0 0 0 0 0 0 478 472 492 489 486 481 485 482 493 482 481 491 487 484 488 485 499 491 499 489 487 498 490 493 495 496 495 498 499 494 500 499 508 495 507 506 507 500 506 496 495 500 503 498 501 499 492 503 497 498 503 504 505 506 507 521 518 524 527 513 531 519 522 516 493 500 525 530 516 533 553 508 497 551 502 509 525 519 515 514 556 509 537 527 510 546 0 0 0 0 540 0 0 0 0 0 0 0
0 0 0 0 0 0 0 0 0 0 0 0 0 0 0 0 0 0 0 0 0 439 473 481 481 479 489 478 489 489 483 482 480 495 487 482 496 492 487 485 489 496 492 493 492 494 490 496 500 493 497 498 493 500 498 497 494 498 505 501 503 499 501 497 500 502 503 498 497 501 496 505 503 506 506 508 503 495 488 506 514 517 484 484 505 510 513 508 525 509 491 468 496 499 495 490 465 521 476 478 485 490 491 527 478 487 502 507 521 511 506 0 0 0 0 0 0 0 0 0
0 0 0 0 0 0 0 0 0 0 0 0 0 0 0 0 0 0 0 0 0 443 486 481 490 490 486 478 488 478 484 484 489 488 486 496 492 491 488 489 495 497 498 496 499 496 489 501 498 498 494 497 497 498 504 498 496 496 506 502 502 504 499 498 500 498 504 506 498 499 503 501 496 504 503 503 503 500 525 526 502 502 507 529 491 542 504 517 534 511 517 552 527 537 522 477 531 498 531 518 529 510 535 524 495 527 513 516 530 532 520 518 0 0 0 0 0 0 0 0
0 0 0 0 0 0 0 0 0 0 0 0 0 0 0 0 0 0 0 0 0 496 479 478 491 476 487 485 487 484 481 488 489 483 483 488 485 486 489 485 496 488 493 494 495 495 496 495 499 493 493 498 492 495 494 502 500 501 504 498 498 507 505 504 496 500 505 501 506 504 503 496 502 503 507 504 500 506 519 508 509 536 507 508 504 511 500 536 519 502 527 523 506 508 539 521 494 531 549 529 522 514 549 510 527 502 529 565 525 573 544 0 514 0 0 0 0 0 0 0
0 0 0 0 0 0 0 0 0 0 0 0 0 0 0 0 0 0 0 0 0 460 474 474 481 478 487 478 483 480 480 489 478 482 488 484 485 486 488 488 493 489 492 489 498 499 494 492 495 495 492 501 500 495 497 496 499 501 504 505 497 502 496 497 502 497 505 501 496 504 505 494 498 499 504 503 494 505 514 495 524 500 489 488 502 496 506 529 495 488 499 484 492 520 492 487 481 504 492 477 470 474 536 510 538 496 515 479 489 489 490 503 476 0 0 0 0 0 0 0
0 0 0 0 0 0 0 0 0 0 0 0 0 0 0 0 0 0 0 0 0 467 483 488 477 481 482 485 481 479 484 488 481 486 486 489 490 491 485 487 489 490 494 493 493 489 492 498 495 497 496 500 494 502 497 502 501 497 509 503 503 498 502 495 491 508 506 498 498 501 498 507 498 504 499 504 498 511 509 524 495 517 504 505 520 509 522 507 514 506 530 509 488 514 510 512 507 499 506 534 527 536 507 512 520 527 505 516 514 499 478 517 542 0 0 0 0 0 0 0
0 0 0 0 0 0 0 0 0 0 0 0 0 0 0 0 0 0 0 0 0 465 473 492 476 477 485 482 480 489 492 480 487 485 489 488 481 485 491 486 491 486 493 491 492 491 495 494 493 495 492 496 496 497 491 495 493 495 498 498 499 499 501 502 496 501 499 502 498 504 502 500 500 508 504 498 500 493 494 497 516 508 498 515 504 513 503 513 522 517 496 539 513 505 510 495 499 495 509 500 526 512 506 529 484 511 536 496 512 516 550 518 541 0 0 0 0 0 0 0
0 0 0 0 0 0 0 0 0 0 0 0 0 0 0 0 0 0 0 0 0 423 474 477 477 484 480 480 479 482 484 485 485 479 477 479 489 484 483 485 491 487 490 490 496 491 493 492 493 493 495 493 490 493 493 496 489 497 497 495 498 503 498 498 497 499 496 495 500 499 498 496 498 500 504 496 497 500 500 488 516 498 505 491 495 512 523 498 498 508 512 510 488 510 522 474 494 527 513 501 497 518 510 496 483 481 488 520 515 511 493 468 529 473 0 0 0 0 0 0
0 0 0 0 0 0 0 0 0 0 0 0 0 0 0 0 0 0 0 0 0 466 477 475 483 480 481 483 474 477 483 484 485 481 482 485 485 482 489 489 486 486 490 489 492 495 488 489 490 487 486 497 491 492 497 500 495 494 498 497 496 495 499 499 499 499 503 495 497 498 500 501 496 497 502 500 503 500 490 505 491 499 499 502 501 498 511 492 492 499 517 516 497 499 498 504 491 475 503 494 526 527 504 554 531 518 495 493 504 523 505 511 501 0 0 0 0 0 0 0
0 0 0 0 0 0 0 0 0 0 0 0 0 0 0 0 0 0 0 0 0 429 478 470 473 472 472 474 479 481 479 485 481 481 479 480 484 484 483 490 486 489 485 486 484 492 486 494 492 491 492 488 491 496 495 498 494 494 490 497 499 499 498 493 499 494 491 494 496 498 496 498 500 491 494 491 500 498 487 506 491 491 503 493 488 500 480 496 492 486 504 497 480 489 492 498 487 493 489 475 527 484 481 455 458 482 459 502 506 460 480 502 451 476 0 0 0 0 0 0
0 0 0 0 0 0 0 0 0 0 0 0 0 0 0 0 0 0 0 0 0 441 474 474 474 477 475 472 477 482 485 481 479 478 484 483 484 485 487 486 488 484 489 490 485 487 484 485 487 497 492 492 496 491 494 494 488 495 501 499 495 494 496 500 496 500 500 500 493 497 499 492 495 504 492 500 496 499 497 506 499 506 512 491 502 504 487 489 498 517 521 505 510 491 498 494 521 515 475 521 500 498 507 522 506 511 501 518 525 495 539 507 499 527 0 0 0 0 0 0
0 0 0 0 0 0 0 0 0 0 0 0 0 0 0 0 0 0 0 0 0 545 480 470 475 476 481 473 476 479 481 478 487 488 485 481 485 486 482 482 483 487 487 487 484 492 482 494 491 490 489 495 491 492 500 492 496 497 497 495 496 500 496 501 501 499 495 503 498 494 500 492 498 498 498 498 495 495 498 503 506 500 502 500 485 499 509 507 507 488 494 522 514 487 518 495 524 503 508 512 501 510 495 518 504 502 511 508 496 508 515 511 541 473 0 0 0 0 0 0
0 0 0 0 0 0 0 0 0 0 0 0 0 0 0 0 0 0 0 0 0 0 473 473 475 478 473 479 480 480 477 478 481 475 483 482 482 486 488 489 485 486 486 487 488 485 486 491 493 494 494 491 490 494 498 494 491 495 494 494 498 498 496 499 497 499 500 496 495 494 499 497 505 492 496 491 492 496 501 491 499 491 497 486 494 496 493 500 509 504 504 494 494 488 487 498 506 503 484 490 483 509 494 489 517 481 487 509 526 489 496 459 485 474 0 0 0 0 0 0
0 0 0 0 0 0 0 0 0 0 0 0 0 0 0 0 0 0 0 0 0 0 502 469 473 476 481 482 477 483 481 482 479 484 481 482 482 486 491 483 489 484 486 484 488 485 486 489 495 488 498 497 498 493 494 492 497 494 492 497 499 500 495 500 500 497 496 496 497 499 501 494 501 495 497 494 498 510 517 521 526 527 524 511 552 538 539 494 535 517 547 506 507 514 519 526 515 524 518 521 510 507 495 548 548 509 529 540 533 504 509 501 521 535 0 0 0 0 0 0
0 0 0 0 0 0 0 0 0 0 0 0 0 0 0 0 0 0 0 0 0 0 530 473 474 477 475 471 479 471 478 480 473 488 482 480 482 485 482 484 482 484 487 488 486 489 487 489 488 495 493 497 490 497 493 493 496 491 495 495 493 493 493 494 498 494 498 495 493 497 489 494 493 496 490 495 498 497 497 498 491 488 506 504 502 502 499 488 497 513 515 484 506 514 526 488 513 473 520 501 481 491 517 464 500 522 491 504 493 512 518 497 531 520 476 0 0 0 0 0
0 0 0 0 0 0 0 0 0 0 0 0 0 0 0 0 0 0 0 0 0 0 593 482 475 478 476 477 472 476 474 478 477 480 481 483 485 483 482 484 486 490 484 485 490 486 490 486 494 490 492 491 489 492 495 493 485 492 491 494 491 491 500 498 496 493 501 494 499 491 496 489 497 492 493 496 498 498 494 491 496 510 516 506 502 506 511 486 500 501 483 524 504 508 504 508 496 522 509 501 489 494 511 501 454 516 481 517 475 455 511 476 476 532 492 0 0 0 0 0
0 0 0 0 0 0 0 0 0 0 0 0 0 0 0 0 0 0 0 0 0 0 0 479 472 470 477 472 476 472 478 481 481 485 475 480 479 479 485 480 481 483 488 487 488 485 488 489 491 495 491 493 498 493 495 492 489 493 493 494 496 497 493 492 493 498 493 496 496 494 495 496 493 498 492 493 494 510 488 510 495 499 476 493 499 509 513 494 486 490 491 494 509 516 484 491 492 524 483 539 494 517 515 489 515 499 487 519 484 509 514 499 498 0 0 0 0 0 0 0
0 0 0 0 0 0 0 0 0 0 0 0 0 0 0 0 0 0 0 0 0 0 0 484 473 473 470 471 477 474 476 477 478 477 479 476 481 477 482 476 481 479 488 485 486 484 485 491 490 492 489 491 492 492 495 494 493 488 490 494 489 490 492 489 493 492 493 500 497 493 500 496 492 491 491 490 492 487 492 492 484 497 498 485 509 502 482 502 484 497 492 503 486 498 512 491 494 503 504 500 485 478 493 479 483 475 463 477 469 472 482 476 450 452 0 0 0 0 0 0
0 0 0 0 0 0 0 0 0 0 0 0 0 0 0 0 0 0 0 0 0 0 0 509 470 478 472 471 474 473 480 474 478 478 475 477 479 484 484 482 487 484 483 486 484 489 489 488 489 488 493 494 491 490 493 489 493 491 488 485 490 493 490 494 491 499 492 498 492 495 492 495 493 498 491 490 492 494 490 495 498 500 509 507 519 519 518 506 519 479 498 509 527 505 511 491 508 515 508 512 518 492 491 507 495 486 466 476 493 494 496 465 479 504 0 0 0 0 0 0
0 0 0 0 0 0 0 0 0 0 0 0 0 0 0 0 0 0 0 0 0 0 0 0 485 468 463 471 469 470 475 472 474 475 481 479 478 483 480 476 481 484 485 481 484 486 490 484 491 494 486 494 492 490 491 490 492 491 487 497 491 497 489 490 492 492 492 496 496 491 497 497 495 494 493 492 494 501 502 520 495 503 522 516 514 511 495 492 512 523 512 509 504 496 521 492 501 483 495 501 496 500 512 482 489 489 480 489 491 512 480 511 511 476 530 541 0 0 0 0
0 0 0 0 0 0 0 0 0 0 0 0 0 0 0 0 0 0 0 0 0 0 0 0 520 469 466 469 466 479 474 471 479 474 473 477 478 476 480 477 485 480 479 487 478 487 487 485 488 492 490 488 489 494 489 485 492 490 488 490 490 492 489 496 492 494 494 495 493 490 494 492 491 493 495 491 489 497 504 496 489 492 491 502 485 491 491 500 511 490 509 500 530 477 508 477 493 507 534 467 469 490 482 481 461 463 447 459 451 466 452 501 467 451 457 0 0 0 0 0
0 0 0 0 0 0 0 0 0 0 0 0 0 0 0 0 0 0 0 0 0 0 0 0 0 484 477 473 464 477 475 476 474 476 472 472 479 475 477 479 478 476 479 485 484 483 488 481 486 486 492 484 485 489 488 486 490 487 489 488 491 491 499 489 492 497 491 495 497 499 496 489 493 491 498 491 494 490 491 491 496 495 493 500 499 502 518 483 505 519 529 504 508 524 516 527 526 508 508 520 503 502 504 506 488 505 498 461 489 525 545 541 519 517 0 0 0 0 0 0
0 0 0 0 0 0 0 0 0 0 0 0 0 0 0 0 0 0 0 0 0 0 0 0 0 538 466 471 466 476 466 470 476 475 475 478 473 475 478 479 478 477 485 476 477 479 478 481 483 487 479 478 484 489 488 490 492 484 489 489 486 490 490 491 490 489 490 489 493 494 491 489 494 489 491 485 476 489 481 487 484 488 497 484 491 484 496 487 483 479 489 492 485 498 479 498 493 521 495 512 510 488 488 479 465 455 480 490 469 498 496 490 474 451 0 0 0 0 0 0
0 0 0 0 0 0 0 0 0 0 0 0 0 0 0 0 0 0 0 0 0 0 0 0 0 0 474 470 464 469 468 470 470 473 472 471 474 477 477 477 470 476 476 475 488 479 488 479 481 477 484 487 483 485 487 486 485 490 490 486 485 488 490 489 497 490 495 489 491 489 491 494 489 488 485 482 476 483 494 487 481 481 477 496 458 481 485 488 482 493 487 479 488 472 473 487 468 471 476 482 478 481 467 474 462 476 483 477 447 480 448 457 448 424 0 0 0 0 0 0
0 0 0 0 0 0 0 0 0 0 0 0 0 0 0 0 0 0 0 0 0 0 0 0 0 0 0 468 466 468 467 475 472 471 473 477 469 474 473 475 480 483 474 480 476 482 482 480 483 483 480 481 480 484 476 480 484 486 485 492 489 488 488 494 490 490 489 490 489 491 491 485 487 479 487 479 487 490 490 485 481 487 478 480 494 476 491 496 486 487 486 510 479 480 480 494 502 502 521 480 523 497 458 497 477 475 503 482 474 458 493 487 459 441 503 0 0 0 0 0
0 0 0 0 0 0 0 0 0 0 0 0 0 0 0 0 0 0 0 0 0 0 0 0 0 0 0 518 472 464 468 467 471 469 474 474 471 469 470 473 473 476 478 475 476 474 479 482 481 483 480 481 483 484 480 481 482 483 486 487 485 484 487 491 494 492 489 489 489 485 485 482 481 480 482 484 478 472 472 471 477 477 476 477 482 499 515 474 485 478 478 477 472 507 477 483 484 487 490 514 474 462 486 453 459 469 449 472 465 438 484 442 458 473 0 0 0 0 0 0
0 0 0 0 0 0 0 0 0 0 0 0 0 0 0 0 0 0 0 0 0 0 0 0 0 0 0 0 513 472 461 471 464 469 474 475 475 471 476 478 476 475 477 478 477 482 478 481 479 478 483 480 487 483 481 477 485 481 483 484 484 486 488 490 486 486 488 485 483 490 484 493 478 486 487 481 478 491 496 481 490 464 488 487 483 484 490 503 481 484 494 487 470 488 487 493 477 488 480 472 497 473 469 464 484 460 470 486 482 444 430 502 488 460 499 0 0 0 0 0
0 0 0 0 0 252 227 262 316 0 0 0 0 0 0 0 0 0 0 0 0 2361 0 0 0 0 0 0 0 496 458 464 470 469 464 471 476 472 466 473 472 475 476 474 480 474 476 478 478 476 483 479 479 480 480 480 480 487 484 482 482 484 488 481 482 488 485 479 484 487 482 483 481 485 487 470 483 489 496 490 489 481 476 485 496 496 479 490 485 502 481 502 478 489 487 497 520 495 484 496 494 482 487 465 461 496 486 484 494 520 457 454 501 451 455 0 0 0 0 0
0 0 0 0 253 230 232 235 237 292 360 0 0 0 0 0 0 0 0 0 0 0 0 0 0 0 0 0 0 0 455 467 465 466 469 471 468 469 475 467 477 473 471 473 476 476 475 473 477 477 477 482 481 485 480 486 484 479 481 483 482 484 482 486 484 487 484 484 477 478 477 479 476 474 485 489 476 474 481 479 479 474 479 479 483 470 470 470 467 482 476 503 493 468 481 503 466 467 483 478 462 468 473 495 480 443 479 455 483 463 425 477 465 0 0 0 0 0 0 0
0 0 0 255 221 230 230 228 235 242 355 0 0 0 0 0 0 0 0 0 0 0 0 0 0 0 0 0 0 0 0 472 462 469 466 471 467 470 464 472 473 469 470 471 471 479 475 476 478 477 475 480 482 477 482 476 481 481 481 479 479 482 480 487 479 480 491 479 475 488 480 481 482 482 485 492 478 478 470 483 479 476 481 466 474 480 487 494 474 486 500 498 492 500 494 494 479 476 484 495 475 510 502 517 463 459 467 459 455 482 463 441 492 455 459 0 0 0 0 0
202 217 234 250 255 284 259 231 231 232 296 0 370 379 381 398 433 396 419 434 438 443 428 423 458 426 444 427 444 452 440 458 464 471 458 463 463 461 462 462 465 468 469 467 472 466 468 472 478 478 466 476 475 479 479 474 481 479 482 475 472 480 471 479 484 484 477 479 485 475 471 476 472 471 463 459 472 473 463 471 480 460 479 481 471 479 476 485 466 482 472 471 468 468 478 461 470 463 471 490 468 497 463 449 464 445 432 465 449 458 474 439 451 427 439 0 0 0 0 0
201 181 210 217 226 231 240 230 227 252 358 413 371 398 388 400 398 393 402 379 402 418 408 409 417 423 424 430 458 450 445 459 463 456 456 454 456 459 456 458 457 461 453 457 468 459 463 468 470 472 462 468 467 469 475 469 464 469 463 475 471 468 468 464 470 471 473 472 469 463 461 459 464 463 465 451 461 447 456 458 446 444 456 459 451 447 452 443 456 437 439 454 442 441 444 444 435 447 433 440 436 451 436 441 437 448 425 443 446 441 429 426 424 424 408 417 422 419 0 0
176 204 215 206 241 216 224 223 225 302 352 356 368 361 365 381 359 377 377 372 382 385 400 412 405 415 408 423 421 438 444 441 445 441 438 443 442 443 445 447 443 450 446 443 444 452 456 453 457 454 459 454 458 456 456 455 454 456 454 458 463 464 458 464 459 457 458 456 449 453 456 451 448 441 439 434 437 428 428 425 437 422 428 438 425 429 420 430 430 419 436 431 423 422 437 423 414 431 430 417 414 417 418 433 424 425 406 415 416 419 414 420 400 405 423 440 408 449 397 0
268 280 244 223 232 228 229 231 253 343 309 316 324 329 318 328 330 335 357 338 343 359 368 375 368 374 385 395 407 417 416 421 419 431 427 428 429 427 428 429 435 425 431 429 430 430 435 438 437 442 440 436 436 439 443 445 444 441 441 439 442 432 438 441 440 439 439 435 442 437 434 431 427 418 418 412 399 399 407 393 400 400 392 391 385 392 385 386 385 388 394 378 402 397 399 396 386 389 391 387 397 379 397 378 387 393 377 370 375 390 380 387 370 379 392 370 350 393 384 365
292 304 266 232 228 234 233 254 302 305 316 304 291 318 321 320 313 312 309 322 332 329 328 339 353 375 381 382 390 391 399 407 406 413 408 413 416 410 409 420 415 412 411 409 413 417 417 422 414 414 418 419 422 421 418 425 435 424 420 426 427 422 416 420 421 419 419 414 416 415 403 403 406 404 398 394 378 375 371 359 362 365 369 366 364 358 354 361 365 361 358 359 360 377 371 375 356 369 350 362 360 367 367 362 364 379 347 370 361 357 348 363 355 361 366 336 354 365 356 350
290 267 262 265 258 251 245 268 268 284 270 291 277 286 287 291 285 300 290 293 286 305 313 317 327 345 366 371 368 372 387 381 391 386 385 386 392 390 398 398 395 392 396 392 388 394 393 389 395 399 389 397 395 404 396 400 394 397 401 402 395 401 400 403 397 389 394 396 398 393 382 384 391 377 378 367 362 348 340 339 338 333 332 327 328 334 324 335 324 332 328 321 335 335 341 334 334 335 332 335 334 323 329 339 342 354 330 337 331 336 332 345 326 329 373 347 326 344 338 336
247 236 240 251 250 238 245 241 260 257 256 243 255 256 254 258 260 251 267 267 268 276 290 302 311 315 330 333 341 361 355 365 366 362 364 367 364 365 364 365 370 367 374 375 369 376 367 365 368 373 377 370 373 373 380 380 369 375 379 375 375 371 377 374 373 372 371 378 365 367 369 356 359 355 350 340 325 317 310 304 308 286 315 296 301 308 304 300 289 303 303 305 306 301 306 302 287 299 304 298 306 312 301 309 306 306 300 295 295 312 298 300 310 290 288 286 301 312 312 290
228 240 226 227 236 237 243 240 242 239 243 250 252 246 245 247 249 238 255 255 259 268 274 290 289 295 316 326 325 335 325 337 341 343 345 338 341 347 336 346 350 346 350 351 342 345 351 350 348 346 345 342 347 354 352 350 352 354 353 349 352 347 354 349 347 344 350 351 356 343 344 345 339 338 328 322 312 299 292 289 282 274 282 278 277 279 282 280 281 274 274 284 281 273 281 277 276 279 277 281 282 279 283 277 274 279 275 286 287 298 279 302 282 295 280 297 280 300 305 311
214 218 227 222 218 214 216 220 213 230 229 221 221 226 226 230 217 224 234 238 239 244 255 261 271 281 297 295 295 302 305 314 313 317 312 322 317 315 323 325 319 325 315 318 333 324 319 326 325 322 320 322 327 321 323 326 326 319 327 324 330 326 321 329 323 323 324 325 319 320 317 318 316 307 296 293 282 273 271 275 267 264 261 260 260 254 263 258 248 254 258 261 259 262 260 251 260 243 261 252 253 258 253 266 259 256 253 269 264 268 268 247 261 254 258 255 245 251 280 257
198 208 199 211 217 216 221 211 208 210 214 206 209 208 212 212 221 216 221 224 225 235 246 252 251 258 271 279 279 288 287 293 294 291 300 293 296 301 301 302 300 296 295 304 298 293 301 299 307 303 302 301 304 298 298 300 305 301 299 305 304 307 307 306 304 309 305 307 303 297 300 297 302 292 289 279 267 259 260 250 238 248 245 247 246 250 243 237 240 243 242 250 238 243 246 241 237 236 235 240 233 245 241 240 243 239 238 235 242 241 250 256 247 259 242 255 250 231 254 278
195 202 197 199 195 204 209 209 200 204 204 197 188 188 200 193 205 210 209 212 217 216 234 229 242 242 250 259 266 271 269 264 274 273 277 279 281 280 281 283 280 277 288 286 280 275 282 279 285 287 278 281 277 281 281 286 284 286 284 286 284 288 284 287 282 286 283 280 284 285 288 281 274 269 266 259 251 244 241 236 238 229 235 232 228 222 228 228 225 228 230 229 227 225 223 226 231 221 227 223 227 227 230 226 229 222 227 230 233 232 244 231 241 241 246 248 256 231 232 238
192 173 195 191 185 181 183 190 181 184 179 180 177 183 183 178 180 183 184 186 208 195 217 225 222 231 237 238 242 249 252 256 257 255 257 255 256 258 266 265 264 261 263 267 265 261 266 269 262 265 264 263 263 264 268 265 267 266 262 278 266 264 263 271 264 265 270 264 267 263 269 260 251 260 248 240 236 231 224 223 220 203 215 215 218 219 216 215 213 217 212 215 220 191 212 215 207 197 205 211 215 209 212 212 214 213 217 205 214 209 225 225 223 222 207 206 228 215 219 219
168 174 170 177 176 179 178 176 181 183 173 179 178 181 186 178 186 186 181 185 194 188 186 216 210 220 226 227 229 232 232 239 241 238 240 245 240 242 246 247 245 242 248 248 251 253 242 247 244 250 246 253 248 249 242 248 251 247 246 255 252 242 251 247 242 250 249 245 242 245 244 244 237 240 236 230 220 220 198 199 193 192 189 188 190 192 193 196 193 190 209 190 186 182 191 189 184 189 206 206 187 205 191 185 185 193 188 206 204 205 208 197 214 203 203 207 204 200 208 213
166 175 179 175 175 180 169 171 178 179 174 176 172 171 177 176 176 177 182 184 186 189 186 192 205 193 211 215 215 223 228 223 223 223 226 230 229 234 226 230 227 229 235 230 229 233 229 227 231 236 232 233 233 233 238 237 235 236 236 234 235 238 237 232 232 237 236 227 233 232 234 230 226 221 217 216 196 196 189 190 193 196 193 194 194 191 185 191 194 189 182 183 183 191 191 181 181 188 176 184 187 179 177 178 180 182 184 180 176 175 185 184 175 207 195 197 203 212 212 213
163 163 168 174 171 172 172 170 169 168 168 166 169 164 172 170 169 174 171 180 175 183 189 183 188 184 189 187 190 208 212 212 211 211 212 209 214 216 213 198 215 221 218 218 219 220 218 220 221 220 218 217 220 220 220 220 222 222 218 224 216 224 221 216 220 215 220 215 219 220 220 214 216 212 195 193 185 193 192 188 185 183 184 184 186 183 182 184 184 183 181 179 183 179 179 182 179 181 178 184 182 182 182 180 179 184 176 180 178 178 171 174 180 191 185 171 176 172 175 200
150 157 163 161 162 165 161 162 163 168 157 162 165 159 159 166 163 168 170 173 170 173 180 183 179 186 183 185 192 193 182 183 184 184 186 189 189 189 186 190 194 192 191 191 199 196 191 195 193 193 199 193 198 197 194 192 192 192 195 197 198 200 198 193 194 194 194 196 195 196 201 197 195 192 197 194 195 191 184 179 177 177 175 172 173 172 176 176 178 173 173 173 171 174 177 169 167 171 172 169 169 173 172 174 174 170 170 167 168 174 164 174 171 175 191 171 173 184 189 176
144 148 148 153 156 156 153 159 159 158 156 157 152 155 155 155 156 162 157 164 164 170 176 172 179 179 179 182 185 184 189 189 188 189 189 185 193 192 191 189 193 190 187 196 193 194 196 197 195 193 194 197 195 195 199 197 197 198 194 199 197 198 198 199 191 194 194 198 198 193 192 193 192 192 187 184 186 185 178 174 174 176 166 165 165 168 171 165 172 170 166 166 170 170 165 166 163 165 163 171 166 169 171 166 166 162 163 164 164 164 165 168 177 167 175 161 164 175 168 155
144 141 145 144 151 148 144 150 147 148 148 152 148 156 153 150 153 148 153 161 158 164 164 170 169 173 173 174 174 179 176 178 182 179 177 178 186 179 181 186 183 182 186 184 182 186 185 185 189 187 184 184 186 185 184 188 186 189 0 186 187 185 185 186 187 185 189 185 183 186 184 184 181 179 173 175 172 173 168 165 157 159 159 160 161 162 164 161 163 162 161 160 161 159 162 160 156 157 161 165 160 164 162 153 154 155 159 160 156 161 155 160 155 158 159 169 164 165 158 167
138 140 138 141 140 149 146 147 146 145 144 142 140 146 143 146 143 146 150 151 156 159 163 164 163 167 167 166 166 170 167 171 177 174 168 174 175 170 172 173 176 178 176 175 178 176 172 179 174 179 181 180 179 180 179 179 181 0 0 177 178 178 176 180 180 177 180 182 178 170 177 179 173 177 171 170 168 164 162 159 162 157 153 156 154 160 157 154 157 155 150 153 155 154 155 151 153 151 156 153 156 153 154 153 148 149 146 153 156 151 156 146 150 148 151 146 150 152 157 170
134 133 126 138 141 141 149 141 142 137 139 139 142 140 143 141 140 148 147 143 151 151 155 154 160 159 159 163 163 163 162 164 165 165 164 166 165 169 167 170 170 0 170 0 170 173 170 172 171 172 173 169 173 172 176 0 175 172 0 175 173 0 174 175 171 171 170 164 174 172 169 164 170 168 165 162 164 158 156 152 148 156 152 150 154 149 149 146 151 151 148 152 150 149 151 147 151 148 152 149 152 139 148 148 146 141 145 141 145 145 141 147 149 160 146 154 139 162 145 163
128 124 124 116 136 134 143 136 133 122 130 130 125 133 136 135 136 132 135 139 140 145 149 148 150 156 158 156 157 160 158 154 163 163 158 156 163 162 0 0 0 0 0 0 0 0 0 167 166 167 165 166 167 166 0 0 168 168 167 0 0 0 0 0 164 166 169 0 159 164 163 160 159 159 152 159 153 157 149 152 148 142 146 147 142 149 143 145 147 146 146 142 144 145 141 137 142 145 142 142 140 135 142 136 136 135 135 137 132 138 142 142 145 156 147 145 147 140 149 142
124 129 122 124 125 131 135 131 134 130 131 129 124 133 124 128 120 138 136 135 139 141 141 147 147 147 153 154 152 156 153 157 156 158 154 155 154 0 0 0 0 0 0 0 0 0 0 0 0 158 163 160 0 0 0 0 0 0 0 0 0 0 0 0 160 0 0 0 0 0 0 156 158 156 152 151 150 150 147 146 141 139 143 142 140 142 141 136 144 139 134 139 135 140 137 137 143 141 142 138 140 137 141 134 128 136 133 136 140 142 135 153 140 144 136 139 138 134 137 173
115 107 117 122 127 123 131 129 127 126 131 122 120 120 120 130 132 123 128 135 127 128 131 143 141 142 142 143 147 148 150 148 151 153 151 147 0 0 0 0 0 0 0 0 0 0 0 0 152 154 156 0 0 0 0 0 0 0 0 0 0 0 0 0 0 0 0 0 0 0 0 0 149 151 148 148 144 142 139 143 127 139 137 130 125 126 136 138 128 127 136 138 130 127 120 129 137 140 134 136 129 134 136 119 127 131 136 124 132 129 132 132 143 133 141 135 131 135 118 130
101 108 110 108 112 109 126 120 114 119 115 115 117 116 125 121 121 121 118 119 130 121 129 123 136 138 141 138 141 143 143 141 141 145 142 140 0 0 0 0 0 0 0 0 0 0 0 0 0 0 0 0 0 0 0 0 0 0 0 0 0 0 0 0 0 0 0 0 0 0 0 0 141 142 141 140 137 131 127 131 127 122 121 122 128 116 125 127 119 129 122 124 118 126 123 135 122 134 122 117 118 129 131 114 127 128 127 122 129 132 131 128 113 126 114 131 114 114 119 142
109 103 116 117 111 114 116 124 118 117 114 116 117 117 119 123 120 130 121 116 115 116 117 118 135 135 135 136 0 132 0 0 0 138 140 0 0 0 0 0 0 0 0 0 0 0 0 0 0 0 0 0 0 0 0 0 0 0 0 0 0 0 0 0 0 0 0 0 0 0 0 0 0 141 123 126 122 124 118 122 119 118 123 125 114 122 116 120 119 115 115 123 114 118 109 119 118 120 114 121 117 124 131 119 120 113 115 123 112 130 114 109 127 119 121 115 114 127 129 127
98 100 108 109 103 101 107 106 104 101 109 107 106 107 106 108 108 116 119 112 114 119 111 113 121 121 122 119 123 125 0 0 0 0 124 0 0 0 0 0 0 0 0 0 0 0 0 0 0 0 0 0 0 0 0 0 0 0 0 0 0 0 0 0 0 0 0 0 0 0 0 0 129 0 0 126 120 119 121 114 116 115 108 116 113 117 110 113 110 113 111 116 108 110 108 109 113 111 115 112 115 111 108 112 110 116 104 109 107 107 107 108 106 126 110 93 109 115 126 142
98 99 95 98 98 102 103 99 101 104 102 103 104 103 105 103 106 109 115 108 107 110 106 107 116 109 116 118 119 116 0 125 0 0 0 0 0 0 0 0 0 0 0 0 0 0 0 0 0 0 0 0 0 0 0 0 0 0 0 0 0 0 0 0 0 0 0 0 0 0 0 0 0 123 0 115 121 116 114 112 110 111 104 103 110 109 111 115 107 110 115 112 108 110 108 114 106 111 99 118 112 109 111 102 104 119 110 110 114 112 101 100 110 104 109 121 130 107 114 137
98 99 100 102 97 99 102 91 94 100 98 96 103 93 98 90 106 100 112 115 109 104 94 112 114 105 114 113 112 121 117 117 120 0 0 0 0 0 0 0 0 0 0 0 0 0 0 0 0 0 0 0 0 0 0 0 0 0 0 0 0 0 0 0 0 0 0 0 0 0 0 0 122 122 107 122 111 116 118 118 108 110 101 116 107 109 103 100 98 106 105 105 113 93 102 100 106 96 112 104 105 108 110 101 108 106 104 95 100 94 100 100 100 95 122 95 126 132 105 125
88 81 82 86 81 82 79 99 88 83 86 91 95 95 90 89 80 91 93 86 87 87 101 104 100 103 111 109 0 116 107 105 118 0 0 0 0 0 0 0 0 0 0 0 0 0 0 0 0 0 0 0 0 0 0 0 0 0 0 0 0 0 0 0 0 0 0 0 0 0 0 117 112 109 103 112 106 105 104 100 101 103 96 89 100 97 89 100 106 101 89 98 104 83 82 96 93 102 87 94 90 96 92 93 86 91 91 92 97 84 89 75 85 98 101 104 86 94 110 127
96 87 90 85 97 93 96 104 89 92 96 95 94 90 92 97 97 91 101 96 96 105 104 104 103 102 111 105 0 106 109 106 116 112 120 106 0 0 0 0 0 115 0 0 0 0 0 0 0 0 0 0 0 0 0 0 0 0 0 0 113 0 0 0 114 0 0 0 110 0 110 108 116 113 114 107 106 112 101 99 110 100 106 87 97 102 104 100 102 100 106 106 108 100 103 101 98 96 101 110 107 97 92 103 95 102 96 87 89 86 91 91 90 85 106 91 100 118 145 142
85 88 92 87 97 96 90 90 84 94 86 90 86 92 87 84 89 100 93 93 99 94 94 110 92 99 105 103 102 108 92 0 105 104 97 103 0 114 114 0 0 0 0 0 0 0 0 0 0 0 0 0 0 0 0 0 0 110 0 0 109 106 0 111 113 109 108 100 111 104 109 102 102 100 111 108 101 88 104 97 94 92 101 88 95 91 91 106 107 89 98 104 109 88 82 84 87 88 93 85 92 88 88 91 91 86 98 92 97 85 91 89 84 95 89 84 100 113 116 124
85 87 83 86 94 94 102 89 85 82 87 88 84 91 88 89 86 90 93 86 82 93 93 83 86 94 92 88 105 89 95 98 100 95 96 110 103 101 105 104 103 96 96 108 106 90 0 0 96 0 0 105 105 95 102 108 106 106 108 103 99 106 112 103 98 110 105 97 98 108 97 107 106 102 108 93 94 93 97 91 97 93 95 94 96 92 88 95 92 90 98 90 94 92 92 93 87 85 95 84 86 86 88 96 87 92 96 81 85 96 88 102 85 95 83 104 102 88 129 127
84 80 86 83 84 88 96 103 86 84 85 81 82 88 83 90 91 92 88 98 86 97 93 90 90 97 96 92 93 101 96 82 96 94 95 96 98 98 91 109 101 95 96 105 100 95 104 0 103 101 98 104 96 99 98 101 102 105 97 107 105 95 94 103 101 99 93 104 92 110 99 101 100 89 104 87 91 95 95 96 100 99 94 90 96 96 88 87 94 86 85 97 89 91 82 82 94 93 97 88 86 98 82 92 89 98 91 90 90 85 86 90 94 100 100 120 106 101 101 77
82 73 67 67 78 80 88 88 86 81 83 80 81 79 89 83 86 84 85 85 84 85 92 88 84 86 92 92 84 93 87 91 79 91 90 94 96 86 90 83 91 89 85 91 94 92 92 100 93 86 92 85 96 90 89 82 104 88 97 97 97 81 83 97 95 80 96 92 96 98 94 89 90 90 86 90 94 93 90 93 88 92 81 86 83 93 88 88 86 87 93 78 90 81 82 86 86 79 80 87 79 82 84 73 79 79 85 80 85 78 72 88 82 84 83 95 115 67 85 55
73 72 77 86 72 87 86 88 84 78 82 89 81 86 85 88 86 90 82 85 83 91 85 92 89 94 90 87 86 94 85 96 89 95 95 88 84 95 87 94 95 82 93 90 89 100 92 87 101 87 94 88 96 86 103 96 87 87 88 92 98 98 90 96 90 97 89 97 108 92 83 96 87 96 95 84 96 84 96 95 93 88 89 89 81 87 88 82 91 93 76 91 77 81 88 81 88 84 79 86 82 79 78 78 79 83 77 82 81 88 86 89 86 82 80 80 109 102 84 196
