0 0 0 0 0 0 0 0 0 0 0 0 0 0 0 0 0 0 0 0 0 0 0 0 0 0 0 0 0 0 0 0 0 0 0 0 0 0 0 0 0 0 0 0 0 0 0 0 0 0 0 0 0 0 0 0 0 0 0 0 0 0 0 0 0 0 0 0 0 0 0 0 0 0 0 0 0 0 0 0 0 0 0 0 0 0 0 0 0 0 0 0 0 0 0 0 0 0 0 0 0 0 0 0 0 0 0 0 0 0 0 0 0 0 0 0 0 0 0 0
0 0 0 0 0 0 0 0 0 0 0 0 0 0 0 0 0 0 0 0 0 0 0 0 0 0 0 0 0 0 0 0 0 0 0 0 0 0 0 0 0 0 0 0 0 0 0 0 0 0 0 0 0 0 0 0 0 0 0 0 0 0 0 0 0 0 0 0 0 0 0 0 0 0 0 0 0 0 0 0 0 0 0 0 0 0 0 0 0 0 0 0 0 0 0 0 0 0 0 0 0 0 0 0 0 0 0 0 0 0 0 0 0 0 0 0 0 0 0 0
0 0 0 0 0 0 0 0 0 0 0 0 0 0 0 0 0 0 0 0 0 0 0 0 0 0 0 0 0 0 0 0 0 0 0 0 0 0 0 0 0 0 0 0 0 0 0 0 0 0 0 0 0 0 0 0 0 0 0 0 0 0 0 0 0 0 0 0 0 0 0 0 0 0 0 0 0 0 0 0 0 0 0 0 0 0 0 0 0 0 0 0 0 0 0 0 0 0 0 0 0 0 0 0 0 0 0 0 0 0 0 0 0 0 0 0 0 0 0 0
0 0 0 0 0 0 0 0 0 0 0 0 0 0 0 0 0 0 0 0 0 0 0 0 0 0 0 0 0 0 0 0 0 0 0 0 0 0 0 0 0 0 0 0 0 0 0 0 0 0 0 0 0 0 0 0 0 0 0 0 0 0 0 0 0 0 0 0 0 0 0 0 0 0 0 0 0 0 0 0 0 0 0 0 0 0 0 0 0 0 0 0 0 0 0 0 0 0 0 0 0 0 0 0 0 0 0 0 0 0 0 0 0 0 0 0 0 0 0 0
0 0 0 0 0 0 0 0 0 0 0 0 0 0 0 0 0 0 0 0 0 0 0 0 0 0 0 0 0 0 0 0 0 0 0 0 0 0 0 0 0 0 0 0 0 0 0 0 0 0 0 0 0 0 0 0 0 0 0 0 0 0 0 0 0 0 0 0 0 0 0 0 0 0 0 0 0 0 0 0 0 0 0 0 0 0 0 0 0 0 0 0 0 0 0 0 0 0 0 0 0 0 0 0 0 0 0 0 0 0 0 0 0 0 0 0 0 0 0 0
0 0 0 0 0 0 0 0 0 0 0 0 0 0 0 0 0 0 0 0 0 0 0 0 0 0 0 0 0 0 0 0 0 0 0 0 0 0 0 490 528 500 503 531 496 540 493 502 508 499 494 483 490 504 478 0 0 0 0 0 0 0 0 0 0 0 0 0 0 0 0 0 0 0 0 0 0 0 0 0 0 0 0 0 0 0 0 0 0 0 0 0 0 0 0 0 0 0 0 0 0 0 0 0 0 0 0 0 0 0 0 0 0 0 0 0 0 0 0 0
0 0 0 0 0 0 0 0 0 0 0 0 0 0 0 0 0 0 0 0 0 0 0 0 0 0 0 0 0 0 0 0 0 0 0 0 0 524 522 510 498 511 499 498 501 517 527 517 510 517 517 527 515 502 506 512 516 514 517 560 0 0 0 0 0 0 0 0 0 0 0 0 0 0 0 0 0 0 0 0 0 0 0 0 0 0 0 0 0 0 0 0 0 0 0 0 0 0 0 0 0 0 0 0 0 0 0 0 0 0 0 0 0 0 0 0 0 0 0 0
0 0 0 0 0 0 0 0 0 0 0 0 0 0 0 0 0 0 0 0 0 0 0 0 0 0 0 0 0 0 0 0 0 0 0 499 503 500 491 485 507 497 489 516 484 492 509 512 518 504 507 501 506 507 532 514 518 513 491 503 504 507 496 498 531 0 0 0 0 0 0 0 0 0 0 0 0 0 0 0 0 0 0 0 0 0 0 0 0 0 0 0 0 0 0 0 0 0 0 0 0 0 0 0 0 0 0 0 0 0 0 0 0 0 0 0 0 0 0 0
0 0 0 0 0 0 0 0 0 0 0 0 0 0 0 0 0 0 0 0 0 0 0 0 0 0 0 0 0 0 0 0 0 517 486 500 482 507 500 498 509 508 510 493 500 506 508 502 504 520 503 507 504 512 510 512 506 511 512 510 508 501 510 502 523 523 512 554 557 595 554 581 563 568 595 578 575 548 590 562 0 0 0 0 0 0 0 0 0 0 0 0 0 0 0 0 0 0 0 0 0 0 0 0 0 0 0 0 0 0 0 0 0 0 0 0 0 0 0 0
0 0 0 0 0 0 0 0 0 0 0 0 0 0 0 0 0 0 0 0 0 0 0 0 0 0 0 0 0 0 0 540 505 506 506 503 496 502 510 497 517 508 506 515 516 515 510 505 508 510 503 504 513 512 501 496 513 503 499 520 506 509 504 514 506 526 511 529 525 557 570 537 584 588 566 610 551 568 596 593 606 543 600 558 614 538 0 588 557 602 610 593 610 592 634 615 583 641 600 630 625 567 593 597 0 0 0 0 0 0 0 0 0 0 0 0 0 0 0 0
0 0 0 0 0 0 0 0 0 0 0 0 0 0 0 0 0 0 0 0 0 0 0 0 0 0 0 0 0 0 489 491 515 483 491 494 505 514 503 513 510 495 496 505 500 511 499 503 504 506 509 499 517 494 507 517 505 507 498 512 496 501 501 512 517 514 516 514 504 525 549 551 550 565 536 561 578 534 563 560 574 586 605 555 554 591 635 547 600 570 540 588 546 619 585 563 577 586 575 587 543 551 566 572 599 558 601 0 605 0 0 0 0 0 0 0 0 0 0 0
0 0 0 0 0 0 0 0 0 0 0 0 0 0 0 0 0 0 0 0 0 0 0 0 0 0 0 0 503 504 509 509 510 504 509 497 499 503 506 508 512 514 507 492 507 510 506 505 501 513 505 502 509 508 511 512 507 507 507 512 509 507 505 506 516 514 505 506 515 517 518 563 591 608 555 607 567 569 600 557 563 598 569 598 553 609 589 564 605 585 551 563 585 580 608 587 584 546 548 568 618 577 593 586 587 587 594 566 615 0 0 0 0 0 0 0 0 0 0 0
0 0 0 0 0 0 0 0 0 0 0 0 0 0 0 0 0 0 0 0 0 0 0 0 0 0 0 488 506 505 502 489 509 500 488 503 505 496 495 495 500 497 504 513 493 509 503 502 498 506 507 497 508 499 507 508 504 510 508 517 509 512 509 512 511 506 511 513 512 509 516 502 562 555 573 556 577 569 570 562 566 569 556 582 572 578 569 569 577 554 508 606 537 555 555 575 543 567 542 557 549 555 550 562 536 544 519 531 0 0 0 0 0 0 0 0 0 0 0 0
0 0 0 0 0 0 0 0 0 0 0 0 0 0 0 0 0 0 0 0 0 0 0 0 0 0 472 507 492 505 501 495 491 496 493 492 494 497 494 495 499 497 502 508 508 507 500 495 497 504 504 503 509 506 505 500 497 516 511 505 503 509 507 500 512 515 512 501 506 505 512 511 537 580 537 526 546 569 539 540 540 540 562 549 547 545 579 537 505 522 557 557 564 534 564 526 511 510 526 550 509 538 538 586 550 543 550 516 536 0 0 0 0 0 0 0 0 0 0 0
0 0 0 0 0 0 0 0 0 0 0 0 0 0 0 0 0 0 0 0 0 0 0 0 0 535 505 500 506 501 503 497 493 496 493 491 507 503 503 505 505 510 499 505 503 498 503 510 502 505 502 503 500 506 507 502 510 505 507 502 514 508 515 520 508 504 501 510 512 513 512 512 526 559 540 576 556 562 591 585 557 582 530 538 563 517 580 571 561 552 558 587 552 554 534 568 533 571 581 564 559 558 585 589 542 590 564 532 534 533 629 0 0 0 0 0 0 0 0 0
0 0 0 0 0 0 0 0 0 0 0 0 0 0 0 0 0 0 0 0 0 0 0 0 0 494 495 491 509 493 495 489 499 497 485 498 491 494 491 503 501 496 508 499 499 497 504 503 498 506 504 514 510 499 502 506 506 506 505 506 504 504 503 504 504 505 511 518 510 499 512 509 503 517 497 532 515 513 543 553 516 537 549 511 559 493 561 562 528 538 531 566 561 546 529 554 537 565 572 525 531 539 523 517 572 537 566 509 548 0 0 0 0 491 0 0 0 0 0 0
0 0 0 0 0 0 0 0 0 0 0 0 0 0 0 0 0 0 0 0 0 0 0 0 487 501 493 495 489 499 491 499 496 496 493 493 497 494 503 496 499 493 490 499 505 504 505 505 498 500 500 496 510 507 507 511 506 506 503 512 497 496 506 514 499 506 505 509 500 505 511 512 513 509 525 535 535 529 538 544 541 523 554 535 558 555 549 537 548 521 535 562 526 515 528 557 517 538 499 536 537 540 582 542 533 574 540 528 558 557 596 0 0 0 0 0 0 0 0 0
0 0 0 0 0 0 0 0 0 0 0 0 0 0 0 0 0 0 0 0 0 0 0 0 496 501 492 495 491 492 492 492 496 496 495 499 493 498 495 496 500 493 497 497 498 490 505 505 503 510 508 511 506 508 504 498 508 501 503 510 504 509 510 503 506 509 510 511 504 506 512 514 511 519 515 552 536 544 553 540 541 539 536 561 562 510 553 560 528 557 564 515 527 554 546 565 575 540 573 554 541 577 540 534 568 520 585 545 514 560 0 0 0 0 0 0 0 0 0 0
0 0 0 0 0 0 0 0 0 0 0 0 0 0 0 0 0 0 0 0 0 0 0 471 492 492 490 494 478 494 493 493 502 492 491 494 491 494 503 493 492 489 506 492 498 504 508 510 495 497 500 498 499 502 507 503 505 506 495 504 504 495 504 510 503 499 505 506 510 509 515 511 507 510 506 514 524 489 531 519 508 520 534 514 517 518 524 550 490 525 514 520 537 521 559 543 509 524 529 508 515 510 532 514 491 498 531 506 494 453 496 0 0 0 0 0 0 0 0 0
0 0 0 0 0 0 0 0 0 0 0 0 0 0 0 0 0 0 0 0 0 0 0 498 492 497 497 492 488 501 498 492 494 498 485 492 493 495 496 495 498 499 499 500 499 497 502 506 493 509 504 503 501 500 506 508 505 504 505 506 500 510 508 504 504 502 505 501 512 521 513 500 499 508 504 517 534 544 541 533 549 550 563 570 540 527 543 548 536 555 557 528 567 531 534 541 556 538 532 549 568 550 588 584 568 552 545 566 506 537 551 552 0 0 0 0 0 0 0 0
0 0 0 0 0 0 0 0 0 0 0 0 0 0 0 0 0 0 0 0 0 0 460 496 493 485 491 496 488 491 487 495 492 489 489 496 490 501 493 499 499 499 493 500 499 497 512 498 506 500 496 498 494 495 509 499 505 501 504 507 507 508 502 503 502 514 502 508 505 503 512 503 500 501 506 505 521 524 563 513 521 562 520 519 530 529 525 515 559 531 549 538 551 561 507 541 551 513 552 526 539 519 529 528 539 538 550 498 507 497 556 571 534 0 0 0 0 0 0 0
0 0 0 0 0 0 0 0 0 0 0 0 0 0 0 0 0 0 0 0 0 0 477 483 482 491 492 485 497 493 484 495 490 487 489 491 486 484 498 486 494 495 497 509 500 503 500 496 509 499 495 493 504 505 503 506 503 511 499 505 506 499 502 507 510 500 508 517 518 501 498 511 513 511 514 500 512 502 513 484 501 527 535 512 523 552 542 514 538 493 516 511 529 502 533 521 507 519 546 499 527 555 545 552 517 536 540 530 546 543 468 526 0 0 0 0 0 0 0 0
0 0 0 0 0 0 0 0 0 0 0 0 0 0 0 0 0 0 0 0 0 0 518 483 492 489 493 489 485 493 492 496 494 485 484 487 491 496 488 500 499 494 501 503 497 504 495 502 500 497 501 504 506 504 504 495 505 504 504 506 506 505 510 496 504 510 511 500 508 499 506 507 513 508 508 506 511 517 531 531 547 538 540 506 560 548 523 554 558 549 528 544 515 538 540 539 538 555 530 525 529 507 557 505 491 544 522 511 580 511 551 568 559 557 0 0 0 0 0 0
0 0 0 0 0 0 0 0 0 0 0 0 0 0 0 0 0 0 0 0 0 0 499 488 487 491 485 493 490 494 491 496 488 490 491 488 490 490 498 491 490 493 496 488 497 493 495 493 496 500 498 498 505 497 500 500 503 504 502 510 511 505 506 511 503 502 509 504 504 505 506 513 496 503 496 510 511 518 519 533 523 521 517 509 513 501 513 512 546 525 534 521 501 538 523 527 525 517 541 524 522 532 545 537 549 509 568 542 500 466 512 520 546 502 0 0 0 0 0 0
0 0 0 0 0 0 0 0 0 0 0 0 0 0 0 0 0 0 0 0 0 0 477 490 489 490 502 493 491 493 488 485 502 480 494 486 493 492 502 499 499 498 504 498 498 497 494 495 495 502 495 498 495 503 498 503 502 508 497 499 507 512 512 499 509 503 498 496 506 501 508 506 511 505 501 503 510 524 510 522 505 528 519 514 533 520 510 550 500 535 515 552 525 515 492 518 532 532 518 516 513 511 533 565 506 561 523 551 538 570 484 524 530 0 0 0 0 0 0 0
0 0 0 0 0 0 0 0 0 0 0 0 0 0 0 0 0 0 0 0 0 0 485 479 492 491 481 486 484 484 492 484 490 489 494 491 498 496 503 497 497 489 494 494 494 494 498 501 501 496 503 497 502 506 500 503 510 503 501 497 503 502 503 505 506 505 503 504 502 508 503 504 504 510 502 504 505 507 527 521 547 524 549 507 561 527 529 516 527 514 510 543 541 518 542 575 492 513 506 520 534 524 495 560 542 566 497 556 554 0 544 555 513 0 0 0 0 0 0 0
0 0 0 0 0 0 0 0 0 0 0 0 0 0 0 0 0 0 0 0 0 406 471 488 488 482 491 489 491 489 483 489 485 490 490 491 494 493 489 503 489 491 489 498 494 495 494 496 494 498 498 499 497 499 496 498 495 504 504 496 504 500 499 507 505 501 508 502 501 509 502 500 502 509 509 501 507 509 515 507 512 504 513 489 495 508 506 523 517 516 502 518 511 508 505 512 481 518 509 501 515 532 487 506 511 553 511 517 494 510 548 0 0 0 0 0 0 0 0 0
0 0 0 0 0 0 0 0 0 0 0 0 0 0 0 0 0 0 0 0 0 458 483 487 488 490 489 483 484 483 487 485 498 485 494 488 486 489 496 493 501 500 499 492 498 499 492 501 498 497 505 501 503 506 502 501 501 506 501 508 505 498 505 499 500 501 506 507 506 507 502 497 499 503 512 505 505 505 548 518 511 525 541 555 510 537 516 541 523 532 538 550 517 528 531 529 533 539 521 507 534 505 532 551 529 557 543 519 491 536 557 520 508 0 0 0 0 0 0 0
0 0 0 0 0 0 0 0 0 0 0 0 0 0 0 0 0 0 0 0 0 439 474 483 479 478 485 486 486 482 485 487 483 485 484 495 486 488 486 494 493 488 492 493 492 489 494 495 495 495 495 496 503 497 494 499 495 502 501 500 504 501 512 502 496 499 509 511 504 503 500 504 505 512 513 499 509 507 509 500 514 515 507 511 508 499 526 513 533 525 519 518 514 491 514 511 515 528 541 507 531 505 487 510 503 515 520 527 492 560 494 511 479 0 0 0 0 0 0 0
0 0 0 0 0 0 0 0 0 0 0 0 0 0 0 0 0 0 0 0 0 444 483 474 484 475 483 479 485 484 475 491 486 486 480 487 486 481 484 489 495 491 490 497 495 492 493 493 494 493 498 499 505 500 494 499 498 495 502 501 492 499 501 503 499 503 502 502 498 508 495 498 512 497 500 503 502 500 513 490 506 490 494 512 509 514 516 499 504 491 513 497 487 500 502 500 501 491 481 529 494 503 489 516 479 509 501 510 495 506 532 477 540 0 0 0 0 0 0 0
0 0 0 0 0 0 0 0 0 0 0 0 0 0 0 0 0 0 0 0 0 467 486 487 483 475 485 483 481 480 484 483 483 495 485 485 487 486 492 491 491 497 489 496 496 495 495 497 495 499 499 499 496 502 497 496 500 498 498 500 499 502 503 498 500 505 506 509 503 510 501 500 509 503 501 498 504 506 509 527 518 513 519 498 523 512 517 503 525 526 524 513 511 509 517 505 518 516 529 489 534 530 547 539 488 539 533 489 513 525 543 462 519 0 0 0 0 0 0 0
0 0 0 0 0 0 0 0 0 0 0 0 0 0 0 0 0 0 0 0 0 459 474 477 478 482 477 481 483 485 482 479 487 488 489 484 488 488 491 493 489 489 491 488 490 492 496 495 495 494 497 495 498 499 491 497 493 496 500 502 497 496 496 503 500 501 502 497 500 497 504 496 503 501 491 502 502 495 506 490 505 483 496 486 529 515 496 481 490 489 523 518 503 514 484 512 503 476 510 506 516 484 491 509 491 491 462 493 524 478 500 481 503 506 0 0 0 0 0 0
0 0 0 0 0 0 0 0 0 0 0 0 0 0 0 0 0 0 0 0 0 450 475 483 479 480 477 479 483 478 489 483 485 485 483 494 487 490 484 488 495 492 493 493 494 489 493 489 489 498 492 497 494 494 494 500 494 498 497 497 499 497 498 497 498 499 499 501 501 501 498 501 503 498 498 503 501 505 501 501 510 511 498 499 510 494 515 516 502 507 521 515 513 477 536 488 518 502 531 519 511 484 496 513 529 504 503 500 511 475 521 504 519 459 0 0 0 0 0 0
0 0 0 0 0 0 0 0 0 0 0 0 0 0 0 0 0 0 0 0 0 464 489 474 473 478 480 486 481 477 481 484 486 482 487 487 486 484 488 496 494 488 490 493 496 498 494 497 492 491 497 494 501 499 495 492 496 496 496 499 499 499 499 499 499 502 499 504 497 497 498 495 500 497 493 502 505 505 514 509 508 490 498 503 508 509 501 528 503 508 507 515 500 501 496 516 512 486 489 515 514 523 523 532 518 518 499 506 510 486 540 484 499 0 0 0 0 0 0 0
0 0 0 0 0 0 0 0 0 0 0 0 0 0 0 0 0 0 0 0 0 457 476 478 474 473 478 478 482 480 477 481 479 482 480 485 488 490 489 491 487 484 488 491 492 492 492 492 495 492 493 497 495 497 497 497 499 496 496 497 494 499 500 500 500 507 497 500 503 500 502 498 497 500 503 491 506 504 505 507 511 492 503 507 484 488 497 499 511 506 500 503 503 492 484 520 499 487 520 486 529 494 508 504 551 518 490 477 498 501 510 488 474 523 0 0 0 0 0 0
0 0 0 0 0 0 0 0 0 0 0 0 0 0 0 0 0 0 0 0 0 472 483 470 475 484 477 480 482 481 478 482 479 482 484 475 486 488 489 488 486 490 490 495 490 488 491 490 487 497 493 496 491 492 503 490 492 501 493 497 497 498 497 497 494 500 500 501 497 503 502 494 497 501 500 493 500 500 510 509 509 511 527 501 518 501 518 536 509 505 504 511 520 510 517 514 501 492 522 494 516 504 489 494 496 496 520 531 537 567 496 502 527 495 0 0 0 0 0 0
0 0 0 0 0 0 0 0 0 0 0 0 0 0 0 0 0 0 0 0 0 472 467 470 478 475 478 478 477 483 481 485 483 488 485 485 486 484 480 490 483 486 494 487 493 489 493 496 487 489 489 495 498 493 496 489 490 497 494 496 494 500 500 502 497 499 495 500 498 499 500 497 498 505 500 500 493 498 490 506 492 496 494 483 497 489 476 520 500 509 484 525 479 490 487 493 502 496 514 494 498 503 517 477 519 490 493 492 475 495 523 511 491 523 0 0 0 0 0 0
0 0 0 0 0 0 0 0 0 0 0 0 0 0 0 0 0 0 0 0 0 0 474 477 478 479 472 480 479 478 480 478 484 480 484 475 485 486 480 487 490 482 490 485 488 492 495 492 495 493 496 498 493 491 492 494 485 494 497 496 494 500 494 498 500 499 496 492 500 496 498 501 499 502 496 496 497 499 500 481 499 497 500 501 485 525 490 496 497 512 494 487 495 502 480 491 477 498 490 518 520 491 494 505 507 497 486 486 497 486 502 465 450 466 0 0 0 0 0 0
0 0 0 0 0 0 0 0 0 0 0 0 0 0 0 0 0 0 0 0 0 0 505 473 467 478 481 481 481 483 478 479 481 490 485 483 480 487 493 486 485 486 487 487 485 487 487 492 494 492 497 496 493 496 496 496 494 494 497 497 499 495 497 500 498 499 497 500 496 495 503 494 503 498 494 499 495 501 506 517 518 503 500 507 516 521 517 515 505 502 503 505 506 524 519 532 503 520 506 479 531 516 501 483 535 516 500 531 504 506 503 477 524 521 0 0 0 0 0 0
0 0 0 0 0 0 0 0 0 0 0 0 0 0 0 0 0 0 0 0 0 0 516 477 468 481 479 475 480 476 476 476 478 487 483 483 482 484 477 487 483 479 490 488 492 492 491 484 490 493 491 497 493 491 493 496 493 494 490 494 494 498 499 495 496 502 500 497 491 499 496 496 495 494 496 495 501 509 507 489 505 497 505 507 510 505 500 508 505 504 520 514 513 496 496 515 504 492 493 519 482 472 504 491 497 503 518 473 495 466 452 498 506 480 456 456 0 0 0 0
0 0 0 0 0 0 0 0 0 0 0 0 0 0 0 0 0 0 0 0 0 0 604 468 473 480 476 473 478 478 478 481 480 483 483 488 487 483 483 486 484 488 483 488 492 489 493 489 496 491 493 495 496 498 492 497 494 492 494 498 496 495 494 494 499 503 503 498 498 492 496 496 494 493 495 496 496 493 497 497 510 499 513 526 520 503 518 491 514 513 494 528 531 503 508 532 518 507 496 497 490 503 501 473 478 492 474 506 459 537 497 496 516 495 509 457 0 0 0 0
0 0 0 0 0 0 0 0 0 0 0 0 0 0 0 0 0 0 0 0 0 0 0 471 476 477 481 483 480 477 477 483 485 483 481 482 478 483 481 480 489 486 485 488 491 483 491 490 492 491 491 491 498 495 494 495 498 499 494 499 495 496 495 499 497 500 494 497 500 494 501 493 500 496 496 498 487 495 496 513 528 512 488 496 500 496 503 506 503 523 505 543 510 534 514 518 521 510 500 531 491 526 506 507 507 490 503 513 482 510 505 500 548 0 0 0 0 0 0 0
0 0 0 0 0 0 0 0 0 0 0 0 0 0 0 0 0 0 0 0 0 0 0 497 475 469 475 474 472 478 474 477 477 479 478 479 480 484 485 484 480 485 493 488 486 488 491 494 494 490 491 490 491 487 500 497 496 486 494 491 493 490 497 489 488 493 493 498 493 496 497 493 497 494 490 492 491 491 483 507 495 492 485 489 493 499 484 479 487 502 505 507 479 517 509 514 496 503 500 501 524 480 505 482 468 495 496 490 486 474 504 483 462 481 0 0 0 0 0 0
0 0 0 0 0 0 0 0 0 0 0 0 0 0 0 0 0 0 0 0 0 0 0 545 475 474 470 476 476 476 480 475 481 482 477 481 481 485 481 488 485 480 488 486 485 489 494 491 494 485 490 494 491 485 496 487 495 494 494 493 492 494 494 496 493 493 498 495 493 500 491 490 498 500 496 492 494 496 505 502 503 506 487 494 498 524 522 501 505 505 488 516 503 505 526 502 516 496 507 488 503 526 498 484 478 475 488 501 460 495 484 527 524 517 0 0 0 0 0 0
0 0 0 0 0 0 0 0 0 0 0 0 0 0 0 0 0 0 0 0 0 0 0 0 467 472 465 475 470 476 479 475 478 479 481 473 477 482 482 484 482 483 481 487 489 488 488 488 495 489 488 490 493 490 489 488 488 494 490 492 490 493 492 491 498 499 496 493 497 488 500 493 498 494 488 493 493 497 494 492 497 492 491 505 518 512 495 522 504 492 494 488 503 498 518 483 497 496 483 512 485 505 512 506 464 461 491 471 480 505 454 476 476 483 500 503 0 0 0 0
0 0 0 0 0 0 0 0 0 0 0 0 0 0 0 0 0 0 0 0 0 0 0 0 478 465 470 471 471 472 475 473 479 478 477 479 481 475 481 479 481 478 476 489 482 487 488 488 489 490 492 492 491 491 492 485 491 492 490 489 494 491 494 492 496 497 498 490 491 489 497 491 493 495 494 493 483 491 491 490 488 487 493 496 506 488 476 489 503 478 506 512 500 473 521 470 479 483 467 503 477 495 491 493 492 459 498 456 475 458 483 483 417 488 455 436 0 0 0 0
0 0 0 0 0 0 0 0 0 0 0 0 0 0 0 0 0 0 0 0 0 0 0 0 0 476 471 474 468 467 469 473 476 475 475 475 477 482 478 482 482 483 481 483 486 485 487 484 483 489 491 490 491 488 487 488 493 484 490 496 494 493 496 491 495 492 489 496 493 498 493 493 497 492 487 492 490 486 495 494 488 489 502 483 488 492 510 489 492 490 490 488 486 497 499 491 512 494 510 490 484 503 485 516 481 475 476 458 501 514 455 509 527 524 0 0 0 0 0 0
0 0 0 0 0 0 0 0 0 0 0 0 0 0 0 0 0 0 0 0 0 0 0 0 0 519 479 466 466 472 470 472 471 473 471 475 476 477 479 479 481 482 477 479 484 485 479 483 484 482 485 484 487 489 491 487 490 488 490 494 489 487 488 490 490 490 492 491 489 491 494 491 493 498 485 488 485 481 497 476 493 487 481 486 483 488 490 477 486 501 497 480 482 503 486 494 483 493 511 466 482 486 515 469 469 466 478 466 469 466 483 452 483 501 450 0 0 0 0 0
0 0 0 0 0 0 0 0 0 0 0 0 0 0 0 0 0 0 0 0 0 0 0 0 0 0 489 471 464 471 470 471 474 472 475 474 481 478 479 476 476 482 477 483 482 486 483 483 485 481 484 487 485 486 488 488 489 489 491 491 485 491 489 490 496 492 491 485 492 494 494 491 489 489 490 486 479 482 492 501 482 503 478 503 497 485 480 474 486 496 494 510 499 501 488 494 497 497 495 497 489 491 490 474 499 486 486 469 459 481 487 496 467 451 0 0 0 0 0 0
0 0 0 0 0 0 0 0 0 0 0 0 0 0 0 0 0 0 0 0 0 0 0 0 0 0 0 470 465 466 473 470 474 469 477 474 475 476 475 476 480 479 478 476 479 485 480 480 489 488 482 485 484 481 484 485 490 488 487 488 489 485 492 488 486 490 488 488 489 489 491 488 489 484 491 485 487 488 508 489 487 508 499 485 486 495 497 500 475 480 487 501 496 499 495 503 503 506 499 505 534 483 516 501 487 496 483 513 502 510 478 463 456 483 520 0 0 0 0 0
0 0 0 0 0 0 0 0 0 0 0 0 0 0 0 0 0 0 0 0 0 0 0 0 0 0 0 473 471 469 471 463 469 471 473 471 473 473 477 473 478 478 475 474 479 478 479 484 480 484 485 483 482 484 482 486 485 486 488 487 490 480 488 490 482 485 487 491 490 486 485 484 487 475 487 481 479 480 492 484 477 488 497 484 482 520 490 475 489 491 482 492 475 481 503 485 480 503 490 466 476 492 503 497 461 465 476 483 459 482 473 453 450 502 0 0 0 0 0 0
0 0 0 0 0 0 0 0 0 0 0 0 0 0 0 0 0 0 0 0 0 0 0 0 0 0 0 0 528 467 466 467 468 472 473 472 470 476 477 475 480 479 483 478 475 483 478 479 480 484 485 482 480 489 483 483 485 487 482 488 490 487 486 487 486 488 486 486 484 490 488 488 475 498 499 485 483 487 494 494 487 498 488 495 484 511 508 491 478 492 495 504 505 489 506 501 498 496 498 485 494 489 499 473 458 485 481 470 496 484 482 534 497 531 505 0 0 0 0 0
0 0 0 0 0 244 230 270 294 0 0 0 0 0 0 0 0 0 0 0 0 2317 0 0 0 0 0 0 0 511 463 467 470 470 466 470 469 471 474 471 472 475 479 476 476 479 480 479 480 476 482 481 480 486 481 484 485 482 481 483 486 486 488 488 484 486 484 478 481 490 485 484 493 487 477 485 478 488 492 479 489 488 473 486 487 505 490 488 482 490 473 481 504 499 488 513 514 475 529 502 470 483 492 477 462 488 518 464 477 451 452 449 494 480 498 0 0 0 0 0
0 0 0 0 239 230 232 234 235 287 379 0 0 0 0 0 0 0 0 0 0 0 0 0 0 0 0 0 0 0 461 464 466 462 467 471 470 469 474 468 475 479 471 472 476 479 478 470 477 477 476 485 481 484 486 483 484 483 482 486 479 482 483 486 481 483 480 485 481 479 474 471 479 488 487 483 484 475 467 484 493 469 489 490 492 486 480 480 471 485 493 476 478 475 479 479 470 461 480 494 484 488 496 485 482 457 454 459 458 473 448 452 448 0 0 0 0 0 0 0
0 0 0 269 227 223 225 226 235 242 349 0 0 0 0 0 0 0 0 0 0 0 0 0 0 0 0 0 0 0 0 475 465 470 465 467 465 472 467 470 473 473 474 473 474 471 474 477 481 482 479 478 480 478 481 478 482 483 480 479 481 485 484 483 480 478 489 477 471 489 472 481 484 494 480 486 492 481 485 476 489 494 493 480 496 494 486 484 485 487 479 497 481 491 499 478 488 487 512 497 502 494 477 501 509 482 462 486 479 492 457 446 489 472 482 0 0 0 0 0
207 219 252 252 249 269 257 230 236 234 307 0 381 407 407 427 409 418 403 417 431 458 432 425 448 443 450 434 449 447 444 460 469 467 460 461 474 471 471 476 467 465 470 466 478 473 473 472 474 478 475 479 472 479 480 478 474 472 483 482 476 480 472 480 479 483 477 478 483 485 474 468 461 478 478 473 473 480 476 466 474 476 473 466 464 473 480 460 475 471 478 473 477 453 475 508 468 464 465 494 472 475 461 460 457 454 437 460 448 438 430 448 448 476 470 0 0 0 0 0
208 199 212 214 266 261 241 233 234 259 424 410 396 405 426 396 399 406 423 411 413 406 410 426 414 432 422 448 443 446 452 463 455 460 450 458 460 469 463 460 462 470 460 464 466 466 467 467 472 472 472 467 471 471 472 466 468 473 468 472 471 472 473 479 470 474 481 476 474 464 467 475 479 463 452 452 463 452 463 461 462 467 445 454 445 449 448 445 457 445 465 475 453 450 458 443 468 456 455 441 452 444 451 463 461 482 429 452 442 463 445 427 475 449 443 452 466 421 0 0
214 205 216 228 233 235 233 229 237 318 402 376 375 378 381 368 377 375 368 383 377 400 395 402 398 405 430 421 430 442 440 447 445 444 443 449 443 448 443 443 443 447 445 444 453 454 453 456 460 457 457 455 458 460 457 464 459 455 461 460 458 465 454 462 464 464 465 458 459 458 460 447 455 450 444 433 438 445 431 427 434 426 422 433 428 434 429 429 438 430 440 431 437 429 438 425 426 423 433 437 436 421 420 432 403 429 423 429 414 422 440 432 421 413 431 432 403 456 408 446
262 289 236 229 228 230 232 232 253 332 327 342 335 331 333 340 345 331 344 360 356 346 374 378 369 386 394 408 410 412 424 417 427 432 431 434 436 428 430 433 431 432 429 431 436 430 436 441 438 438 438 436 440 437 446 447 439 443 442 443 444 442 445 446 437 440 443 436 440 436 439 436 426 430 420 417 415 403 401 389 401 394 392 400 396 405 405 394 393 400 403 392 410 404 393 405 395 399 398 405 389 399 393 392 409 384 399 391 391 390 408 373 382 388 384 389 373 375 379 380
286 312 294 247 235 232 229 253 297 311 309 307 321 299 303 323 323 319 323 334 327 321 340 356 364 373 385 388 408 397 407 403 412 413 408 414 407 406 413 416 417 416 416 415 418 417 419 422 416 418 415 419 424 421 427 421 424 426 417 424 426 427 419 417 422 423 422 422 422 417 419 414 396 404 400 391 379 375 365 365 369 364 369 369 364 368 360 362 367 369 367 362 368 364 373 368 361 376 374 368 360 375 368 380 379 373 376 371 386 357 366 385 365 368 365 373 391 377 349 372
294 271 285 265 248 237 253 291 279 297 273 287 280 287 283 287 281 284 296 289 300 300 305 316 330 350 363 373 367 377 387 389 392 386 383 385 399 390 398 395 394 389 392 389 386 393 397 386 394 385 384 398 401 396 395 386 390 398 400 402 396 401 398 399 393 390 394 395 395 393 390 395 388 381 372 375 361 352 346 338 343 326 331 325 337 330 333 336 330 323 336 335 341 336 341 349 330 324 333 332 337 311 330 338 345 333 340 345 336 328 324 338 349 331 340 302 321 316 331 331
254 249 243 253 247 254 256 248 262 252 260 255 260 261 254 257 255 269 262 267 272 288 285 292 316 312 336 344 343 354 361 370 359 362 363 371 367 369 369 367 370 366 370 374 371 374 366 372 367 376 379 377 378 376 377 377 375 378 376 378 378 374 378 375 369 371 368 374 377 375 371 365 373 358 350 342 335 321 309 302 306 302 305 303 298 302 296 296 288 288 307 302 304 312 311 301 294 289 286 311 306 312 307 301 295 296 310 307 308 295 302 303 319 314 268 294 286 313 319 326
224 228 229 231 238 243 240 237 240 242 240 252 240 256 248 240 253 248 249 259 250 268 280 282 298 292 315 332 328 329 334 331 346 346 342 343 340 341 344 343 350 344 353 348 349 351 349 350 351 346 351 352 349 350 354 350 352 355 357 351 358 345 353 348 348 344 348 352 347 348 348 338 345 329 329 320 307 301 289 292 286 280 281 278 278 278 282 286 271 277 281 285 282 280 276 274 277 274 282 280 288 270 274 274 271 276 265 284 270 285 273 297 292 276 278 273 296 254 255 277
207 210 219 224 234 215 224 221 222 220 228 227 219 232 229 226 228 231 231 237 239 240 254 255 275 280 297 296 307 307 310 314 317 319 313 319 318 323 326 327 315 320 314 317 325 323 325 332 328 326 324 320 330 324 332 321 327 328 330 327 325 326 323 329 326 328 330 323 325 326 320 321 318 308 306 297 289 282 271 272 268 263 262 262 252 257 262 256 260 257 257 256 255 256 252 262 259 253 263 261 259 253 255 266 254 250 254 264 265 266 258 248 265 271 257 274 252 261 248 267
196 204 196 214 212 214 210 213 211 215 207 213 206 214 215 220 216 217 219 228 227 231 249 257 256 267 270 279 283 288 285 293 295 292 296 295 294 300 306 305 296 300 303 305 307 300 301 300 305 309 311 297 305 301 304 303 305 304 304 304 307 309 305 307 308 308 310 307 301 302 297 302 301 289 286 284 272 266 255 251 240 246 251 246 250 248 238 237 236 247 245 245 246 248 243 233 243 236 250 244 245 239 248 238 240 241 243 245 242 242 243 247 256 251 247 250 234 245 252 278
180 203 197 204 197 204 207 201 200 189 206 199 206 191 206 191 210 207 214 214 219 225 236 237 246 246 250 258 266 268 272 267 276 273 278 276 282 283 285 288 280 284 285 288 284 284 287 286 286 282 282 282 281 283 283 284 288 287 286 288 285 287 285 288 286 285 285 287 283 286 283 280 277 275 266 259 253 242 243 242 231 233 227 227 233 225 226 226 231 234 226 232 233 224 230 226 233 221 225 227 227 229 226 231 224 228 225 230 230 239 241 242 255 240 236 252 246 220 232 250
179 172 178 177 186 195 183 200 182 184 184 185 186 185 185 186 184 189 190 192 205 213 217 224 232 230 237 245 251 254 254 255 258 257 262 261 260 264 266 267 265 263 267 266 264 263 269 271 263 264 263 270 268 267 265 269 265 267 265 271 271 266 264 275 273 270 270 265 270 269 263 257 257 259 251 246 242 230 226 219 223 220 221 217 216 221 220 218 209 224 222 216 223 219 215 220 208 208 214 223 222 221 217 217 213 206 213 207 230 218 219 232 219 225 202 218 229 232 213 215
173 171 166 177 173 177 176 175 173 182 184 180 184 181 179 185 180 180 182 184 187 191 204 210 213 219 219 226 227 232 236 239 245 243 241 239 241 249 247 245 247 246 249 250 253 254 244 249 250 248 247 252 248 250 244 249 250 249 250 254 252 251 256 250 244 254 251 250 249 246 243 247 243 243 234 228 225 224 198 200 198 200 188 197 194 197 193 202 190 191 195 195 192 188 190 188 188 187 189 208 190 208 188 191 190 190 189 199 203 205 203 210 212 208 210 197 217 221 200 215
170 169 175 177 171 178 173 171 177 178 180 175 176 178 178 178 176 177 187 186 184 187 186 188 206 210 210 214 214 225 230 222 225 229 228 224 231 233 225 228 229 227 237 234 236 234 229 231 234 231 236 234 238 233 234 232 236 236 241 240 233 241 237 231 235 235 236 232 234 233 233 232 227 226 215 214 212 197 188 188 192 192 196 192 189 195 195 195 184 188 192 190 190 189 185 192 191 190 188 189 187 180 187 178 183 181 185 180 176 183 182 199 179 184 196 198 206 196 191 195
170 166 170 169 172 164 174 168 165 164 168 167 169 171 171 173 176 173 179 180 177 183 190 191 184 187 188 190 207 213 210 212 210 211 214 215 214 215 214 196 214 218 218 217 221 223 218 221 225 223 219 224 218 214 222 221 219 223 221 221 221 224 224 216 222 219 222 220 218 218 223 215 215 210 193 193 188 197 189 191 186 182 188 185 189 183 186 183 185 182 182 181 183 181 180 183 183 182 180 183 185 186 182 186 179 182 181 178 179 184 181 179 175 168 195 170 173 194 176 204
153 159 160 162 159 164 162 162 168 165 158 158 161 157 159 162 163 170 168 172 175 176 183 182 183 189 182 184 192 187 195 188 195 185 183 189 186 184 189 194 193 191 193 193 198 199 194 193 193 195 196 196 194 200 197 193 193 191 195 197 216 197 197 194 197 192 196 196 196 196 197 195 193 192 191 198 194 190 184 178 179 181 179 177 173 173 178 177 178 175 176 179 176 170 173 171 171 165 168 174 171 170 171 169 175 174 170 168 167 174 173 176 173 176 171 174 174 176 166 189
147 151 152 155 157 158 154 157 155 156 159 158 155 154 158 157 158 162 157 170 168 169 177 173 181 180 182 183 184 184 188 189 189 190 190 188 190 191 193 191 195 196 195 199 195 194 197 200 198 195 193 188 196 195 199 197 198 198 196 197 201 197 200 199 194 196 193 200 197 196 194 196 193 195 190 182 182 183 180 173 170 169 168 165 168 170 169 168 171 169 169 170 172 167 171 165 165 165 165 170 172 169 172 168 165 156 162 163 162 166 173 166 170 169 175 171 158 163 176 162
146 142 147 147 145 154 149 150 150 153 149 148 150 151 148 149 153 152 156 158 158 168 167 178 170 174 175 175 175 178 176 179 183 182 177 183 184 180 182 183 183 183 187 187 181 185 186 187 188 186 186 192 188 186 188 186 188 191 0 189 189 189 186 186 189 189 193 185 190 184 183 184 183 180 177 177 175 177 173 168 160 162 163 162 160 165 162 164 165 162 160 163 164 161 164 164 160 162 166 164 159 162 164 157 159 161 155 157 167 158 153 166 166 163 166 169 164 170 168 172
133 140 137 140 142 148 148 144 145 150 143 145 142 146 142 146 145 147 148 149 158 156 162 164 168 167 170 168 167 172 171 173 175 174 170 174 175 171 174 179 175 181 174 178 175 177 177 178 176 179 182 178 179 179 180 179 180 0 0 177 178 177 180 182 180 178 178 180 181 175 174 177 173 175 172 169 172 165 163 160 160 156 154 156 156 158 157 152 155 156 152 159 160 155 152 154 152 153 155 153 153 155 150 155 157 144 147 154 160 155 142 151 148 152 148 153 156 159 160 150
137 135 131 137 144 144 148 143 141 140 141 139 140 143 143 140 139 149 148 147 149 155 157 160 158 162 159 159 164 165 165 165 167 166 162 166 165 169 168 168 176 0 171 170 173 175 172 174 172 174 174 173 173 175 176 0 172 172 0 0 175 0 0 173 173 170 173 168 173 167 168 166 173 169 166 165 165 159 158 152 150 157 154 152 155 152 150 149 150 156 146 152 151 152 147 146 153 150 155 149 149 147 141 150 145 144 144 146 151 146 151 145 152 160 155 147 145 156 158 160
128 123 129 125 133 134 144 140 136 130 134 133 132 132 139 134 135 136 141 141 142 144 151 151 149 159 156 155 156 161 160 158 157 161 158 156 162 159 0 0 0 0 0 0 0 0 0 166 166 165 167 166 168 165 0 0 168 172 0 0 0 0 0 0 169 166 167 0 164 164 163 162 163 161 155 158 155 159 150 152 150 147 149 148 143 149 141 147 145 146 142 145 144 145 140 140 142 152 143 142 137 138 140 141 136 139 139 137 137 145 140 145 145 147 149 138 133 139 135 138
115 129 127 124 127 135 134 131 138 132 126 133 127 129 125 128 122 136 138 137 139 140 148 151 151 150 154 153 153 154 153 154 157 160 154 152 153 0 0 0 0 0 0 0 0 0 0 0 0 158 161 163 0 0 0 0 0 0 0 0 0 0 0 0 161 0 0 0 0 0 0 159 159 157 155 150 151 152 152 145 143 140 147 142 139 145 144 137 146 142 138 143 137 140 131 138 144 141 140 138 138 135 139 132 132 132 138 140 138 140 134 143 142 136 132 141 141 127 131 154
116 104 119 128 130 126 128 129 129 129 131 120 123 121 119 123 125 133 130 134 128 126 136 147 142 141 145 145 145 151 149 147 152 150 151 150 0 0 0 0 0 0 0 0 0 0 0 0 154 154 159 0 0 0 0 0 0 0 0 0 0 0 0 0 0 0 0 0 0 0 0 0 148 151 148 147 147 144 144 143 129 141 128 139 126 129 136 137 129 137 140 131 132 128 119 131 142 141 134 135 129 137 132 131 128 134 133 125 133 136 136 137 133 140 148 139 136 132 104 132
103 109 113 112 110 116 121 120 116 119 115 114 118 116 127 124 123 122 127 116 123 123 129 123 137 139 140 141 144 144 142 145 145 143 145 143 0 0 0 0 0 0 0 0 0 0 0 0 0 0 0 0 0 0 0 0 0 0 0 0 0 0 0 0 0 0 0 0 0 0 0 0 0 142 143 139 138 133 127 129 128 119 121 124 128 121 122 126 120 128 128 127 114 126 125 134 123 133 122 118 120 129 131 119 120 119 116 122 129 133 130 137 118 134 109 137 112 102 111 130
110 108 113 118 114 113 114 125 120 117 115 118 119 116 120 121 119 130 122 114 119 115 122 118 131 136 138 130 0 141 0 0 0 140 140 0 0 0 0 0 0 0 0 0 0 0 0 0 0 0 0 0 0 0 0 0 0 0 0 0 0 0 0 0 0 0 0 0 0 0 0 0 0 143 123 126 125 124 117 122 123 118 121 127 118 123 118 120 117 117 118 127 116 117 113 123 118 122 118 121 120 121 130 118 131 114 126 122 106 120 119 125 126 122 127 118 114 138 144 129
103 99 107 111 104 104 107 107 102 103 109 105 103 105 109 110 106 112 120 113 113 116 112 116 120 121 123 120 122 135 0 0 0 0 128 0 0 0 0 0 0 0 0 0 0 0 0 0 0 0 0 0 0 0 0 0 0 0 0 0 0 0 0 0 0 0 0 0 0 0 0 0 130 0 0 127 120 121 119 118 118 114 111 115 111 117 110 116 111 115 114 116 109 109 110 110 112 115 115 111 116 110 116 116 114 113 108 109 127 100 110 114 99 118 111 101 110 135 114 144
99 102 93 97 102 100 105 101 104 105 102 105 104 106 107 109 105 108 116 104 112 111 104 109 115 112 114 119 119 119 0 126 0 0 0 0 0 0 0 0 0 0 0 0 0 0 0 0 0 0 0 0 0 0 0 0 0 0 0 0 0 0 0 0 0 0 0 0 0 0 0 0 0 122 0 116 122 114 114 109 115 111 109 102 112 109 110 119 105 111 114 114 112 110 107 115 103 109 102 118 112 109 109 108 111 115 110 111 119 113 104 99 116 103 113 121 127 107 105 135
96 103 96 102 99 96 104 93 95 99 100 97 101 95 99 93 107 103 113 115 111 107 99 110 114 107 113 114 113 121 119 118 123 0 0 0 0 0 0 0 0 0 0 0 0 0 0 0 0 0 0 0 0 0 0 0 0 0 0 0 0 0 0 0 0 0 0 0 0 0 0 0 123 122 110 121 113 120 117 120 104 110 101 115 112 108 103 105 102 105 106 107 113 95 98 105 107 104 115 103 105 112 113 105 105 107 110 88 98 104 103 104 106 98 107 100 138 136 131 113
86 85 82 87 84 85 80 94 89 85 90 93 96 94 94 88 77 95 93 91 92 90 100 110 100 103 116 106 0 0 107 107 120 0 0 0 0 0 0 0 0 0 0 0 0 0 0 0 0 0 0 0 0 0 0 0 0 0 0 0 0 0 0 0 0 0 0 0 0 0 0 116 110 110 107 112 107 105 104 103 101 104 99 95 103 95 88 102 105 101 95 98 102 84 86 98 95 103 90 98 90 96 92 89 82 90 93 96 92 90 79 76 76 92 98 103 119 100 124 114
95 89 91 92 99 95 96 107 94 98 97 96 93 91 95 94 95 93 103 99 98 105 108 104 98 104 111 108 0 104 111 109 117 113 123 106 115 0 112 0 0 117 0 0 0 0 0 0 0 0 0 0 0 0 0 0 0 0 0 0 117 0 0 0 114 0 0 0 110 0 109 109 115 115 115 107 107 112 99 98 111 108 105 91 95 102 104 104 104 102 107 107 109 99 103 102 101 93 100 110 102 98 96 101 94 104 101 87 91 92 95 96 93 100 105 110 97 127 121 135
86 93 92 92 96 99 89 89 87 99 86 90 89 94 89 85 97 101 98 95 96 96 98 111 92 105 104 100 105 108 92 0 106 105 98 104 0 113 114 0 106 0 0 0 0 0 0 0 0 0 0 0 0 0 0 0 0 111 0 0 107 105 106 114 115 108 104 101 113 107 108 101 105 103 112 108 100 94 102 96 98 95 101 86 93 88 96 103 108 94 97 102 109 86 85 85 91 94 95 89 93 93 91 97 93 89 98 91 96 85 98 90 81 99 104 93 139 121 128 99
83 84 85 88 88 93 102 90 90 83 88 89 86 93 89 90 90 86 89 88 79 92 99 87 86 94 92 92 104 91 96 98 96 95 94 112 99 104 103 104 105 96 102 109 109 90 0 0 94 0 0 107 108 94 102 110 106 103 107 107 99 105 111 101 100 114 104 94 100 107 100 104 106 101 108 97 95 98 97 92 97 93 91 95 97 97 90 95 93 95 102 89 96 95 91 90 95 94 92 84 89 86 92 93 94 81 98 87 82 96 90 96 100 110 91 102 88 87 114 141
85 80 88 85 86 83 100 104 92 85 90 82 83 90 84 93 90 94 92 100 85 98 94 94 93 96 95 91 96 101 94 85 98 96 98 96 96 98 95 108 106 93 100 104 100 97 103 0 105 99 98 107 100 97 103 104 101 106 99 105 108 95 94 107 101 101 96 103 99 106 99 106 103 96 106 85 97 94 99 86 97 96 85 91 97 97 88 86 93 91 88 97 91 92 92 81 94 94 102 93 83 98 86 88 84 102 94 98 90 89 91 93 111 92 109 120 127 115 117 91
82 73 70 71 80 83 87 90 89 84 87 83 88 80 91 85 89 87 86 86 94 84 85 88 88 84 94 94 95 93 91 91 81 94 93 94 94 85 91 97 90 89 84 90 97 92 94 102 96 91 93 85 97 90 92 86 104 90 99 99 95 81 81 95 95 98 99 92 96 98 94 86 97 91 98 96 97 94 97 93 88 93 85 89 85 94 88 87 84 89 93 81 90 81 88 87 82 80 80 87 84 86 82 71 82 82 86 87 80 84 86 81 84 93 91 92 120 88 130 71
72 73 83 87 72 84 82 87 84 84 84 90 79 84 87 91 85 88 84 89 82 93 86 94 86 84 92 85 87 89 87 94 91 98 86 95 87 94 97 97 94 81 95 94 89 99 91 88 102 89 94 98 97 86 100 95 92 84 91 96 96 86 88 94 88 97 91 97 105 94 96 93 86 84 96 95 96 83 85 97 91 90 87 87 76 86 90 80 92 93 80 93 81 80 90 78 94 86 83 83 84 80 80 81 76 84 86 83 86 88 85 82 86 89 85 87 84 109 133 217
