0 0 0 0 0 0 0 0 0 0 0 0 0 0 0 0 0 0 0 0 0 0 0 0 0 0 0 0 0 0 0 0 0 0 0 0 0 0 0 0 0 0 0 0 0 0 0 0 0 0 0 0 0 0 0 0 0 0 0 0 0 0 0 0 0 0 0 0 0 0 0 0 0 0 0 0 0 0 0 0 0 0 0 0 0 0 0 0 0 0 0 0 0 0 0 0 0 0 0 0 0 0 0 0 0 0 0 0 0 0 0 0 0 0 0 0 0 0 0 0
0 0 0 0 0 0 0 0 0 0 0 0 0 0 0 0 0 0 0 0 0 0 0 0 0 0 0 0 0 0 0 0 0 0 0 0 0 0 0 0 0 0 0 0 0 0 0 0 0 0 0 0 0 0 0 0 0 0 0 0 0 0 0 0 0 0 0 0 0 0 0 0 0 0 0 0 0 0 0 0 0 0 0 0 0 0 0 0 0 0 0 0 0 0 0 0 0 0 0 0 0 0 0 0 0 0 0 0 0 0 0 0 0 0 0 0 0 0 0 0
0 0 0 0 0 0 0 0 0 0 0 0 0 0 0 0 0 0 0 0 0 0 0 0 0 0 0 0 0 0 0 0 0 0 0 0 0 0 0 0 0 0 0 0 0 0 0 0 0 0 0 0 0 0 0 0 0 0 0 0 0 0 0 0 0 0 0 0 0 0 0 0 0 0 0 0 0 0 0 0 0 0 0 0 0 0 0 0 0 0 0 0 0 0 0 0 0 0 0 0 0 0 0 0 0 0 0 0 0 0 0 0 0 0 0 0 0 0 0 0
0 0 0 0 0 0 0 0 0 0 0 0 0 0 0 0 0 0 0 0 0 0 0 0 0 0 0 0 0 0 0 0 0 0 0 0 0 0 0 0 0 0 0 0 0 0 0 0 0 0 0 0 0 0 0 0 0 0 0 0 0 0 0 0 0 0 0 0 0 0 0 0 0 0 0 0 0 0 0 0 0 0 0 0 0 0 0 0 0 0 0 0 0 0 0 0 0 0 0 0 0 0 0 0 0 0 0 0 0 0 0 0 0 0 0 0 0 0 0 0
0 0 0 0 0 0 0 0 0 0 0 0 0 0 0 0 0 0 0 0 0 0 0 0 0 0 0 0 0 0 0 0 0 0 0 0 0 0 0 0 0 0 0 0 0 0 0 0 0 0 0 0 0 0 0 0 0 0 0 0 0 0 0 0 0 0 0 0 0 0 0 0 0 0 0 0 0 0 0 0 0 0 0 0 0 0 0 0 0 0 0 0 0 0 0 0 0 0 0 0 0 0 0 0 0 0 0 0 0 0 0 0 0 0 0 0 0 0 0 0
0 0 0 0 0 0 0 0 0 0 0 0 0 0 0 0 0 0 0 0 0 0 0 0 0 0 0 0 0 0 0 0 0 0 0 0 0 0 0 502 499 528 495 495 509 507 515 491 513 520 520 511 471 490 502 0 0 0 0 0 0 0 0 0 0 0 0 0 0 0 0 0 0 0 0 0 0 0 0 0 0 0 0 0 0 0 0 0 0 0 0 0 0 0 0 0 0 0 0 0 0 0 0 0 0 0 0 0 0 0 0 0 0 0 0 0 0 0 0 0
0 0 0 0 0 0 0 0 0 0 0 0 0 0 0 0 0 0 0 0 0 0 0 0 0 0 0 0 0 0 0 0 0 0 0 0 0 539 501 519 505 500 509 502 505 522 503 512 504 532 492 514 505 513 527 515 501 517 532 525 0 0 0 0 0 0 0 0 0 0 0 0 0 0 0 0 0 0 0 0 0 0 0 0 0 0 0 0 0 0 0 0 0 0 0 0 0 0 0 0 0 0 0 0 0 0 0 0 0 0 0 0 0 0 0 0 0 0 0 0
0 0 0 0 0 0 0 0 0 0 0 0 0 0 0 0 0 0 0 0 0 0 0 0 0 0 0 0 0 0 0 0 0 0 0 525 505 506 496 499 498 511 504 510 478 509 495 512 507 504 505 507 511 507 515 530 508 500 509 510 497 512 503 509 520 0 0 0 0 0 0 0 0 0 0 0 0 0 0 0 0 0 0 0 0 0 0 0 0 0 0 0 0 0 0 0 0 0 0 0 0 0 0 0 0 0 0 0 0 0 0 0 0 0 0 0 0 0 0 0
0 0 0 0 0 0 0 0 0 0 0 0 0 0 0 0 0 0 0 0 0 0 0 0 0 0 0 0 0 0 0 0 0 510 507 515 512 514 499 511 512 518 505 516 500 509 506 500 504 518 498 505 510 503 500 508 517 513 516 513 510 516 513 518 521 496 516 553 562 617 593 595 599 588 600 557 604 657 600 650 0 0 0 0 0 0 0 0 0 0 0 0 0 0 0 0 0 0 0 0 0 0 0 0 0 0 0 0 0 0 0 0 0 0 0 0 0 0 0 0
0 0 0 0 0 0 0 0 0 0 0 0 0 0 0 0 0 0 0 0 0 0 0 0 0 0 0 0 0 0 0 546 528 503 491 492 498 497 510 489 500 495 501 497 495 514 511 510 510 505 506 497 522 497 497 513 511 497 504 515 512 502 513 510 512 513 505 528 530 563 588 558 563 566 600 561 564 624 587 565 591 559 594 594 0 613 0 583 592 587 593 575 587 565 569 594 601 582 593 553 0 573 562 563 0 0 0 0 0 0 0 0 0 0 0 0 0 0 0 0
0 0 0 0 0 0 0 0 0 0 0 0 0 0 0 0 0 0 0 0 0 0 0 0 0 0 0 0 0 0 495 501 518 494 498 497 508 496 499 511 503 501 499 498 501 505 504 506 498 497 502 508 508 507 508 509 505 491 497 509 511 506 508 502 497 509 507 504 504 506 523 526 534 538 566 569 567 567 575 579 563 540 589 503 551 566 582 502 559 582 543 545 561 562 582 617 531 558 573 574 597 512 574 506 563 540 542 520 558 0 0 0 0 0 0 0 0 0 0 0
0 0 0 0 0 0 0 0 0 0 0 0 0 0 0 0 0 0 0 0 0 0 0 0 0 0 0 0 500 501 515 500 499 491 504 501 506 492 499 499 507 504 505 500 512 515 499 500 491 504 497 510 507 507 492 513 514 510 500 507 511 501 513 508 513 507 511 499 517 515 515 544 576 553 560 556 566 549 578 578 582 594 607 609 574 624 584 603 539 575 556 584 614 567 555 588 612 523 559 573 580 583 593 565 531 543 575 571 557 0 0 0 0 0 0 0 0 0 0 0
0 0 0 0 0 0 0 0 0 0 0 0 0 0 0 0 0 0 0 0 0 0 0 0 0 0 0 466 494 494 501 492 489 502 491 495 495 505 498 502 500 498 498 505 502 498 497 504 496 509 508 498 509 498 505 507 507 496 504 518 508 507 505 502 501 496 505 502 510 512 512 498 538 539 522 526 543 550 547 532 520 546 566 568 545 575 584 573 541 512 558 536 554 489 543 558 548 572 540 529 544 523 546 566 547 521 534 507 526 0 0 0 0 0 0 0 0 0 0 0
0 0 0 0 0 0 0 0 0 0 0 0 0 0 0 0 0 0 0 0 0 0 0 0 0 0 490 492 489 496 501 496 499 489 502 496 494 499 493 499 494 508 511 501 503 505 506 499 509 504 513 505 504 505 508 506 501 511 506 511 507 515 513 497 504 511 509 501 510 503 509 504 523 538 529 556 554 550 509 531 550 541 556 555 570 551 546 544 552 516 553 545 575 543 565 546 555 555 529 566 527 509 515 555 529 557 570 490 570 0 0 0 0 0 0 0 0 0 0 0
0 0 0 0 0 0 0 0 0 0 0 0 0 0 0 0 0 0 0 0 0 0 0 0 0 505 493 492 512 505 502 501 504 491 489 495 504 497 510 498 506 497 500 513 501 498 505 502 502 508 498 505 503 498 505 503 500 512 505 502 505 511 508 515 511 502 511 502 508 513 507 504 506 538 561 576 544 561 583 552 542 564 566 562 558 564 585 572 577 533 548 581 556 567 561 536 549 578 571 562 571 586 587 586 559 532 560 553 556 601 562 0 0 0 0 0 0 0 0 0
0 0 0 0 0 0 0 0 0 0 0 0 0 0 0 0 0 0 0 0 0 0 0 0 0 480 489 496 496 488 494 500 492 500 481 500 496 491 489 500 504 495 500 497 496 507 512 502 496 491 503 504 506 506 502 499 502 498 502 510 511 500 504 508 503 503 522 506 504 510 506 514 501 504 524 508 508 590 519 562 546 537 552 549 525 572 523 511 546 548 551 533 529 536 586 544 540 541 524 500 578 509 516 540 506 550 522 545 558 551 0 0 508 508 0 0 0 0 0 0
0 0 0 0 0 0 0 0 0 0 0 0 0 0 0 0 0 0 0 0 0 0 0 0 485 498 498 499 497 501 503 494 506 499 499 498 499 493 507 499 495 497 491 509 499 503 512 504 496 505 498 507 503 508 507 508 501 495 499 510 508 502 506 508 509 511 510 505 507 506 505 511 513 511 514 525 553 539 547 539 544 547 582 568 544 561 538 554 569 553 576 564 571 538 569 540 541 559 531 577 538 553 550 559 514 550 527 582 579 573 544 0 0 0 0 0 0 0 0 0
0 0 0 0 0 0 0 0 0 0 0 0 0 0 0 0 0 0 0 0 0 0 0 0 481 486 493 487 485 495 499 494 496 488 485 499 501 492 496 504 504 499 500 504 496 500 499 496 496 498 503 503 502 503 503 507 508 506 501 495 504 503 509 508 502 517 508 507 509 512 504 515 509 510 505 534 552 536 523 536 530 563 569 525 532 570 554 548 542 508 549 542 560 553 526 545 568 580 548 558 515 560 527 534 544 575 553 566 514 543 0 0 0 0 0 0 0 0 0 0
0 0 0 0 0 0 0 0 0 0 0 0 0 0 0 0 0 0 0 0 0 0 0 470 503 501 480 488 482 491 492 493 496 497 494 497 499 498 496 498 495 495 500 490 499 506 502 506 499 496 500 501 508 497 508 499 506 507 497 501 510 502 505 506 501 502 510 511 503 505 508 500 503 506 506 504 484 521 538 537 506 524 562 512 542 511 520 528 536 519 529 543 539 529 544 525 509 505 523 499 488 540 543 534 516 553 495 540 545 549 447 0 0 0 0 0 0 0 0 0
0 0 0 0 0 0 0 0 0 0 0 0 0 0 0 0 0 0 0 0 0 0 0 497 493 492 487 499 490 493 495 488 487 496 485 495 478 488 493 497 491 489 499 493 504 497 502 499 498 504 501 500 489 502 498 503 510 514 505 498 501 504 500 505 504 502 501 496 504 511 505 509 503 501 507 514 522 538 551 527 518 505 521 555 529 528 530 533 540 530 552 536 497 546 543 569 535 536 567 529 524 570 553 532 573 542 529 554 539 545 523 0 0 0 0 0 0 0 0 0
0 0 0 0 0 0 0 0 0 0 0 0 0 0 0 0 0 0 0 0 0 0 440 484 487 494 491 498 481 489 486 499 496 495 487 499 489 485 485 492 496 492 488 497 495 498 499 493 504 491 497 505 494 498 500 504 503 496 502 501 501 505 501 500 498 499 501 506 498 502 504 515 506 501 507 502 511 500 521 528 524 525 493 536 512 499 486 487 509 533 542 496 545 537 515 516 496 522 529 511 511 534 462 523 540 516 547 487 474 442 544 0 537 0 0 0 0 0 0 0
0 0 0 0 0 0 0 0 0 0 0 0 0 0 0 0 0 0 0 0 0 0 472 482 486 486 488 481 494 493 489 490 483 492 499 492 492 492 493 488 498 498 492 499 499 497 507 499 499 486 499 499 499 504 502 506 508 501 507 512 505 504 499 508 497 508 501 511 508 500 503 502 507 508 504 513 505 510 524 517 519 514 552 509 532 531 508 557 519 502 521 541 533 539 525 535 518 508 564 512 504 531 534 537 546 540 523 534 550 493 543 529 0 0 0 0 0 0 0 0
0 0 0 0 0 0 0 0 0 0 0 0 0 0 0 0 0 0 0 0 0 0 506 477 496 474 492 489 492 489 492 490 488 483 483 495 484 498 492 499 493 502 499 494 499 490 501 497 496 499 500 506 498 503 502 497 508 508 502 509 506 499 503 505 501 512 511 502 502 508 508 501 512 503 508 505 507 539 539 555 561 550 543 509 518 527 551 521 561 561 558 525 534 532 534 543 541 547 557 537 518 514 562 551 511 544 537 515 531 545 565 555 554 0 0 0 0 0 0 0
0 0 0 0 0 0 0 0 0 0 0 0 0 0 0 0 0 0 0 0 0 0 487 485 497 483 492 488 485 489 497 491 493 493 485 488 478 492 502 497 494 499 497 493 493 498 495 493 491 506 497 506 495 499 501 495 497 500 502 497 500 506 509 495 505 503 512 500 491 506 515 506 508 503 505 513 501 531 518 507 501 509 517 534 512 517 516 499 519 551 489 544 482 504 514 497 506 514 546 546 509 504 533 516 536 473 513 543 563 501 529 528 499 0 0 0 0 0 0 0
0 0 0 0 0 0 0 0 0 0 0 0 0 0 0 0 0 0 0 0 0 0 492 477 480 495 491 486 492 494 493 489 488 482 498 489 487 492 494 492 499 492 503 495 497 499 488 497 501 504 499 501 500 503 500 509 504 497 504 498 504 502 504 512 510 499 499 499 498 501 504 504 505 503 513 505 512 531 521 539 525 540 526 565 556 521 546 513 542 512 520 504 514 549 563 528 516 535 533 533 534 536 541 523 545 557 528 564 559 552 519 529 550 0 0 0 0 0 0 0
0 0 0 0 0 0 0 0 0 0 0 0 0 0 0 0 0 0 0 0 0 0 476 479 487 486 492 484 480 484 496 481 485 484 490 479 482 486 498 494 491 487 494 496 491 494 490 498 501 501 494 500 503 497 499 507 498 504 501 497 509 501 502 499 501 497 500 505 500 500 497 500 507 501 500 500 507 521 528 520 522 510 524 514 512 519 515 532 501 509 493 527 526 528 540 487 525 550 516 525 514 505 514 489 505 534 513 494 0 551 517 539 577 0 0 0 0 0 0 0
0 0 0 0 0 0 0 0 0 0 0 0 0 0 0 0 0 0 0 0 0 422 480 486 480 483 494 491 492 485 476 488 482 485 483 479 499 492 487 495 489 492 489 491 493 501 496 498 498 496 501 499 496 499 505 495 499 499 503 495 500 498 506 501 497 495 506 501 501 506 510 506 498 501 500 512 511 509 519 499 520 498 500 506 495 500 507 498 526 520 502 500 511 490 513 519 524 520 504 556 515 484 498 535 519 498 519 516 496 505 495 0 0 0 0 0 0 0 0 0
0 0 0 0 0 0 0 0 0 0 0 0 0 0 0 0 0 0 0 0 0 447 473 487 490 489 486 476 488 485 487 483 495 487 488 497 497 489 489 491 493 493 489 490 495 493 492 499 497 495 495 496 496 502 502 500 508 499 509 499 501 497 505 494 504 503 500 501 502 503 507 503 502 505 507 505 499 508 524 504 498 496 525 539 535 529 503 504 497 534 514 527 516 529 541 484 535 530 511 523 522 501 529 513 468 518 502 510 494 537 527 523 517 0 0 0 0 0 0 0
0 0 0 0 0 0 0 0 0 0 0 0 0 0 0 0 0 0 0 0 0 429 485 484 481 476 482 474 480 480 481 492 488 486 482 488 486 489 485 487 488 495 485 490 487 495 493 497 493 494 492 493 496 493 498 506 494 500 502 495 501 502 498 505 498 500 506 507 505 501 502 504 503 500 504 494 495 500 492 519 521 521 517 504 509 503 510 506 506 517 505 497 476 518 513 512 462 487 533 498 510 488 529 537 514 509 525 496 552 458 509 485 459 0 0 0 0 0 0 0
0 0 0 0 0 0 0 0 0 0 0 0 0 0 0 0 0 0 0 0 0 450 476 486 487 474 486 475 489 485 478 490 481 485 487 485 489 488 491 495 492 494 494 493 489 495 493 497 495 489 497 495 503 499 505 500 499 507 507 496 499 506 497 505 500 503 504 500 500 502 502 499 506 503 504 498 499 509 518 503 518 508 490 499 489 494 518 501 528 523 505 515 495 544 523 524 535 514 523 509 512 514 535 508 535 523 482 508 468 526 533 498 544 475 0 0 0 0 0 0
0 0 0 0 0 0 0 0 0 0 0 0 0 0 0 0 0 0 0 0 0 466 480 479 489 483 477 482 480 484 488 485 486 487 485 485 489 490 485 489 491 488 490 495 494 492 492 489 490 490 494 504 496 493 500 500 495 501 496 493 498 498 496 497 498 509 499 503 505 503 499 508 499 499 499 503 498 504 503 504 495 514 516 513 516 496 509 542 494 518 482 486 537 522 528 523 534 512 529 516 555 550 511 518 537 527 537 516 503 534 503 500 0 0 0 0 0 0 0 0
0 0 0 0 0 0 0 0 0 0 0 0 0 0 0 0 0 0 0 0 0 448 472 481 482 485 481 476 479 480 482 485 481 481 489 482 489 488 488 486 487 486 497 487 488 487 495 493 493 498 490 492 491 497 498 495 492 496 498 502 496 499 498 503 500 496 502 504 502 499 499 502 507 505 497 497 507 493 491 492 502 518 499 512 510 510 497 517 505 504 498 503 520 516 506 489 502 510 515 503 526 484 462 518 503 460 484 474 508 543 530 522 487 482 0 0 0 0 0 0
0 0 0 0 0 0 0 0 0 0 0 0 0 0 0 0 0 0 0 0 0 467 472 481 477 476 478 488 484 483 490 482 487 484 492 488 489 487 487 489 493 484 489 489 496 495 491 494 491 497 497 493 493 500 494 498 493 501 504 502 499 499 503 500 501 500 496 501 507 509 505 506 507 498 503 508 502 502 524 515 534 526 519 512 509 535 526 509 508 510 529 546 528 536 516 550 533 540 526 574 546 542 516 515 534 515 538 501 514 544 541 537 505 530 0 0 0 0 0 0
0 0 0 0 0 0 0 0 0 0 0 0 0 0 0 0 0 0 0 0 0 472 479 470 481 481 483 478 470 483 476 481 483 482 486 486 484 486 480 491 482 488 487 493 485 488 484 491 489 490 490 493 495 492 494 497 494 495 493 498 496 495 499 497 501 501 500 499 500 497 499 497 491 499 500 504 497 494 497 497 493 494 488 501 508 492 524 515 503 515 508 485 493 486 486 507 499 519 504 487 500 511 493 496 510 512 522 513 526 461 532 489 536 0 0 0 0 0 0 0
0 0 0 0 0 0 0 0 0 0 0 0 0 0 0 0 0 0 0 0 0 452 481 477 473 479 470 475 477 488 481 489 485 480 479 479 484 485 489 484 484 484 487 490 489 492 491 493 494 493 491 491 493 494 496 490 495 496 492 494 500 496 495 495 505 503 499 501 499 495 498 497 493 499 500 496 503 511 497 504 503 488 522 495 480 485 494 515 500 502 497 504 509 478 469 513 480 473 500 522 464 509 520 498 537 519 519 464 478 506 474 497 425 522 0 0 0 0 0 0
0 0 0 0 0 0 0 0 0 0 0 0 0 0 0 0 0 0 0 0 0 450 475 471 479 475 470 479 477 480 477 481 477 479 487 478 482 482 486 483 487 491 483 490 490 494 485 490 491 495 492 496 494 492 498 502 495 496 502 499 497 501 497 499 499 499 504 500 500 500 499 498 495 496 495 497 498 504 498 502 519 495 536 504 522 501 509 495 510 482 522 503 498 518 480 505 518 501 493 501 500 495 514 503 488 466 522 479 517 528 538 506 511 496 0 0 0 0 0 0
0 0 0 0 0 0 0 0 0 0 0 0 0 0 0 0 0 0 0 0 0 455 477 471 476 471 478 475 479 478 474 484 480 482 480 480 485 479 479 487 481 485 488 486 486 491 495 492 489 496 491 493 492 493 492 490 488 493 488 488 494 501 499 499 496 494 498 496 493 497 498 495 496 496 496 497 497 496 508 490 509 478 486 501 490 487 489 501 466 499 486 501 471 494 475 491 488 509 491 518 483 523 505 486 507 492 488 474 481 459 464 464 536 484 0 0 0 0 0 0
0 0 0 0 0 0 0 0 0 0 0 0 0 0 0 0 0 0 0 0 0 0 467 476 478 478 472 477 482 479 478 477 490 480 479 479 481 483 484 488 487 481 484 488 488 492 493 490 490 496 491 496 493 497 492 490 486 497 492 495 498 498 497 501 498 499 498 495 491 494 497 499 496 493 496 495 496 491 492 492 498 490 500 487 499 511 509 506 505 504 497 513 507 500 505 498 498 511 506 498 506 487 502 503 502 501 510 491 510 507 479 530 462 507 0 0 0 0 0 0
0 0 0 0 0 0 0 0 0 0 0 0 0 0 0 0 0 0 0 0 0 0 497 471 469 473 476 479 475 482 482 477 485 482 481 482 480 486 486 483 483 485 485 484 490 491 489 490 492 491 497 494 493 495 495 492 496 491 491 497 500 497 497 500 497 501 501 499 492 500 499 492 502 495 494 487 500 497 485 487 511 528 536 525 524 506 522 510 508 514 518 514 494 519 514 516 511 516 507 491 485 519 496 519 488 519 500 496 526 503 488 495 490 593 0 0 0 0 0 0
0 0 0 0 0 0 0 0 0 0 0 0 0 0 0 0 0 0 0 0 0 0 511 475 469 470 470 477 475 472 476 471 481 483 475 483 484 484 481 482 487 487 486 486 490 490 487 484 488 495 490 493 493 495 494 494 493 487 495 494 494 493 492 499 497 496 492 495 497 496 496 491 503 496 489 495 498 498 501 490 501 497 491 522 508 495 523 506 499 523 511 493 515 520 486 488 529 509 506 512 493 521 491 504 500 479 514 494 499 496 495 522 501 503 447 429 0 0 0 0
0 0 0 0 0 0 0 0 0 0 0 0 0 0 0 0 0 0 0 0 0 0 643 474 478 477 479 478 473 474 478 480 479 481 481 484 481 482 487 484 485 489 485 489 488 487 490 490 491 494 492 498 495 493 494 498 492 496 497 496 495 496 497 503 492 499 500 497 498 496 495 497 496 496 495 495 501 495 508 509 519 526 511 515 533 529 508 514 516 509 532 521 552 528 532 528 513 536 532 515 517 529 519 530 523 492 483 516 508 521 573 510 555 552 569 501 0 0 0 0
0 0 0 0 0 0 0 0 0 0 0 0 0 0 0 0 0 0 0 0 0 0 0 488 469 473 473 473 474 474 481 477 477 479 478 477 478 484 487 482 483 486 485 490 493 484 482 489 494 492 488 489 493 490 493 490 495 492 494 495 496 499 498 494 494 496 493 495 492 499 500 494 499 494 493 500 497 499 488 504 493 505 492 498 504 492 507 496 498 505 505 512 507 505 523 521 514 483 492 496 508 497 514 515 498 484 461 497 479 487 505 490 448 0 0 0 0 0 0 0
0 0 0 0 0 0 0 0 0 0 0 0 0 0 0 0 0 0 0 0 0 0 0 490 472 466 477 470 480 472 474 480 479 472 481 481 478 479 482 480 477 480 487 484 483 487 489 491 487 494 491 488 488 489 487 489 494 491 490 494 490 494 498 497 491 497 499 494 493 495 497 497 495 496 490 493 490 490 496 494 512 497 486 491 478 493 495 489 485 510 488 487 482 482 488 485 492 509 491 481 494 504 491 488 476 492 456 491 486 479 465 478 447 483 403 0 0 0 0 0
0 0 0 0 0 0 0 0 0 0 0 0 0 0 0 0 0 0 0 0 0 0 0 531 469 479 473 471 470 473 474 473 482 479 478 482 482 485 477 483 478 478 484 489 484 489 490 489 492 488 490 492 491 490 494 487 492 497 485 490 494 494 490 495 494 495 495 499 495 492 491 496 498 498 493 490 493 495 512 503 497 496 506 508 491 516 489 506 503 504 503 505 518 508 503 492 501 496 510 499 508 506 480 482 486 502 487 490 496 481 515 497 505 472 475 0 0 0 0 0
0 0 0 0 0 0 0 0 0 0 0 0 0 0 0 0 0 0 0 0 0 0 0 0 480 466 463 471 473 472 473 471 472 480 472 476 475 476 476 476 481 485 483 483 487 482 484 490 492 488 491 489 488 484 484 488 490 492 486 493 490 497 492 490 493 495 496 490 493 492 495 494 494 493 490 493 481 491 487 495 489 493 490 518 483 515 494 500 504 501 493 487 501 503 498 471 491 487 473 493 505 475 508 471 449 482 498 496 466 456 456 450 471 493 526 496 0 0 0 0
0 0 0 0 0 0 0 0 0 0 0 0 0 0 0 0 0 0 0 0 0 0 0 0 540 464 471 471 470 477 471 472 471 477 478 474 478 476 480 485 481 484 482 485 483 484 487 489 489 489 490 492 498 490 489 488 494 492 491 490 491 492 495 492 495 496 491 495 493 490 496 494 491 490 493 491 496 497 499 496 502 484 488 489 492 499 523 497 491 479 494 496 489 549 525 498 515 521 508 486 493 471 514 503 481 476 478 461 496 472 481 459 508 487 485 472 0 0 0 0
0 0 0 0 0 0 0 0 0 0 0 0 0 0 0 0 0 0 0 0 0 0 0 0 0 467 465 472 466 469 473 470 478 477 475 472 479 481 484 483 482 483 486 481 486 485 484 483 481 480 486 484 485 487 488 489 489 484 485 490 492 494 497 493 490 490 491 492 495 494 491 489 490 490 492 491 491 490 492 496 497 495 504 497 491 497 496 501 497 499 510 506 509 486 491 510 491 522 506 495 486 515 495 521 494 512 515 513 480 502 496 523 500 502 0 0 0 0 0 0
0 0 0 0 0 0 0 0 0 0 0 0 0 0 0 0 0 0 0 0 0 0 0 0 0 477 465 466 472 473 471 474 475 474 473 479 475 474 476 479 477 481 483 482 482 483 479 486 488 483 484 483 481 486 487 487 488 484 492 493 487 486 492 491 490 491 492 489 490 490 494 487 493 488 490 484 493 486 471 490 495 495 489 482 499 490 506 498 496 492 492 498 504 485 501 510 502 485 496 485 496 498 493 457 458 474 461 461 478 454 454 493 468 445 0 0 0 0 0 0
0 0 0 0 0 0 0 0 0 0 0 0 0 0 0 0 0 0 0 0 0 0 0 0 0 0 484 469 462 475 465 470 471 475 472 477 474 480 480 472 474 480 480 483 482 478 482 486 485 482 485 486 488 487 486 486 492 485 487 490 490 488 489 491 490 492 487 484 491 489 497 488 489 490 497 494 489 478 489 490 504 509 499 508 483 502 491 487 499 497 481 493 490 506 490 490 490 503 499 488 494 491 528 488 457 523 465 504 502 538 493 464 522 511 0 0 0 0 0 0
0 0 0 0 0 0 0 0 0 0 0 0 0 0 0 0 0 0 0 0 0 0 0 0 0 0 0 465 473 461 466 480 471 472 471 469 472 478 478 478 475 480 475 476 476 479 480 478 485 483 480 486 481 483 484 485 486 489 481 485 486 482 489 490 486 491 486 492 492 490 492 488 488 490 479 483 478 478 491 488 486 483 488 491 483 497 500 479 474 487 482 492 490 489 480 479 469 496 498 489 484 479 480 485 485 495 460 464 476 439 474 483 478 472 479 0 0 0 0 0
0 0 0 0 0 0 0 0 0 0 0 0 0 0 0 0 0 0 0 0 0 0 0 0 0 0 0 492 465 460 465 469 475 471 469 468 473 473 470 474 476 476 477 480 477 477 479 482 479 481 481 481 487 488 483 479 483 481 485 488 485 483 486 482 485 487 482 486 485 486 484 483 484 485 481 490 476 474 476 477 470 480 478 483 477 474 517 454 487 473 481 475 506 472 491 489 465 488 496 488 470 474 488 456 443 459 454 455 477 421 451 439 475 478 469 0 0 0 0 0
0 0 0 0 0 0 0 0 0 0 0 0 0 0 0 0 0 0 0 0 0 0 0 0 0 0 0 0 521 466 460 470 467 464 475 472 475 474 476 473 477 479 477 475 475 482 476 480 480 479 481 482 490 481 486 482 483 484 485 486 485 485 487 488 483 483 491 487 483 487 484 484 472 485 480 491 478 485 489 477 489 491 493 501 489 502 490 479 487 505 497 498 506 513 485 468 480 488 492 475 479 498 489 484 481 479 446 502 498 461 455 477 434 504 418 0 0 0 0 0
0 0 0 0 0 232 236 247 277 0 0 0 0 0 0 0 0 0 0 0 0 2377 0 0 0 0 0 0 0 485 467 464 466 471 460 466 468 466 469 474 475 471 479 471 474 476 477 478 476 479 481 483 477 481 480 480 479 484 483 480 484 480 484 483 480 483 482 479 479 481 476 489 477 477 483 485 481 473 479 474 482 482 488 473 480 496 502 474 474 480 471 492 496 489 500 472 486 491 474 493 468 478 469 477 451 483 474 460 494 472 476 443 477 464 430 0 0 0 0 0
0 0 0 0 250 231 236 240 238 277 369 0 0 0 0 0 0 0 0 0 0 0 0 0 0 0 0 0 0 0 458 459 467 469 471 475 476 471 476 472 476 472 475 471 478 476 479 477 482 478 479 483 483 486 482 482 480 479 481 484 482 485 484 483 485 486 484 487 476 482 480 475 483 493 490 485 476 479 477 477 485 470 499 485 482 494 501 487 487 492 484 483 489 488 486 497 476 491 499 489 498 490 503 496 486 473 463 492 469 472 485 484 454 0 0 0 0 0 0 0
0 0 0 233 224 227 224 225 233 242 336 0 0 0 0 0 0 0 0 0 0 0 0 0 0 0 0 0 0 0 0 474 458 470 468 464 466 473 465 468 465 470 475 467 471 470 473 479 475 478 476 475 480 476 478 476 483 478 480 477 478 484 480 485 481 478 481 478 485 482 473 470 473 484 480 482 483 485 480 485 483 493 483 484 475 484 484 483 499 481 483 493 492 465 488 490 504 464 510 525 487 469 475 475 473 451 477 471 458 456 496 501 451 485 507 0 0 0 0 0
209 248 257 239 256 275 272 232 235 236 285 0 412 423 408 432 406 385 436 411 472 465 432 420 447 436 435 451 442 457 452 461 460 464 465 465 462 460 462 466 461 469 474 466 471 468 469 470 475 478 471 474 478 477 481 477 475 478 474 476 468 480 477 476 480 477 471 474 479 471 476 478 474 465 469 465 485 462 469 471 464 472 479 463 474 479 481 474 479 477 464 484 484 472 473 470 461 461 455 467 475 480 442 448 468 456 439 454 449 482 439 436 455 466 484 430 0 0 0 0
214 205 221 240 248 248 262 230 226 252 402 410 401 407 414 407 400 410 412 405 413 428 421 419 421 435 434 431 456 450 454 458 453 450 456 467 459 463 464 454 457 462 465 467 465 466 469 476 473 476 471 472 476 472 472 472 470 475 473 473 473 475 475 476 470 475 475 470 470 471 470 467 467 472 458 449 469 446 466 458 470 463 459 461 460 448 444 464 451 451 470 454 454 452 450 459 455 457 464 463 460 443 454 458 460 461 460 446 451 429 438 451 453 425 455 461 484 445 0 0
176 192 201 198 214 224 242 222 231 274 343 359 360 362 361 372 359 378 361 373 387 379 390 389 398 411 409 421 430 431 435 439 442 436 441 447 438 448 446 445 439 447 445 443 447 451 449 456 459 459 451 455 461 453 457 458 455 455 456 460 452 459 455 456 459 452 455 458 459 452 454 447 447 452 438 438 433 432 425 434 429 419 422 420 422 422 427 429 432 428 427 433 415 420 422 414 437 408 420 425 423 426 424 420 416 400 394 425 413 406 422 415 410 405 442 411 391 441 394 0
272 272 251 222 228 225 236 227 244 316 325 317 324 332 344 330 337 331 343 346 345 353 368 381 376 391 397 396 412 420 415 416 420 430 429 424 427 428 429 428 427 430 427 434 432 438 437 438 437 436 439 435 435 437 436 440 440 441 441 436 443 444 440 445 442 436 438 436 442 430 430 435 424 417 418 413 407 403 388 396 392 394 386 381 404 403 394 394 398 375 388 386 391 386 393 380 380 390 381 390 392 382 376 379 377 374 375 367 382 398 377 411 388 392 381 394 360 370 369 0
307 303 283 248 237 233 233 250 280 333 315 308 289 312 305 314 325 307 311 323 316 324 337 343 353 367 379 380 397 394 403 407 405 407 405 406 413 414 412 420 410 418 402 414 419 414 414 423 416 420 411 418 421 418 425 426 421 422 422 429 419 425 416 421 422 422 423 416 420 420 410 413 409 406 400 396 388 370 371 364 362 370 368 359 357 359 359 360 368 358 366 362 358 364 376 371 359 371 362 364 360 368 367 376 361 364 360 365 353 355 362 366 372 361 377 335 390 376 371 330
281 277 272 275 265 237 252 273 269 284 274 268 269 289 280 282 287 282 289 289 282 309 311 315 323 341 349 355 373 381 378 394 393 378 388 386 396 395 393 395 394 393 388 390 394 394 391 391 398 390 391 390 395 395 388 392 398 399 403 399 395 395 397 397 396 390 395 394 393 396 387 387 392 375 374 369 352 345 336 334 330 321 313 333 322 327 322 325 329 318 323 341 325 327 331 333 337 333 333 328 323 308 323 339 341 341 345 332 336 309 314 334 335 340 337 318 293 315 320 316
262 248 239 246 251 253 254 245 269 262 256 262 254 267 267 268 263 264 277 269 277 289 279 306 308 323 331 337 348 361 357 368 363 362 367 362 367 372 372 372 364 367 373 372 375 367 364 375 367 373 374 373 370 378 373 381 379 375 374 378 381 377 382 376 375 372 369 377 370 372 361 370 356 358 348 338 334 320 309 313 312 297 311 308 307 303 303 303 306 293 302 301 311 314 303 319 301 310 294 304 306 308 310 307 305 321 302 295 323 299 302 309 331 295 307 290 306 350 319 293
225 227 232 228 231 244 244 243 238 233 238 239 247 251 246 237 237 246 249 250 257 268 270 280 290 295 317 326 332 332 336 334 344 334 344 342 346 347 339 344 349 348 348 345 348 343 346 346 354 341 342 354 348 350 351 353 354 349 356 340 349 347 349 344 346 346 346 346 348 346 345 345 337 327 327 322 313 297 286 291 283 283 284 278 285 278 284 277 274 270 275 279 285 280 270 269 262 279 282 278 271 281 287 276 278 278 275 279 274 277 285 291 298 292 298 277 289 290 282 326
200 213 234 229 226 217 224 216 223 230 237 220 219 233 223 224 225 230 230 237 244 241 255 263 268 277 296 301 300 307 310 317 319 312 320 318 324 323 321 327 314 317 319 320 326 329 325 329 325 324 323 321 327 323 329 323 323 322 326 324 330 329 324 321 326 321 328 324 323 325 321 319 318 307 306 295 288 273 272 270 271 259 259 254 259 264 257 254 254 249 265 257 255 252 255 259 257 258 255 261 251 255 258 262 254 257 251 270 254 272 267 257 256 268 261 273 238 261 277 285
206 210 202 204 214 213 214 213 221 213 210 216 214 211 208 218 219 214 230 224 228 230 242 252 256 267 271 281 280 287 283 295 297 291 295 301 294 300 300 306 300 301 302 299 303 298 307 303 308 309 309 306 304 302 300 308 300 302 307 304 307 304 307 313 303 307 311 306 304 299 299 297 301 289 287 282 270 264 258 250 247 247 252 249 246 251 246 235 240 243 243 244 242 251 241 239 246 242 245 241 248 245 249 247 241 236 246 239 242 244 251 251 252 254 256 257 253 234 263 256
183 202 196 205 202 204 210 204 184 200 203 184 201 186 184 206 209 191 209 213 215 221 227 229 239 244 247 265 265 266 268 264 271 269 277 277 278 284 281 283 279 279 286 289 285 281 286 281 281 288 280 277 279 278 277 284 286 286 284 283 282 290 283 286 286 286 281 282 283 280 281 275 277 269 268 258 258 241 238 232 231 227 226 229 228 227 223 221 231 230 223 233 222 230 221 221 229 221 231 222 220 228 228 218 222 224 230 228 232 238 243 239 243 242 231 241 225 223 239 227
176 176 194 197 186 183 181 183 183 198 185 181 177 184 177 178 183 189 188 186 191 210 215 230 222 228 240 241 241 245 254 256 255 257 258 256 260 257 266 267 262 264 261 269 262 263 268 274 262 265 264 265 266 268 268 260 263 269 264 276 266 269 262 273 264 264 268 273 265 264 265 257 256 253 249 246 240 231 222 212 218 217 218 215 219 220 214 214 218 218 214 214 221 213 209 211 212 212 191 217 215 214 211 215 210 209 212 217 215 218 213 210 225 236 220 216 230 223 218 237
173 170 170 174 180 172 172 180 179 178 182 182 179 181 183 177 185 186 179 181 183 190 191 211 213 214 223 219 229 226 231 244 239 237 241 240 239 240 247 252 241 247 251 248 251 250 249 249 245 249 249 248 245 244 245 247 250 249 246 249 248 251 252 248 243 254 252 249 246 250 248 244 237 238 237 227 220 216 192 200 194 197 191 187 191 193 188 190 190 188 192 194 186 187 185 186 193 181 192 191 186 211 208 182 191 191 184 184 205 207 204 206 218 199 201 202 209 209 213 204
171 169 174 172 170 174 166 171 169 173 176 171 172 173 176 179 176 179 181 186 185 187 190 193 207 191 212 214 216 223 226 223 225 225 226 225 227 229 228 228 224 230 234 233 231 237 226 223 234 229 230 237 236 234 228 235 233 236 237 235 234 240 233 236 236 234 232 228 233 232 232 228 225 222 219 213 211 193 185 196 194 195 190 190 190 193 183 192 189 188 187 191 189 186 189 190 190 182 185 181 185 188 182 176 186 180 179 184 176 181 174 199 192 184 194 196 203 200 172 199
164 164 172 171 169 167 170 171 168 169 168 162 169 166 172 169 173 175 180 179 178 183 177 187 191 188 187 189 206 207 209 200 209 209 212 211 216 215 213 214 215 221 217 218 218 219 218 220 224 222 218 219 221 217 219 220 218 223 222 223 220 220 223 220 220 215 215 218 222 220 225 216 214 196 195 193 198 193 191 185 191 183 190 184 184 183 185 185 184 184 182 179 185 184 186 181 179 178 182 182 182 182 183 183 185 179 179 179 175 173 176 177 172 180 185 189 171 180 174 201
153 152 159 162 163 163 160 165 161 164 159 160 162 163 159 159 160 172 169 175 173 177 178 182 184 182 184 183 183 188 181 187 186 186 183 190 191 186 185 194 193 192 189 188 195 196 196 190 187 195 198 198 196 198 194 193 189 194 193 195 200 195 200 189 194 190 195 195 194 198 198 197 192 189 196 197 193 187 188 178 175 179 174 170 171 170 175 174 178 176 173 172 172 174 170 175 169 168 168 168 169 172 173 173 173 173 171 165 171 172 172 174 174 175 171 169 175 169 167 172
147 147 151 153 150 154 157 156 155 159 155 153 155 156 159 157 151 164 155 167 166 167 177 175 179 176 179 185 179 183 186 188 188 191 188 186 188 192 188 191 192 195 194 196 192 198 193 198 195 190 194 187 196 196 198 193 196 197 197 200 196 197 198 198 195 193 197 195 197 193 192 194 188 193 187 182 185 182 181 175 170 170 167 165 169 164 171 168 170 166 172 167 167 167 170 166 167 159 163 170 171 169 171 170 167 158 158 160 161 169 171 169 170 175 169 165 160 171 168 166
144 143 146 144 147 152 149 153 150 152 147 154 152 153 150 149 152 150 155 158 161 166 164 171 171 170 174 174 175 179 175 179 182 182 179 179 184 177 182 183 183 184 185 187 182 185 185 186 187 185 184 188 187 185 188 187 189 189 0 190 187 188 183 187 190 188 190 189 185 187 186 184 181 179 177 177 173 170 171 166 160 157 162 161 162 160 163 162 163 161 160 161 160 162 161 159 155 157 164 161 157 161 161 160 155 160 155 162 160 170 158 163 153 165 161 172 164 166 170 175
132 138 139 139 139 147 147 149 144 146 139 148 141 143 142 146 143 148 147 148 157 158 159 161 165 167 167 168 169 170 172 173 173 175 168 171 175 172 171 176 173 182 176 175 177 175 173 177 175 177 178 178 175 180 181 176 176 0 0 177 179 176 180 178 178 176 177 178 179 172 175 176 175 174 172 168 170 164 163 159 160 156 153 153 155 156 154 151 152 155 149 157 156 152 155 151 150 150 152 152 153 152 151 156 151 143 146 147 157 152 151 153 148 153 150 152 153 147 157 157
137 132 130 137 144 141 149 145 140 143 137 139 143 142 142 140 141 147 147 146 154 151 156 155 160 158 160 160 163 165 160 165 168 165 163 168 162 171 170 167 169 0 170 0 169 172 169 172 171 171 172 168 175 175 177 171 174 171 0 174 0 0 0 171 172 171 172 171 170 169 168 165 171 168 165 162 167 159 158 151 151 154 148 150 151 150 151 149 151 157 145 151 149 147 151 150 149 148 156 143 146 147 146 149 148 141 140 141 149 145 146 142 150 152 149 152 139 156 153 164
130 124 127 113 138 135 141 137 132 122 135 132 124 125 138 134 135 135 138 143 140 146 150 148 149 158 158 154 158 160 157 155 156 162 159 153 160 163 0 0 0 0 0 0 0 0 163 165 165 164 170 164 166 164 0 0 0 169 0 0 0 0 0 0 166 164 166 0 163 163 162 160 162 159 154 156 154 156 149 149 150 146 148 146 140 150 142 147 145 143 144 149 144 145 138 135 142 148 142 142 140 139 140 140 136 139 137 138 142 136 141 141 149 154 142 140 134 135 147 143
125 119 113 123 127 134 134 131 136 130 127 132 126 128 131 123 121 136 137 136 140 141 146 148 148 150 151 151 156 153 157 154 154 155 155 153 154 0 0 0 0 0 0 0 0 0 0 0 155 161 163 160 0 0 0 0 0 0 0 0 0 0 0 0 162 160 0 0 0 0 0 158 157 156 152 149 149 153 148 143 140 137 144 141 139 139 143 139 142 140 136 139 138 140 138 137 142 141 140 137 133 135 138 131 119 128 132 134 139 139 130 139 139 141 130 136 136 128 112 145
110 106 119 121 128 126 131 129 126 128 128 124 121 119 117 130 131 132 130 136 135 126 136 142 140 141 144 147 144 147 152 148 153 149 151 149 0 0 0 0 0 0 0 0 0 0 0 0 152 152 155 0 0 0 0 0 0 0 0 0 0 0 0 0 0 0 0 0 0 0 0 0 149 148 145 148 143 144 141 143 138 129 137 137 125 138 138 140 137 131 140 138 132 128 119 127 141 139 134 135 135 136 136 131 127 134 132 135 135 137 139 137 132 141 145 136 135 131 116 142
105 110 114 109 106 109 119 116 115 120 115 115 116 116 126 124 121 120 127 117 123 123 128 124 135 141 139 140 143 142 141 142 144 145 143 142 0 0 0 0 0 0 0 0 0 0 0 0 0 0 0 0 0 0 0 0 0 0 0 0 0 0 0 0 0 0 0 0 0 0 0 0 142 137 142 139 137 131 127 128 124 121 117 121 125 120 127 125 123 129 125 123 115 126 124 127 128 133 124 118 119 121 134 114 122 129 128 122 132 135 129 130 115 120 121 129 110 107 111 120
111 108 117 116 112 115 116 125 119 118 113 116 115 115 117 122 113 119 121 115 118 115 121 118 136 136 136 138 0 134 0 0 0 137 139 0 0 0 0 0 0 0 0 0 0 0 0 0 0 0 0 0 0 0 0 0 0 0 0 0 0 0 0 0 0 0 0 0 0 0 0 0 0 133 125 126 122 125 120 123 119 120 122 128 115 118 117 118 120 117 116 124 114 116 111 120 120 121 119 116 120 123 128 119 119 113 116 122 107 123 133 110 119 123 132 120 111 131 139 149
101 101 106 111 107 101 107 106 104 104 110 107 104 106 104 112 109 111 116 111 113 116 113 117 119 119 127 120 120 135 0 0 0 0 0 0 0 0 0 0 0 0 0 0 0 0 0 0 0 0 0 0 0 0 0 0 0 0 0 0 0 0 0 0 0 0 0 0 0 0 0 0 0 0 0 127 119 119 123 117 114 116 109 119 114 116 110 111 111 114 115 117 113 110 109 106 112 115 114 112 112 110 113 113 112 117 109 105 108 106 124 112 106 115 119 101 121 135 122 142
96 99 91 93 102 101 102 100 99 106 103 101 101 103 106 105 106 108 112 106 108 109 105 106 117 110 114 119 118 119 0 127 0 0 0 0 0 0 0 0 0 0 0 0 0 0 0 0 0 0 0 0 0 0 0 0 0 0 0 0 0 0 0 0 0 0 0 0 0 0 0 0 0 120 0 115 118 113 114 110 111 110 105 103 112 107 109 115 103 110 116 111 112 113 106 116 109 107 95 115 108 103 113 106 105 115 108 108 108 115 101 101 110 100 95 120 113 106 89 131
98 100 98 105 97 100 103 93 94 101 96 96 102 98 100 94 105 103 111 114 111 109 99 106 115 107 114 113 113 121 120 120 123 0 0 0 0 0 0 0 0 0 0 0 0 0 0 0 0 0 0 0 0 0 0 0 0 0 0 0 0 0 0 0 0 0 0 0 0 0 0 0 121 118 104 120 113 117 118 116 107 110 100 118 108 106 103 104 106 105 105 105 110 94 99 100 107 104 114 100 105 112 109 105 108 107 106 93 96 100 105 109 102 94 108 91 138 126 100 112
88 85 83 87 80 82 83 97 91 83 88 92 94 96 93 87 78 91 91 86 92 86 100 107 100 102 113 107 0 0 107 106 116 0 0 0 0 0 0 0 0 0 0 0 0 0 0 0 0 0 0 0 0 0 0 0 0 0 0 0 0 0 0 0 0 0 0 0 0 0 0 0 110 109 104 111 106 105 105 98 98 103 96 88 102 95 88 98 106 98 92 97 102 84 86 94 92 103 86 100 88 98 92 88 86 90 98 88 88 90 82 90 83 98 95 94 95 84 106 111
91 85 90 90 94 95 94 105 89 90 97 95 87 91 93 98 96 91 101 94 95 103 104 102 101 104 109 106 0 103 112 107 117 112 120 103 0 0 112 0 0 118 0 0 0 0 0 0 0 0 0 0 0 0 0 0 0 0 0 0 114 0 0 0 110 0 0 0 110 0 108 109 113 113 112 108 108 110 101 96 109 103 105 91 93 100 101 100 98 101 103 105 108 97 99 102 100 92 97 104 100 98 95 103 94 100 99 85 85 80 89 88 89 97 98 89 92 94 119 125
85 91 90 90 98 97 92 94 86 97 87 89 87 95 90 84 94 98 100 95 101 93 99 114 89 103 104 100 104 106 93 0 103 103 99 103 0 114 114 0 0 0 0 0 0 0 0 0 0 0 0 0 0 0 0 0 0 109 0 0 109 105 104 113 111 109 105 98 113 104 109 105 103 101 111 110 99 91 103 97 94 93 101 84 94 91 91 103 104 91 98 104 108 84 82 84 89 93 89 88 91 83 92 94 91 88 97 89 98 88 96 99 89 91 104 92 131 119 100 118
86 85 83 85 90 90 102 87 88 80 91 86 91 90 91 88 91 86 93 87 77 91 91 85 87 92 92 92 106 90 96 99 98 95 94 108 99 100 105 102 0 99 98 108 103 91 0 0 93 0 0 105 106 92 102 107 107 103 107 105 100 106 109 98 97 110 100 95 97 107 98 105 103 97 105 91 90 94 99 90 92 90 91 96 94 90 90 95 95 91 100 90 90 94 87 91 86 92 92 83 85 88 94 90 88 90 99 86 83 92 89 87 86 99 77 95 105 106 97 130
84 80 86 84 83 84 98 99 85 84 87 81 82 86 85 92 89 93 91 98 83 97 91 91 91 96 94 87 96 100 94 84 95 94 98 99 99 99 93 104 102 95 99 107 101 97 105 0 102 100 97 105 98 100 100 99 99 103 94 107 104 94 94 101 100 99 92 100 93 105 97 105 103 97 102 87 93 96 94 97 97 94 84 91 95 93 96 86 92 87 85 97 88 90 94 93 91 91 99 87 91 95 82 88 89 96 95 91 90 90 81 100 95 85 95 109 96 101 105 93
83 72 71 70 80 79 86 89 86 82 88 82 86 83 89 86 86 84 86 84 86 86 93 91 86 86 89 93 83 93 89 93 95 93 97 95 97 86 90 95 91 89 84 89 95 91 89 101 93 89 92 96 95 90 90 84 103 85 97 97 96 87 82 97 98 80 95 96 96 97 93 91 91 90 83 96 91 93 97 96 86 95 82 87 83 93 88 90 83 88 78 76 90 81 85 86 86 80 82 86 79 88 81 72 84 80 87 85 83 88 73 82 81 87 78 97 135 113 101 48
69 73 83 86 73 82 80 88 81 83 82 90 78 82 83 87 86 88 80 84 84 90 84 93 89 87 90 89 94 90 94 95 91 95 86 90 95 94 91 93 91 83 93 88 89 100 90 87 100 85 90 96 96 85 102 95 91 85 89 98 97 98 92 92 88 94 87 96 103 93 83 94 83 86 93 83 95 84 85 93 93 88 87 88 78 85 86 80 91 94 75 88 78 81 93 81 92 85 85 81 83 80 78 73 75 84 78 83 87 90 84 87 80 112 102 102 104 87 86 169
