0 0 0 0 0 0 0 0 0 0 0 0 0 0 0 0 0 0 0 0 0 0 0 0 0 0 0 0 0 0 0 0 0 0 0 0 0 0 0 0 0 0 0 0 0 0 0 0 0 0 0 0 0 0 0 0 0 0 0 0 0 0 0 0 0 0 0 0 0 0 0 0 0 0 0 0 0 0 0 0 0 0 0 0 0 0 0 0 0 0 0 0 0 0 0 0 0 0 0 0 0 0 0 0 0 0 0 0 0 0 0 0 0 0 0 0 0 0 0 0
0 0 0 0 0 0 0 0 0 0 0 0 0 0 0 0 0 0 0 0 0 0 0 0 0 0 0 0 0 0 0 0 0 0 0 0 0 0 0 0 0 0 0 0 0 0 0 0 0 0 0 0 0 0 0 0 0 0 0 0 0 0 0 0 0 0 0 0 0 0 0 0 0 0 0 0 0 0 0 0 0 0 0 0 0 0 0 0 0 0 0 0 0 0 0 0 0 0 0 0 0 0 0 0 0 0 0 0 0 0 0 0 0 0 0 0 0 0 0 0
0 0 0 0 0 0 0 0 0 0 0 0 0 0 0 0 0 0 0 0 0 0 0 0 0 0 0 0 0 0 0 0 0 0 0 0 0 0 0 0 0 0 0 0 0 0 0 0 0 0 0 0 0 0 0 0 0 0 0 0 0 0 0 0 0 0 0 0 0 0 0 0 0 0 0 0 0 0 0 0 0 0 0 0 0 0 0 0 0 0 0 0 0 0 0 0 0 0 0 0 0 0 0 0 0 0 0 0 0 0 0 0 0 0 0 0 0 0 0 0
0 0 0 0 0 0 0 0 0 0 0 0 0 0 0 0 0 0 0 0 0 0 0 0 0 0 0 0 0 0 0 0 0 0 0 0 0 0 0 0 0 0 0 0 0 0 0 0 0 0 0 0 0 0 0 0 0 0 0 0 0 0 0 0 0 0 0 0 0 0 0 0 0 0 0 0 0 0 0 0 0 0 0 0 0 0 0 0 0 0 0 0 0 0 0 0 0 0 0 0 0 0 0 0 0 0 0 0 0 0 0 0 0 0 0 0 0 0 0 0
0 0 0 0 0 0 0 0 0 0 0 0 0 0 0 0 0 0 0 0 0 0 0 0 0 0 0 0 0 0 0 0 0 0 0 0 0 0 0 0 0 0 0 0 0 0 0 0 0 0 0 0 0 0 0 0 0 0 0 0 0 0 0 0 0 0 0 0 0 0 0 0 0 0 0 0 0 0 0 0 0 0 0 0 0 0 0 0 0 0 0 0 0 0 0 0 0 0 0 0 0 0 0 0 0 0 0 0 0 0 0 0 0 0 0 0 0 0 0 0
0 0 0 0 0 0 0 0 0 0 0 0 0 0 0 0 0 0 0 0 0 0 0 0 0 0 0 0 0 0 0 0 0 0 0 0 0 0 0 459 530 530 495 502 505 514 523 495 500 502 506 532 497 511 532 0 0 0 0 0 0 0 0 0 0 0 0 0 0 0 0 0 0 0 0 0 0 0 0 0 0 0 0 0 0 0 0 0 0 0 0 0 0 0 0 0 0 0 0 0 0 0 0 0 0 0 0 0 0 0 0 0 0 0 0 0 0 0 0 0
0 0 0 0 0 0 0 0 0 0 0 0 0 0 0 0 0 0 0 0 0 0 0 0 0 0 0 0 0 0 0 0 0 0 0 0 0 518 521 508 508 483 496 509 502 522 515 517 517 512 504 507 502 522 511 518 523 527 554 514 0 0 0 0 0 0 0 0 0 0 0 0 0 0 0 0 0 0 0 0 0 0 0 0 0 0 0 0 0 0 0 0 0 0 0 0 0 0 0 0 0 0 0 0 0 0 0 0 0 0 0 0 0 0 0 0 0 0 0 0
0 0 0 0 0 0 0 0 0 0 0 0 0 0 0 0 0 0 0 0 0 0 0 0 0 0 0 0 0 0 0 0 0 0 0 506 499 502 483 501 506 497 501 512 489 503 511 505 510 506 504 500 513 493 503 521 509 496 506 506 520 508 529 493 476 0 0 0 0 0 0 0 0 0 0 0 0 0 0 0 0 0 0 0 0 0 0 0 0 0 0 0 0 0 0 0 0 0 0 0 0 0 0 0 0 0 0 0 0 0 0 0 0 0 0 0 0 0 0 0
0 0 0 0 0 0 0 0 0 0 0 0 0 0 0 0 0 0 0 0 0 0 0 0 0 0 0 0 0 0 0 0 0 521 522 501 518 520 501 510 515 509 502 520 503 516 519 512 514 522 500 503 511 516 498 520 507 509 508 522 517 527 518 520 522 516 520 576 625 594 619 579 595 0 610 560 589 630 618 650 0 0 0 0 0 0 0 0 0 0 0 0 0 0 0 0 0 0 0 0 0 0 0 0 0 0 0 0 0 0 0 0 0 0 0 0 0 0 0 0
0 0 0 0 0 0 0 0 0 0 0 0 0 0 0 0 0 0 0 0 0 0 0 0 0 0 0 0 0 0 0 489 495 495 506 501 492 507 502 498 515 490 501 488 495 503 504 505 504 504 510 503 504 502 501 505 516 500 495 498 507 504 500 502 505 511 509 523 520 541 560 550 569 543 553 591 597 566 592 566 558 544 571 526 0 583 0 542 570 550 569 547 553 567 567 558 553 604 589 599 522 524 578 538 0 0 0 0 0 0 0 0 0 0 0 0 0 0 0 0
0 0 0 0 0 0 0 0 0 0 0 0 0 0 0 0 0 0 0 0 0 0 0 0 0 0 0 0 0 0 484 504 504 497 507 505 489 495 488 508 502 494 499 495 504 511 509 505 513 503 504 509 515 513 502 512 510 504 492 512 514 503 510 512 506 501 513 511 518 510 510 542 549 562 531 559 569 541 539 592 545 580 555 533 523 580 530 573 579 538 591 584 565 521 571 629 554 572 581 583 561 573 535 588 567 554 598 542 512 0 0 0 0 0 0 0 0 0 0 0
0 0 0 0 0 0 0 0 0 0 0 0 0 0 0 0 0 0 0 0 0 0 0 0 0 0 0 0 502 519 512 510 502 504 503 500 497 491 504 507 507 509 503 501 507 509 511 507 497 510 503 512 500 521 499 510 514 502 509 508 512 505 513 506 511 502 499 517 515 519 510 549 570 560 573 615 610 563 565 585 562 556 585 569 545 575 565 582 590 583 578 560 563 583 577 565 510 586 554 593 575 593 587 537 593 614 581 579 585 0 0 0 0 0 0 0 0 0 0 0
0 0 0 0 0 0 0 0 0 0 0 0 0 0 0 0 0 0 0 0 0 0 0 0 0 0 0 483 487 494 489 493 505 492 495 495 500 504 505 496 494 503 502 508 500 506 502 500 501 508 502 493 510 502 501 512 497 510 507 505 508 508 508 508 518 497 504 505 507 508 496 495 542 545 540 541 553 568 548 522 539 543 508 538 558 545 532 537 510 556 520 523 542 539 545 583 517 547 563 519 570 520 559 553 506 553 548 532 0 0 0 0 0 0 0 0 0 0 0 0
0 0 0 0 0 0 0 0 0 0 0 0 0 0 0 0 0 0 0 0 0 0 0 0 0 0 488 490 503 501 500 486 500 499 499 493 501 492 504 502 498 493 500 512 504 509 494 503 509 493 510 505 509 500 509 507 508 509 507 504 504 515 510 506 505 506 509 506 504 498 518 512 519 555 547 541 552 563 559 515 556 528 600 547 500 544 510 529 532 509 564 570 552 534 537 525 542 508 522 550 556 545 604 544 525 568 585 557 564 0 0 0 0 0 0 0 0 0 0 0
0 0 0 0 0 0 0 0 0 0 0 0 0 0 0 0 0 0 0 0 0 0 0 0 0 500 495 495 500 493 507 504 506 505 489 504 503 500 499 496 507 507 505 510 504 503 508 500 502 505 505 507 503 496 501 510 507 509 509 508 514 515 509 521 511 503 508 501 511 520 508 507 521 564 530 572 559 537 554 570 562 569 556 548 560 578 541 576 532 566 569 571 527 555 543 539 566 582 534 612 570 616 597 599 542 563 513 582 577 0 0 0 0 0 0 0 0 0 0 0
0 0 0 0 0 0 0 0 0 0 0 0 0 0 0 0 0 0 0 0 0 0 0 0 0 484 502 485 496 494 490 495 493 501 491 494 489 499 499 482 499 500 510 499 497 501 513 499 495 508 499 502 508 507 503 503 505 499 503 512 510 501 509 502 503 502 511 507 508 510 513 510 503 511 520 513 539 521 506 540 531 529 560 549 556 541 535 526 535 567 545 550 523 532 537 550 540 529 514 510 532 532 527 468 492 518 535 550 477 480 510 0 500 515 0 0 0 0 0 0
0 0 0 0 0 0 0 0 0 0 0 0 0 0 0 0 0 0 0 0 0 0 0 0 537 499 496 497 493 496 506 507 509 503 499 500 499 493 499 502 502 506 502 503 498 508 512 506 502 504 506 500 508 508 511 510 503 511 507 515 500 509 508 520 508 510 514 513 511 513 510 509 519 508 542 554 569 572 587 572 595 557 596 587 550 555 566 569 558 572 567 580 567 576 576 599 571 577 575 623 580 597 583 573 523 586 560 589 600 579 554 0 603 0 0 0 0 0 0 0
0 0 0 0 0 0 0 0 0 0 0 0 0 0 0 0 0 0 0 0 0 0 0 0 468 486 490 488 494 495 491 495 490 494 496 485 497 491 499 500 492 499 504 492 500 498 503 507 506 501 506 504 501 507 502 499 503 509 507 504 507 502 507 501 509 507 505 508 512 514 501 509 504 509 502 511 536 539 526 512 522 550 535 529 515 544 522 526 543 550 552 524 564 521 516 530 535 524 532 521 548 498 538 541 557 537 538 530 511 519 0 0 0 0 0 0 0 0 0 0
0 0 0 0 0 0 0 0 0 0 0 0 0 0 0 0 0 0 0 0 0 0 0 479 491 494 500 503 489 490 498 500 495 495 499 501 502 489 496 495 494 499 493 493 493 494 500 493 500 493 497 499 498 514 507 506 507 509 497 509 510 499 504 509 499 505 513 517 509 511 499 510 510 506 512 523 522 527 534 532 516 514 520 561 513 558 513 518 515 525 554 520 553 509 519 532 538 544 530 535 553 537 530 542 544 575 486 505 473 522 486 0 0 0 0 0 0 0 0 0
0 0 0 0 0 0 0 0 0 0 0 0 0 0 0 0 0 0 0 0 0 0 0 499 487 477 475 488 483 493 497 510 503 491 501 496 480 491 492 497 491 505 510 500 504 499 492 504 498 509 495 505 497 500 506 511 503 513 507 507 503 504 504 502 503 507 502 506 512 512 515 508 507 513 506 511 525 521 519 561 541 528 502 564 532 529 546 539 534 543 517 536 547 539 551 563 518 525 558 547 530 544 533 536 526 573 528 530 540 545 534 0 0 0 0 0 0 0 0 0
0 0 0 0 0 0 0 0 0 0 0 0 0 0 0 0 0 0 0 0 0 0 447 487 484 490 496 495 483 481 491 502 500 490 487 492 493 493 491 487 493 499 488 503 492 494 502 492 500 493 500 497 495 493 504 497 500 498 495 500 498 503 499 495 493 500 503 497 502 510 505 511 508 504 501 505 506 512 516 509 500 483 509 560 507 481 497 468 485 525 492 517 501 521 492 523 520 510 514 506 505 484 527 511 524 514 502 493 502 466 460 0 467 0 0 0 0 0 0 0
0 0 0 0 0 0 0 0 0 0 0 0 0 0 0 0 0 0 0 0 0 0 497 496 486 482 503 492 492 501 488 490 480 497 501 489 496 492 495 502 495 502 500 510 500 499 506 508 505 496 499 504 498 510 497 503 500 501 507 503 502 506 501 505 505 511 509 516 515 503 511 506 510 523 519 506 510 550 531 510 530 530 536 529 548 535 530 482 537 531 559 537 519 542 547 543 532 546 549 527 530 541 529 549 540 545 551 528 548 542 543 565 0 0 0 0 0 0 0 0
0 0 0 0 0 0 0 0 0 0 0 0 0 0 0 0 0 0 0 0 0 0 488 484 493 485 488 490 492 491 494 483 486 486 502 487 494 492 491 499 498 507 500 495 499 503 493 494 499 498 496 502 493 496 500 496 510 508 506 501 504 511 505 503 502 504 510 507 510 515 499 505 517 510 513 502 514 539 518 542 512 523 515 497 546 558 520 523 514 553 537 524 509 549 537 539 535 544 528 547 515 519 547 523 557 552 544 528 567 545 539 527 576 0 0 0 0 0 0 0
0 0 0 0 0 0 0 0 0 0 0 0 0 0 0 0 0 0 0 0 0 0 489 492 485 485 491 492 490 487 493 486 488 492 485 486 491 491 498 494 494 494 495 493 493 491 499 497 499 495 499 496 501 500 503 501 496 505 505 506 503 503 505 508 498 499 512 502 505 508 518 499 502 508 507 510 506 527 529 498 504 496 530 514 507 522 541 510 538 528 485 501 524 518 520 501 518 523 523 528 529 522 517 542 544 547 510 547 496 494 505 485 507 487 0 0 0 0 0 0
0 0 0 0 0 0 0 0 0 0 0 0 0 0 0 0 0 0 0 0 0 0 509 491 490 484 498 494 491 499 488 491 492 485 485 496 487 501 491 492 498 495 507 500 497 503 493 501 502 504 495 505 501 496 498 507 505 509 510 494 508 506 508 507 503 506 502 504 505 510 504 505 512 509 509 507 517 521 515 528 534 536 541 547 543 533 533 516 502 528 545 539 541 510 564 553 528 531 552 527 543 528 546 518 555 544 563 551 509 528 543 554 558 0 0 0 0 0 0 0
0 0 0 0 0 0 0 0 0 0 0 0 0 0 0 0 0 0 0 0 0 0 489 474 485 482 481 488 487 491 493 484 484 493 496 483 490 495 498 492 492 490 491 492 501 490 492 500 495 497 503 499 502 501 503 496 507 506 501 501 502 507 502 503 506 498 498 506 494 505 503 500 507 504 509 504 501 516 512 508 500 496 524 509 524 478 497 513 517 548 500 513 537 502 483 511 470 519 517 506 543 502 514 520 473 464 492 523 0 498 473 544 487 0 0 0 0 0 0 0
0 0 0 0 0 0 0 0 0 0 0 0 0 0 0 0 0 0 0 0 0 442 492 503 479 483 493 485 489 484 482 481 489 500 485 488 495 487 491 491 497 494 497 494 492 495 499 497 495 501 497 502 498 496 500 496 502 507 507 503 504 495 502 507 501 501 502 503 500 504 507 497 511 507 499 508 502 507 502 508 503 500 502 499 504 505 503 495 518 514 478 522 521 492 509 526 490 523 523 511 495 525 510 500 502 543 471 494 517 486 540 495 0 0 0 0 0 0 0 0
0 0 0 0 0 0 0 0 0 0 0 0 0 0 0 0 0 0 0 0 0 445 475 477 497 487 483 482 481 483 479 485 483 487 497 487 488 491 493 491 495 495 495 494 493 494 496 497 495 491 501 499 496 503 504 507 502 503 508 500 499 498 506 499 502 506 503 505 500 502 503 496 507 507 501 510 505 509 530 514 535 524 554 507 538 534 533 530 535 536 505 521 540 521 544 509 522 500 517 527 533 530 515 525 566 525 531 562 524 506 530 475 0 0 0 0 0 0 0 0
0 0 0 0 0 0 0 0 0 0 0 0 0 0 0 0 0 0 0 0 0 446 469 477 492 477 484 483 478 480 483 486 486 488 486 488 484 489 493 486 487 490 486 496 489 497 495 490 494 495 495 494 496 497 501 496 500 498 502 497 500 501 504 506 499 499 510 506 502 501 502 503 496 503 500 494 500 503 516 493 495 501 487 505 512 491 501 513 498 510 499 506 477 514 477 475 470 503 503 493 499 480 479 511 506 511 494 458 471 498 452 476 493 0 0 0 0 0 0 0
0 0 0 0 0 0 0 0 0 0 0 0 0 0 0 0 0 0 0 0 0 458 484 474 483 486 482 482 497 493 484 485 483 492 493 487 488 489 491 497 495 487 488 497 495 496 490 495 491 495 492 499 499 496 504 500 507 496 502 496 497 506 504 505 506 498 505 504 498 502 509 502 506 505 501 502 507 502 504 513 518 515 491 481 501 501 514 511 499 503 521 493 493 508 525 529 476 483 501 501 496 514 535 506 519 515 546 516 499 491 519 500 506 0 0 0 0 0 0 0
0 0 0 0 0 0 0 0 0 0 0 0 0 0 0 0 0 0 0 0 0 486 492 478 475 477 481 487 485 482 487 484 491 493 488 488 486 491 489 490 494 493 492 492 490 493 494 493 490 497 495 505 499 498 500 499 496 497 498 502 504 501 501 500 500 505 501 505 502 505 508 505 500 504 502 502 504 511 500 535 483 516 509 516 525 514 500 486 529 508 517 529 525 526 486 500 514 497 524 529 501 503 529 544 511 514 483 528 491 516 485 464 0 0 0 0 0 0 0 0
0 0 0 0 0 0 0 0 0 0 0 0 0 0 0 0 0 0 0 0 0 457 476 483 481 477 479 482 486 488 486 480 486 483 487 483 483 488 487 487 490 484 491 489 487 494 491 498 500 492 493 499 495 497 496 504 499 499 497 503 497 499 500 504 500 508 500 503 501 499 506 497 509 503 500 496 492 501 503 508 518 508 503 509 507 503 503 501 508 478 507 512 515 510 523 505 493 506 527 503 517 498 503 526 532 494 476 531 527 520 484 499 524 500 0 0 0 0 0 0
0 0 0 0 0 0 0 0 0 0 0 0 0 0 0 0 0 0 0 0 0 492 483 482 476 492 482 481 484 481 485 483 487 484 488 486 487 493 485 490 495 494 492 496 490 499 496 495 489 501 496 496 497 500 498 504 494 503 508 497 502 496 506 496 501 500 498 495 498 511 508 499 513 507 503 503 495 510 511 518 500 523 507 529 531 524 531 530 516 532 522 517 511 504 494 522 537 534 554 566 544 538 510 540 518 536 546 532 538 523 580 570 561 527 0 0 0 0 0 0
0 0 0 0 0 0 0 0 0 0 0 0 0 0 0 0 0 0 0 0 0 446 475 470 477 474 477 479 472 481 483 477 489 483 482 485 485 483 488 489 487 482 487 497 489 495 489 493 490 496 487 493 495 495 495 499 495 497 493 498 500 495 502 499 500 501 496 502 503 495 499 497 492 494 495 497 501 501 505 502 502 510 498 494 501 505 494 497 500 510 506 486 492 501 507 495 507 500 510 489 545 511 489 513 509 458 497 457 498 487 455 510 484 0 0 0 0 0 0 0
0 0 0 0 0 0 0 0 0 0 0 0 0 0 0 0 0 0 0 0 0 444 477 479 472 477 475 480 478 484 482 488 482 486 481 480 485 484 485 490 486 489 489 488 490 495 489 493 490 489 491 493 492 496 497 496 492 494 492 498 498 503 498 497 500 498 498 499 500 499 494 499 501 504 495 498 499 499 490 515 512 504 489 509 493 482 482 504 481 495 501 527 496 478 476 502 485 491 494 498 492 493 475 496 485 484 463 537 483 489 456 491 476 434 0 0 0 0 0 0
0 0 0 0 0 0 0 0 0 0 0 0 0 0 0 0 0 0 0 0 0 475 474 473 473 479 476 480 479 477 484 477 477 483 485 483 485 485 485 489 485 488 488 489 487 489 489 488 490 496 496 499 495 494 501 496 493 499 499 496 496 498 498 498 498 499 498 498 504 500 495 494 501 498 498 501 502 504 509 521 510 526 502 517 504 510 508 516 505 530 513 528 520 502 495 516 499 512 505 498 504 502 520 509 480 482 509 523 534 532 498 514 462 510 0 0 0 0 0 0
0 0 0 0 0 0 0 0 0 0 0 0 0 0 0 0 0 0 0 0 0 471 471 471 479 475 478 473 475 475 478 478 480 485 481 487 483 476 477 488 486 487 490 487 488 488 487 491 493 490 496 493 493 490 495 495 492 492 493 496 494 501 494 500 495 498 497 497 498 492 497 494 499 498 501 497 494 489 485 478 503 484 473 477 483 481 474 469 486 479 481 484 477 477 503 475 479 486 470 485 492 468 478 461 462 493 470 500 477 436 471 456 441 471 0 0 0 0 0 0
0 0 0 0 0 0 0 0 0 0 0 0 0 0 0 0 0 0 0 0 0 0 477 472 475 482 477 485 481 483 479 482 489 478 484 481 487 484 486 485 488 481 487 486 487 491 495 488 495 503 493 499 493 496 493 499 495 493 493 495 498 501 500 495 499 500 499 498 497 501 501 498 500 490 498 499 491 493 505 506 512 495 493 498 497 520 509 493 501 509 499 502 504 521 492 511 517 509 509 509 536 496 496 509 527 513 496 510 524 491 511 520 519 505 0 0 0 0 0 0
0 0 0 0 0 0 0 0 0 0 0 0 0 0 0 0 0 0 0 0 0 0 500 476 469 478 478 481 483 482 480 480 479 489 478 479 482 489 496 482 486 485 483 485 484 485 486 489 493 495 493 495 493 497 491 490 495 494 495 494 498 495 494 497 494 498 503 502 494 499 500 497 502 493 501 495 499 512 508 513 522 542 522 536 527 529 516 522 537 506 539 536 519 526 531 523 502 519 517 510 475 480 507 496 517 553 527 522 498 535 539 530 500 546 0 0 0 0 0 0
0 0 0 0 0 0 0 0 0 0 0 0 0 0 0 0 0 0 0 0 0 0 523 469 474 479 478 475 478 475 478 477 483 486 484 484 485 480 481 490 484 482 484 487 491 490 490 487 493 493 485 495 490 494 494 492 495 490 492 495 496 498 495 497 495 496 501 495 492 496 496 494 494 495 492 496 497 495 493 492 496 504 508 514 510 517 518 493 517 489 515 481 499 507 526 515 512 505 510 503 486 486 509 487 503 495 471 508 495 498 482 497 499 488 406 431 0 0 0 0
0 0 0 0 0 0 0 0 0 0 0 0 0 0 0 0 0 0 0 0 0 0 621 476 478 479 475 482 475 478 479 480 482 483 485 483 484 483 483 488 487 493 487 493 493 486 493 487 497 493 495 496 494 492 494 497 490 493 494 495 499 495 498 500 493 493 495 495 504 496 497 491 494 494 496 490 497 498 515 498 525 532 509 522 510 536 508 536 515 516 521 550 538 517 525 545 517 539 522 519 508 518 546 532 548 525 476 524 520 503 538 516 503 526 506 505 0 0 0 0
0 0 0 0 0 0 0 0 0 0 0 0 0 0 0 0 0 0 0 0 0 0 0 475 470 472 478 478 476 474 478 475 478 485 477 474 477 480 478 483 486 487 487 482 488 481 491 488 495 493 487 489 494 491 489 493 491 492 496 496 495 496 494 491 497 492 491 496 497 495 501 497 497 490 491 494 490 514 496 500 499 497 487 497 485 499 500 504 503 516 497 510 514 501 492 503 484 500 472 518 495 512 510 509 508 468 509 482 508 497 491 486 482 0 0 0 0 0 0 0
0 0 0 0 0 0 0 0 0 0 0 0 0 0 0 0 0 0 0 0 0 0 0 490 475 475 474 469 473 473 473 478 476 477 482 477 480 482 482 483 481 486 490 487 484 487 488 489 490 492 496 489 489 490 493 494 491 491 497 492 493 496 495 497 493 497 497 491 495 494 499 493 497 488 497 495 486 489 486 512 492 496 482 490 485 494 498 497 491 507 487 520 488 503 510 497 489 514 506 489 508 495 518 517 487 474 486 474 487 464 486 458 454 448 0 0 0 0 0 0
0 0 0 0 0 0 0 0 0 0 0 0 0 0 0 0 0 0 0 0 0 0 0 508 470 479 476 472 470 475 477 479 482 475 480 479 483 481 479 486 482 481 490 487 485 488 491 486 490 485 492 491 489 487 497 487 497 495 488 493 498 492 493 501 497 492 496 495 494 495 495 495 492 500 493 490 488 506 495 509 514 498 503 495 501 510 523 514 506 513 518 504 508 506 512 512 504 504 513 489 527 502 520 471 502 467 486 506 486 493 502 540 482 510 0 0 0 0 0 0
0 0 0 0 0 0 0 0 0 0 0 0 0 0 0 0 0 0 0 0 0 0 0 0 471 466 468 465 472 471 474 469 472 477 478 476 477 481 478 480 478 481 483 481 487 484 488 486 491 490 490 490 489 489 493 492 489 490 488 494 492 496 488 491 494 495 493 496 491 492 493 491 489 495 490 488 491 482 481 491 482 480 476 492 491 491 504 501 486 508 494 503 493 491 488 489 487 497 475 479 477 500 491 477 457 443 455 466 461 448 452 441 441 446 444 445 0 0 0 0
0 0 0 0 0 0 0 0 0 0 0 0 0 0 0 0 0 0 0 0 0 0 0 0 549 467 468 472 474 478 476 477 473 480 482 484 479 479 481 481 484 480 479 482 487 486 488 491 485 491 490 490 492 495 495 488 495 490 490 493 489 490 494 495 497 495 497 488 490 490 497 491 493 498 496 496 493 496 491 500 492 489 494 512 488 495 498 503 516 498 503 489 494 513 520 523 499 500 526 486 511 502 468 477 505 462 481 485 484 508 506 488 478 498 502 525 0 0 0 0
0 0 0 0 0 0 0 0 0 0 0 0 0 0 0 0 0 0 0 0 0 0 0 0 0 477 471 473 470 472 468 467 480 476 478 475 475 478 482 484 478 477 487 480 487 487 486 489 486 483 493 487 486 484 486 488 494 487 488 493 495 493 495 490 492 493 495 496 491 495 494 490 496 490 493 490 486 490 487 486 491 489 488 493 490 487 503 482 486 499 521 501 492 495 512 521 497 529 506 487 524 512 507 492 510 488 459 484 485 538 495 498 479 561 0 0 0 0 0 0
0 0 0 0 0 0 0 0 0 0 0 0 0 0 0 0 0 0 0 0 0 0 0 0 0 498 474 473 466 473 470 473 476 472 479 477 477 475 481 475 480 478 482 481 482 484 481 485 487 485 490 482 487 488 488 491 492 487 489 490 487 491 493 483 488 493 496 488 490 488 492 492 495 493 496 498 488 491 489 496 493 502 494 474 491 486 481 508 493 479 501 495 497 492 493 503 504 521 512 515 504 516 457 506 456 490 477 489 473 456 452 485 458 458 0 0 0 0 0 0
0 0 0 0 0 0 0 0 0 0 0 0 0 0 0 0 0 0 0 0 0 0 0 0 0 0 489 472 466 468 467 468 473 473 475 476 476 474 477 475 479 481 479 484 484 483 485 484 485 488 486 484 490 490 492 486 483 487 491 492 486 492 488 490 490 492 490 485 495 493 494 497 489 492 485 493 484 487 490 504 496 489 489 495 482 509 515 505 487 487 514 507 518 502 501 510 510 482 493 513 520 514 528 520 527 535 504 514 512 490 520 476 544 487 0 0 0 0 0 0
0 0 0 0 0 0 0 0 0 0 0 0 0 0 0 0 0 0 0 0 0 0 0 0 0 0 0 469 472 465 467 476 474 477 470 473 474 473 478 474 480 482 477 477 480 481 480 481 482 481 480 486 483 485 485 484 484 489 483 488 490 486 487 487 490 490 489 490 488 492 490 488 488 480 491 485 474 478 489 477 478 499 492 473 497 486 506 496 495 490 477 491 503 487 472 498 484 502 488 466 490 469 490 472 474 510 460 458 468 488 507 503 479 447 0 0 0 0 0 0
0 0 0 0 0 0 0 0 0 0 0 0 0 0 0 0 0 0 0 0 0 0 0 0 0 0 0 473 473 464 466 466 475 470 471 474 474 469 474 475 473 481 477 481 480 474 481 481 482 486 483 480 482 487 484 487 484 487 487 487 485 483 487 485 483 483 488 492 488 488 489 487 483 474 485 479 478 478 479 490 490 484 488 488 483 491 485 484 501 481 483 466 486 473 497 484 493 481 490 477 491 491 476 488 484 449 430 477 452 452 437 443 452 437 441 0 0 0 0 0
0 0 0 0 0 0 0 0 0 0 0 0 0 0 0 0 0 0 0 0 0 0 0 0 0 0 0 0 519 460 459 467 469 469 473 471 475 471 475 478 476 478 476 477 478 481 481 481 478 482 483 482 487 490 486 484 486 486 489 487 483 490 485 488 483 494 490 488 486 485 486 491 474 472 486 490 481 486 496 482 481 482 490 497 492 491 496 509 494 479 490 480 488 506 495 471 468 497 501 485 480 502 500 468 448 492 491 481 468 484 477 488 500 462 483 0 0 0 0 0
0 0 0 0 0 251 229 253 247 0 0 0 0 0 0 0 0 0 0 0 0 2381 0 0 0 0 0 0 0 502 462 462 472 467 464 470 471 469 473 473 478 474 476 473 478 473 478 478 476 479 481 484 482 483 484 481 483 482 487 479 485 484 488 483 480 485 478 481 482 484 467 483 479 478 466 484 471 478 473 476 483 481 467 482 484 485 467 478 476 475 474 479 482 478 467 479 487 475 474 466 458 488 467 488 445 436 438 435 460 451 444 420 436 431 388 0 0 0 0 0
0 0 0 0 239 235 234 236 234 310 412 0 0 0 0 0 0 0 0 0 0 2331 0 0 0 0 0 0 0 0 455 464 470 466 471 473 476 473 473 469 472 478 472 469 474 481 479 474 480 479 477 485 481 480 482 487 479 485 480 484 483 485 484 489 487 485 483 488 482 483 471 483 469 481 497 486 488 480 482 475 490 474 487 490 493 482 473 483 477 473 491 483 472 483 489 494 486 465 510 492 478 495 495 491 466 477 495 485 465 472 471 481 537 0 0 0 0 0 0 0
0 0 0 227 227 230 228 221 236 238 339 0 0 0 0 0 0 0 0 0 0 0 0 0 0 0 0 0 0 0 0 474 460 465 463 466 463 470 468 473 471 472 470 469 476 477 473 474 479 480 477 482 476 477 481 479 482 479 480 481 480 482 478 482 483 478 479 474 475 491 473 474 470 493 475 489 471 479 470 476 470 480 485 484 490 489 481 478 487 481 483 481 500 467 477 501 496 468 499 492 478 468 466 467 457 451 474 469 494 465 485 468 490 434 0 0 0 0 0 0
229 223 249 296 279 274 285 227 240 232 318 0 408 405 453 417 416 421 427 411 466 451 457 453 444 441 439 453 439 457 450 462 463 471 461 460 458 468 473 471 466 467 471 470 475 475 475 469 474 479 475 478 473 480 482 475 471 478 484 479 476 483 478 480 483 481 483 476 479 478 480 480 476 471 469 470 468 473 462 475 473 467 499 474 467 480 475 478 475 471 481 472 482 475 472 470 485 463 466 484 492 463 463 460 455 459 439 457 475 458 477 451 445 440 408 458 0 0 0 0
205 222 225 226 234 268 284 239 234 265 364 425 411 405 403 418 391 405 395 405 398 421 415 416 421 421 432 444 449 451 460 462 459 457 454 452 460 458 461 459 469 462 458 464 467 467 472 477 474 469 475 472 477 474 479 475 472 470 474 475 468 477 478 473 472 473 474 478 475 469 466 472 464 466 458 466 465 462 464 472 456 459 452 463 464 458 455 451 458 449 445 462 455 454 459 455 453 451 458 460 453 448 459 446 453 476 447 443 457 449 455 456 444 462 433 445 437 521 0 0
166 192 183 218 222 225 230 225 225 311 379 355 362 372 367 361 386 388 382 384 361 385 387 404 404 405 413 418 429 430 434 439 447 438 439 442 435 445 444 446 440 447 451 448 445 451 449 451 452 451 453 452 455 453 457 456 455 456 454 463 460 457 455 459 459 459 459 456 457 453 451 445 445 443 441 434 434 430 429 428 426 414 413 420 427 432 430 424 428 414 423 415 423 425 426 392 411 421 422 431 420 417 412 419 410 394 417 411 414 399 421 400 413 405 416 414 390 392 0 413
278 259 249 220 231 223 233 233 244 342 335 323 329 331 349 341 343 345 356 350 350 348 358 378 377 383 394 404 417 416 411 421 421 433 426 433 427 424 434 429 424 431 430 431 435 435 436 440 438 440 449 438 442 441 445 445 445 442 435 440 438 442 445 445 439 437 440 432 445 437 435 439 427 423 424 414 408 401 397 402 394 405 394 377 394 397 388 399 390 397 393 395 376 398 393 391 391 390 387 397 391 385 386 380 402 395 396 367 353 378 385 395 375 384 366 367 372 366 388 0
309 290 298 235 231 236 234 247 322 289 312 308 310 324 312 317 322 316 310 322 323 317 334 350 371 360 380 396 396 396 396 402 413 410 409 408 412 418 412 413 415 420 412 416 419 418 419 424 423 419 413 413 419 420 422 421 425 425 422 425 421 422 415 422 412 422 429 419 416 412 411 410 412 407 392 397 388 373 375 371 370 364 360 367 362 359 357 362 365 370 359 370 361 364 365 373 360 375 356 370 359 382 358 368 365 366 341 356 354 372 361 343 364 364 363 366 394 389 334 388
267 266 258 260 256 253 248 269 273 288 268 266 271 282 275 280 285 291 283 278 294 299 304 315 330 345 350 367 365 371 381 393 389 383 386 391 389 393 396 390 392 385 396 395 384 391 392 393 392 393 390 394 401 396 400 389 402 393 397 395 397 392 398 395 391 385 394 391 384 398 390 386 383 390 372 363 351 344 338 332 342 326 328 333 325 329 335 325 331 328 325 326 331 324 329 325 330 317 328 330 324 321 327 331 332 343 333 338 324 316 309 343 318 333 320 331 297 315 301 282
254 255 248 249 249 246 262 259 266 280 252 262 260 271 260 258 263 261 270 276 271 295 300 295 310 321 332 342 347 360 360 371 365 365 361 362 365 368 366 368 371 369 372 381 372 371 371 365 370 375 378 376 373 377 384 380 372 383 377 380 377 378 375 374 372 378 369 374 378 369 373 369 360 368 348 336 328 320 321 305 315 295 312 301 301 312 309 304 294 306 306 302 310 314 322 310 294 293 296 303 313 313 323 310 306 306 297 304 306 311 312 316 308 318 311 304 320 310 296 328
231 236 225 233 232 235 243 245 242 242 243 248 250 249 244 244 245 238 254 245 259 264 275 281 295 292 318 327 336 330 325 334 341 341 350 344 344 344 339 345 347 346 348 348 348 346 344 349 348 342 343 348 348 358 351 356 353 349 357 354 352 352 350 345 353 350 354 351 352 346 341 343 337 333 330 326 311 300 296 291 286 276 285 275 279 274 278 283 276 272 281 284 282 286 280 274 277 277 278 281 273 279 284 285 288 278 277 281 277 266 287 304 281 294 279 295 296 290 282 302
220 213 227 227 228 219 221 219 225 229 230 228 226 233 225 226 231 236 233 244 235 246 254 265 277 290 293 292 301 309 317 311 319 315 321 317 323 326 323 324 317 325 316 319 329 327 330 335 326 330 319 325 325 331 328 325 331 324 332 330 328 325 324 325 327 327 328 327 325 323 325 327 322 309 307 299 284 273 271 271 265 266 263 266 260 259 259 259 251 250 253 265 268 260 261 257 262 254 266 263 257 259 265 263 262 260 264 265 264 283 257 277 260 257 251 258 265 262 264 276
205 205 210 222 222 207 212 219 218 217 214 213 205 219 218 225 229 223 225 228 233 230 243 259 255 273 273 283 280 286 289 296 298 294 296 303 296 307 307 306 306 301 299 308 304 299 307 303 310 313 311 299 299 310 305 301 304 304 308 300 303 310 313 303 304 310 305 307 304 306 297 300 302 292 287 279 269 261 258 254 254 252 254 249 241 249 254 241 242 243 249 254 250 252 247 245 243 242 244 248 250 251 254 244 236 246 241 244 246 257 253 253 263 265 249 259 266 270 252 290
183 195 200 201 201 202 207 211 204 201 189 197 202 185 202 191 205 191 194 194 214 224 229 231 246 240 250 260 263 260 274 264 267 276 278 278 282 285 281 287 278 280 283 288 282 278 283 283 282 288 283 283 285 283 281 282 289 285 283 284 284 285 290 288 282 288 289 285 283 284 282 280 280 273 265 262 251 246 243 235 239 229 226 229 228 222 225 221 228 232 229 228 233 225 222 225 230 222 223 228 224 223 224 234 230 216 225 236 229 222 230 240 239 226 254 230 231 222 231 239
180 179 177 178 184 183 204 200 177 178 180 182 182 182 181 176 181 185 192 192 213 210 219 227 228 233 238 245 243 248 251 255 257 261 260 261 260 257 267 263 265 262 262 269 267 262 267 273 265 268 264 265 265 268 263 267 265 272 266 278 270 266 270 271 265 265 266 269 264 265 262 259 256 252 252 239 239 235 231 220 217 221 216 220 219 221 219 217 215 202 217 218 220 213 215 209 217 198 212 221 216 219 212 216 211 205 212 216 217 210 219 232 236 226 206 220 234 217 224 218
172 169 170 173 178 181 179 174 178 176 183 181 184 177 177 186 180 186 178 186 181 191 193 210 217 219 223 223 229 229 235 244 247 237 240 243 239 244 249 243 245 246 246 251 248 253 249 246 245 253 247 252 244 246 244 247 249 252 248 250 250 250 250 248 242 249 251 248 244 246 246 244 238 241 238 224 223 219 193 218 195 196 188 186 186 191 197 202 195 189 190 192 190 182 186 188 189 187 186 190 187 186 191 180 186 192 190 199 188 207 202 210 213 202 202 209 211 198 199 210
165 167 174 179 172 176 171 170 174 175 173 175 173 174 175 179 174 183 189 181 188 190 187 195 193 205 211 218 216 219 230 227 224 227 228 226 230 233 227 230 225 229 232 235 234 235 227 226 236 234 233 234 233 231 231 233 235 237 236 236 235 239 239 235 235 236 234 227 232 229 233 230 230 227 220 214 197 211 193 194 193 191 194 192 190 185 195 187 192 195 186 189 192 188 186 192 190 185 188 180 186 176 179 184 188 180 184 182 185 179 176 179 181 188 189 198 202 199 194 174
163 168 172 174 171 166 170 174 170 166 168 169 163 166 173 168 172 170 171 186 177 184 180 191 188 181 187 189 189 210 196 213 209 212 213 213 213 200 215 200 216 221 219 218 219 226 220 220 221 222 216 222 220 221 221 223 216 221 220 224 222 223 224 218 219 215 220 215 224 221 221 216 220 212 194 189 185 196 190 190 189 183 188 185 184 182 185 187 187 179 183 182 181 183 185 179 180 179 178 187 184 187 183 183 181 182 180 178 178 182 182 175 175 178 195 178 176 175 191 205
152 158 162 161 164 164 157 160 160 163 161 157 160 163 165 164 161 171 168 175 173 175 183 184 184 185 185 193 193 190 183 184 184 184 184 191 187 187 190 194 196 194 187 195 197 199 196 199 196 196 201 195 200 196 197 195 194 196 193 196 197 200 200 194 193 200 194 198 196 195 196 195 193 189 196 196 196 188 186 180 175 177 178 176 175 177 174 177 178 176 175 174 169 170 176 172 170 170 171 172 171 174 177 170 175 172 168 163 171 171 165 174 177 179 177 172 168 176 164 171
143 151 155 153 157 158 153 157 156 159 160 156 157 153 157 158 158 161 155 166 162 166 175 176 178 179 177 180 186 185 190 185 192 190 189 186 190 194 189 193 195 196 191 197 194 197 196 197 196 192 195 188 198 195 198 196 198 194 197 201 200 195 200 197 195 194 196 197 188 194 193 193 191 193 191 183 185 183 177 171 172 173 167 162 166 167 172 167 170 166 168 168 170 168 173 168 164 162 164 170 167 163 176 169 164 160 162 163 168 167 165 167 170 179 175 163 168 168 174 154
148 145 148 144 149 148 149 151 151 156 152 152 153 156 151 153 154 153 154 159 161 166 166 170 171 171 173 174 175 184 179 177 183 182 180 181 184 180 183 184 186 186 188 188 186 187 188 185 189 186 187 192 189 187 188 186 188 190 0 190 190 187 187 188 191 188 189 189 186 189 187 183 181 183 176 178 178 174 172 165 160 159 161 158 160 162 167 158 162 166 162 167 163 162 163 160 157 160 166 163 161 163 164 157 159 157 158 159 163 161 156 163 158 162 163 172 168 163 168 175
135 140 139 137 140 150 147 144 146 141 145 143 144 146 143 150 147 144 144 148 160 158 161 164 163 169 169 170 168 172 172 172 175 175 174 174 176 174 172 174 172 180 177 177 176 179 177 177 178 179 177 178 180 179 182 180 182 0 0 182 179 181 181 178 181 180 175 180 178 175 174 177 173 175 173 173 169 167 165 161 161 156 155 156 159 157 154 152 156 155 151 153 160 157 153 155 155 153 155 154 155 154 151 153 153 147 144 148 161 155 156 151 148 148 148 156 151 152 157 157
137 133 131 136 141 141 149 142 143 138 141 141 144 143 142 142 138 147 146 146 148 153 154 157 162 158 164 160 168 166 166 166 169 167 162 169 168 169 170 170 172 0 171 0 172 174 174 172 174 173 175 170 176 174 176 0 173 173 0 0 173 0 0 176 173 172 173 170 174 171 169 165 170 168 167 163 168 158 155 151 147 154 152 151 155 152 153 147 152 154 147 153 149 153 149 147 154 150 154 146 149 145 148 148 148 145 141 142 146 146 147 145 150 153 150 155 148 166 153 170
128 121 130 115 134 136 143 137 133 123 133 131 137 134 140 136 137 136 137 140 139 145 150 151 148 157 159 154 155 162 162 157 159 158 158 157 162 162 0 0 0 0 0 0 0 0 0 163 166 165 167 166 170 169 0 0 0 168 168 0 0 0 0 0 166 166 166 0 164 166 163 163 159 160 157 160 154 155 149 146 147 144 149 147 140 150 145 144 144 146 145 143 143 148 140 140 143 146 142 142 136 144 139 141 137 139 140 134 141 148 142 145 149 155 147 137 134 147 138 141
124 116 123 116 128 131 131 130 134 131 127 130 126 133 132 125 122 140 135 135 139 140 147 147 149 149 154 151 152 153 153 152 157 158 152 154 154 0 0 0 0 0 0 0 0 0 0 0 0 160 164 160 0 0 0 0 0 0 0 0 0 0 0 0 159 0 0 0 0 0 0 158 157 156 154 151 153 149 149 146 139 140 144 141 143 140 141 137 147 139 137 141 141 139 138 138 143 141 139 139 135 134 136 135 131 133 133 133 139 136 130 147 138 136 133 134 134 125 133 157
113 105 119 125 127 127 131 129 130 129 131 124 120 119 119 129 125 124 133 135 134 135 133 145 140 140 144 146 144 148 151 148 151 152 152 148 0 0 0 0 0 0 0 0 0 0 0 0 153 155 156 0 0 0 0 0 0 0 0 0 0 0 0 0 0 0 0 0 0 0 0 0 149 151 150 147 146 143 142 144 126 141 126 138 125 128 136 137 137 132 138 138 132 126 121 130 141 137 134 133 130 136 131 123 132 133 133 126 137 140 137 137 134 141 141 135 133 131 119 140
102 109 114 111 107 116 121 119 116 120 114 113 115 115 124 123 123 129 119 119 133 124 128 123 135 138 138 139 141 145 147 143 143 145 148 143 0 0 0 0 0 0 0 0 0 0 0 0 0 0 0 0 0 0 0 0 0 0 0 0 0 0 0 0 0 0 0 0 0 0 0 0 145 141 140 142 140 132 128 139 126 121 123 121 125 121 126 123 122 128 121 135 117 125 125 135 124 132 121 116 119 130 131 119 120 130 115 128 129 131 125 138 118 118 123 132 110 104 111 132
110 109 113 119 112 117 121 125 121 118 114 116 113 117 118 121 119 120 123 117 119 116 121 115 131 127 138 130 0 136 0 0 0 139 141 0 0 0 0 0 0 0 0 0 0 0 0 0 0 0 0 0 0 0 0 0 0 0 0 0 0 0 0 0 0 0 0 0 0 0 0 0 0 143 138 126 124 124 121 124 123 120 121 128 118 119 116 120 120 118 118 122 116 116 113 122 118 118 122 119 118 134 117 125 119 118 128 124 125 130 119 110 122 120 120 118 103 139 147 143
103 100 111 111 104 104 107 109 101 106 111 106 106 105 107 108 107 116 114 112 113 117 111 116 121 123 124 119 0 126 0 0 0 0 0 0 0 0 0 0 0 0 0 0 0 0 0 0 0 0 0 0 0 0 0 0 0 0 0 0 0 0 0 0 0 0 0 0 0 0 0 0 0 0 0 121 121 119 122 119 114 115 108 115 111 118 110 110 110 116 114 116 113 112 112 108 112 116 113 110 118 113 112 116 110 119 112 126 123 111 113 114 114 125 117 105 107 133 117 158
97 100 92 96 100 102 103 100 102 104 102 101 103 106 107 104 106 111 115 108 108 109 107 107 116 111 117 119 122 122 127 127 0 0 0 0 0 0 0 0 0 0 0 0 0 0 0 0 0 0 0 0 0 0 0 0 0 0 0 0 0 0 0 0 0 0 0 0 0 0 0 0 0 123 0 117 122 114 115 110 114 111 104 106 112 109 108 116 106 108 114 111 114 112 106 117 104 110 103 119 109 108 111 105 105 114 116 113 112 112 104 99 112 96 105 124 128 106 107 120
96 102 100 102 98 100 105 93 95 98 95 98 105 99 99 93 107 101 113 115 111 109 97 107 113 107 115 115 114 121 121 116 127 0 0 0 0 0 0 0 0 0 0 0 0 0 0 0 0 0 0 0 0 0 0 0 0 0 0 0 0 0 0 0 0 0 0 0 0 0 0 0 122 123 0 120 114 117 117 118 107 113 106 122 110 107 103 106 101 103 105 108 113 92 100 102 108 101 114 104 103 111 111 108 109 107 113 93 105 97 103 105 106 100 105 100 130 126 115 123
89 84 83 87 81 84 84 95 90 84 89 94 95 93 91 88 81 93 90 87 92 85 101 105 102 101 113 109 0 0 108 107 117 0 0 0 0 0 0 0 0 0 0 0 0 0 0 0 0 0 0 0 0 0 0 0 0 0 0 0 0 0 0 0 0 0 0 0 0 0 0 114 113 112 107 112 104 106 102 102 99 105 98 89 102 98 87 101 108 99 91 94 105 81 88 96 93 101 84 92 91 98 94 88 87 87 101 89 93 89 89 76 85 87 106 104 86 95 109 106
95 85 90 89 98 95 96 107 95 96 94 93 90 91 95 98 100 91 101 96 97 107 106 102 105 105 111 109 0 106 108 107 117 111 121 109 0 0 0 0 0 117 0 0 0 0 0 0 0 0 0 0 0 0 0 0 0 0 0 0 114 0 0 0 115 0 0 0 111 0 108 112 113 109 116 108 110 109 105 97 111 105 104 89 98 101 107 105 100 103 106 109 108 99 101 106 100 96 100 110 105 98 95 100 98 102 100 85 91 85 91 95 93 98 100 81 95 99 123 110
86 92 93 89 99 96 90 91 82 95 86 89 88 92 88 85 98 99 96 98 99 93 100 113 92 105 106 100 104 108 96 0 108 102 99 105 0 116 115 0 109 0 0 0 0 0 0 0 0 0 0 0 0 0 0 0 0 110 0 0 108 105 104 110 116 113 106 102 113 107 106 103 104 104 116 108 101 91 104 98 97 94 101 86 97 90 95 105 104 97 97 103 108 88 86 84 89 93 98 88 96 86 94 98 86 89 105 91 96 86 97 97 92 101 93 89 110 112 140 124
85 87 83 86 92 91 105 90 84 82 89 89 84 91 93 90 92 89 89 89 80 91 95 85 85 92 93 93 102 87 95 99 97 97 93 112 100 104 104 104 103 102 100 107 108 90 0 0 97 0 0 107 108 92 99 109 106 99 110 106 100 104 109 103 99 113 104 100 99 109 98 109 105 98 103 92 98 97 102 92 93 98 93 96 96 92 90 89 96 96 100 87 92 93 94 89 88 92 92 84 88 89 95 91 87 90 99 85 85 96 89 92 93 102 84 91 107 92 104 112
84 80 87 87 84 89 97 103 89 83 84 81 92 84 81 93 91 93 90 98 84 96 95 93 91 98 95 91 98 101 96 85 98 96 100 98 98 103 92 108 102 95 97 106 100 99 105 0 106 0 99 105 97 96 102 101 103 107 99 108 105 94 98 101 104 101 101 104 96 103 96 101 100 95 104 85 95 97 94 97 97 95 94 92 96 96 88 86 93 87 95 99 91 92 94 92 94 93 103 89 90 98 82 91 87 96 91 96 90 84 87 95 101 94 87 113 117 91 126 72
82 74 70 69 79 85 87 89 89 80 89 83 85 80 91 86 87 87 85 82 86 85 93 89 87 86 94 95 86 95 91 93 82 94 98 95 94 86 94 84 93 89 88 93 87 95 93 103 97 93 95 85 97 90 90 85 101 91 100 98 96 98 82 97 99 81 98 95 98 98 95 86 95 94 85 96 93 92 95 93 84 95 85 90 84 95 94 88 87 89 92 84 87 82 86 86 83 81 81 89 83 89 80 73 84 82 90 85 81 90 76 89 87 86 125 112 142 115 132 72
74 74 84 87 72 82 90 88 84 81 84 90 77 82 86 86 88 88 80 89 84 91 87 84 87 94 92 84 93 88 94 97 90 95 96 89 95 95 89 93 96 82 95 89 88 99 92 86 100 89 93 87 97 85 103 98 91 97 91 95 100 85 88 92 92 95 90 96 105 93 96 94 84 96 93 83 97 96 86 95 91 90 92 88 79 85 90 81 94 92 76 90 78 82 89 83 88 90 83 84 83 83 81 77 80 82 83 81 82 92 85 94 88 102 91 85 72 81 100 154
