0 0 0 0 0 0 0 0 0 0 0 0 0 0 0 0 0 0 0 0 0 0 0 0 0 0 0 0 0 0 0 0 0 0 0 0 0 0 0 0 0 0 0 0 0 0 0 0 0 0 0 0 0 0 0 0 0 0 0 0 0 0 0 0 0 0 0 0 0 0 0 0 0 0 0 0 0 0 0 0 0 0 0 0 0 0 0 0 0 0 0 0 0 0 0 0 0 0 0 0 0 0 0 0 0 0 0 0 0 0 0 0 0 0 0 0 0 0 0 0
0 0 0 0 0 0 0 0 0 0 0 0 0 0 0 0 0 0 0 0 0 0 0 0 0 0 0 0 0 0 0 0 0 0 0 0 0 0 0 0 0 0 0 0 0 0 0 0 0 0 0 0 0 0 0 0 0 0 0 0 0 0 0 0 0 0 0 0 0 0 0 0 0 0 0 0 0 0 0 0 0 0 0 0 0 0 0 0 0 0 0 0 0 0 0 0 0 0 0 0 0 0 0 0 0 0 0 0 0 0 0 0 0 0 0 0 0 0 0 0
0 0 0 0 0 0 0 0 0 0 0 0 0 0 0 0 0 0 0 0 0 0 0 0 0 0 0 0 0 0 0 0 0 0 0 0 0 0 0 0 0 0 0 0 0 0 0 0 0 0 0 0 0 0 0 0 0 0 0 0 0 0 0 0 0 0 0 0 0 0 0 0 0 0 0 0 0 0 0 0 0 0 0 0 0 0 0 0 0 0 0 0 0 0 0 0 0 0 0 0 0 0 0 0 0 0 0 0 0 0 0 0 0 0 0 0 0 0 0 0
0 0 0 0 0 0 0 0 0 0 0 0 0 0 0 0 0 0 0 0 0 0 0 0 0 0 0 0 0 0 0 0 0 0 0 0 0 0 0 0 0 0 0 0 0 0 0 0 0 0 0 0 0 0 0 0 0 0 0 0 0 0 0 0 0 0 0 0 0 0 0 0 0 0 0 0 0 0 0 0 0 0 0 0 0 0 0 0 0 0 0 0 0 0 0 0 0 0 0 0 0 0 0 0 0 0 0 0 0 0 0 0 0 0 0 0 0 0 0 0
0 0 0 0 0 0 0 0 0 0 0 0 0 0 0 0 0 0 0 0 0 0 0 0 0 0 0 0 0 0 0 0 0 0 0 0 0 0 0 0 0 0 0 0 0 0 0 0 0 0 0 0 0 0 0 0 0 0 0 0 0 0 0 0 0 0 0 0 0 0 0 0 0 0 0 0 0 0 0 0 0 0 0 0 0 0 0 0 0 0 0 0 0 0 0 0 0 0 0 0 0 0 0 0 0 0 0 0 0 0 0 0 0 0 0 0 0 0 0 0
0 0 0 0 0 0 0 0 0 0 0 0 0 0 0 0 0 0 0 0 0 0 0 0 0 0 0 0 0 0 0 0 0 0 0 0 0 0 0 500 515 496 505 514 486 496 504 514 485 493 485 477 487 480 472 0 0 0 0 0 0 0 0 0 0 0 0 0 0 0 0 0 0 0 0 0 0 0 0 0 0 0 0 0 0 0 0 0 0 0 0 0 0 0 0 0 0 0 0 0 0 0 0 0 0 0 0 0 0 0 0 0 0 0 0 0 0 0 0 0
0 0 0 0 0 0 0 0 0 0 0 0 0 0 0 0 0 0 0 0 0 0 0 0 0 0 0 0 0 0 0 0 0 0 0 0 0 522 544 502 504 499 513 496 511 516 510 510 524 531 504 513 514 495 519 515 520 508 554 492 0 0 0 0 0 0 0 0 0 0 0 0 0 0 0 0 0 0 0 0 0 0 0 0 0 0 0 0 0 0 0 0 0 0 0 0 0 0 0 0 0 0 0 0 0 0 0 0 0 0 0 0 0 0 0 0 0 0 0 0
0 0 0 0 0 0 0 0 0 0 0 0 0 0 0 0 0 0 0 0 0 0 0 0 0 0 0 0 0 0 0 0 0 0 0 502 509 507 493 488 503 497 492 508 496 497 505 515 512 515 501 511 512 515 508 516 501 510 495 498 522 498 499 512 478 0 0 0 0 0 0 0 0 0 0 0 0 0 0 0 0 0 0 0 0 0 0 0 0 0 0 0 0 0 0 0 0 0 0 0 0 0 0 0 0 0 0 0 0 0 0 0 0 0 0 0 0 0 0 0
0 0 0 0 0 0 0 0 0 0 0 0 0 0 0 0 0 0 0 0 0 0 0 0 0 0 0 0 0 0 0 0 0 468 487 508 497 502 489 494 514 501 503 507 498 499 499 510 504 512 504 497 507 500 498 505 507 501 515 514 501 498 505 515 503 500 501 522 524 535 549 559 526 0 522 567 574 590 543 506 0 0 0 0 0 0 0 0 0 0 0 0 0 0 0 0 0 0 0 0 0 0 0 0 0 0 0 0 0 0 0 0 0 0 0 0 0 0 0 0
0 0 0 0 0 0 0 0 0 0 0 0 0 0 0 0 0 0 0 0 0 0 0 0 0 0 0 0 0 0 0 545 495 505 494 505 503 504 510 491 505 504 506 515 505 510 503 521 511 503 516 509 514 509 503 509 504 499 506 517 508 512 503 515 499 513 502 511 566 534 591 581 575 597 589 632 624 618 596 586 601 596 614 683 624 613 540 594 605 594 597 638 587 597 586 600 594 568 613 627 643 614 603 583 0 0 0 0 0 0 0 0 0 0 0 0 0 0 0 0
0 0 0 0 0 0 0 0 0 0 0 0 0 0 0 0 0 0 0 0 0 0 0 0 0 0 0 0 0 0 507 487 503 504 474 501 504 492 499 506 506 497 499 501 502 500 493 512 510 503 498 508 498 502 494 520 505 502 501 509 507 503 513 513 504 502 513 506 507 506 549 533 594 577 556 583 545 572 555 566 581 605 579 547 573 576 558 514 568 569 542 568 571 575 526 549 554 598 559 516 537 517 594 573 585 593 543 0 0 0 0 0 0 0 0 0 0 0 0 0
0 0 0 0 0 0 0 0 0 0 0 0 0 0 0 0 0 0 0 0 0 0 0 0 0 0 0 0 449 482 506 502 504 503 504 492 500 502 504 507 510 504 492 501 509 511 504 495 497 500 498 497 513 514 499 505 514 504 494 508 506 499 507 516 505 500 506 511 507 519 518 543 533 557 575 556 535 557 555 558 595 557 552 583 569 585 528 561 546 560 605 521 533 533 566 587 563 545 580 566 553 552 562 548 546 547 543 599 538 0 0 0 0 0 0 0 0 0 0 0
0 0 0 0 0 0 0 0 0 0 0 0 0 0 0 0 0 0 0 0 0 0 0 0 0 0 0 492 499 512 508 496 510 503 489 505 506 499 502 507 514 513 503 512 510 505 506 503 512 508 512 508 500 509 508 512 497 511 505 513 511 507 509 522 512 508 509 515 508 511 517 527 553 555 598 563 577 560 598 583 566 549 599 578 558 591 598 576 593 575 581 577 599 610 585 605 624 577 601 584 609 607 539 562 589 548 559 641 571 0 0 0 0 0 0 0 0 0 0 0
0 0 0 0 0 0 0 0 0 0 0 0 0 0 0 0 0 0 0 0 0 0 0 0 0 0 485 493 497 491 499 497 495 485 493 497 494 502 503 495 498 501 495 508 492 503 494 503 498 503 501 498 505 497 502 499 506 499 510 505 506 504 506 501 507 512 508 501 502 511 511 515 522 566 535 543 523 511 545 527 540 537 565 545 548 497 514 533 539 521 534 557 541 527 540 516 521 533 563 492 542 486 602 539 502 506 601 501 581 0 0 0 0 0 0 0 0 0 0 0
0 0 0 0 0 0 0 0 0 0 0 0 0 0 0 0 0 0 0 0 0 0 0 0 0 489 507 483 499 494 496 498 503 499 492 499 503 498 508 493 510 493 496 499 501 506 500 503 498 500 506 511 506 504 506 506 506 499 509 502 505 509 509 512 509 510 507 506 513 513 521 513 499 547 572 569 569 579 568 586 583 570 561 563 547 555 583 585 562 543 612 592 573 564 543 559 555 573 553 585 587 574 601 540 577 568 555 579 580 611 611 0 0 0 0 0 0 0 0 0
0 0 0 0 0 0 0 0 0 0 0 0 0 0 0 0 0 0 0 0 0 0 0 0 0 471 496 491 495 495 494 497 495 501 490 492 496 497 499 492 499 496 504 503 494 503 503 500 496 495 505 507 506 496 495 501 506 500 505 509 502 504 508 510 508 506 507 507 508 503 522 509 503 514 554 541 513 527 530 560 513 523 530 533 518 507 559 573 526 540 568 548 544 570 545 542 565 525 597 560 525 519 537 527 484 539 535 578 576 530 0 0 495 599 0 0 0 0 0 0
0 0 0 0 0 0 0 0 0 0 0 0 0 0 0 0 0 0 0 0 0 0 0 0 455 482 490 487 484 490 491 487 494 488 495 499 496 490 492 494 493 492 494 502 489 499 495 495 493 504 496 497 504 509 496 504 500 501 501 503 502 498 504 504 507 508 512 497 506 499 509 509 496 507 518 493 513 550 538 492 520 515 515 510 515 507 483 531 557 527 532 522 513 484 498 525 539 541 540 501 517 509 526 499 546 533 515 533 506 510 478 0 0 0 0 0 0 0 0 0
0 0 0 0 0 0 0 0 0 0 0 0 0 0 0 0 0 0 0 0 0 0 0 0 488 491 505 486 503 502 495 488 490 492 496 492 504 497 496 506 496 496 506 500 491 501 502 508 506 504 500 505 504 506 503 504 502 510 503 497 508 506 508 502 502 509 506 510 506 506 501 514 505 514 515 535 560 554 557 559 546 567 551 514 539 569 552 580 547 527 580 568 576 552 568 554 576 572 562 554 596 577 569 559 563 549 582 539 553 583 522 0 0 0 0 0 0 0 0 0
0 0 0 0 0 0 0 0 0 0 0 0 0 0 0 0 0 0 0 0 0 0 0 455 499 491 484 484 487 488 485 493 497 496 486 488 493 489 494 484 499 492 507 491 497 499 503 501 500 496 502 496 500 501 509 499 502 495 495 498 511 493 503 497 502 497 510 501 509 511 505 493 493 505 510 500 503 511 522 522 483 515 511 502 515 519 481 502 501 517 531 507 516 511 508 464 506 505 504 501 508 525 489 506 499 485 490 493 479 489 469 0 0 0 0 0 0 0 0 0
0 0 0 0 0 0 0 0 0 0 0 0 0 0 0 0 0 0 0 0 0 0 0 500 488 490 490 494 496 495 490 493 492 497 488 493 483 493 491 495 487 493 501 503 503 499 500 505 500 503 496 503 495 492 492 505 503 506 502 495 503 507 507 495 504 506 503 502 501 507 507 509 503 505 504 503 521 495 538 516 542 533 522 511 554 519 522 521 536 522 525 509 533 527 549 485 508 531 527 545 510 537 509 554 493 514 525 494 515 473 504 0 0 0 0 0 0 0 0 0
0 0 0 0 0 0 0 0 0 0 0 0 0 0 0 0 0 0 0 0 0 0 475 491 495 492 491 489 489 492 494 492 490 496 499 492 497 495 490 492 493 499 501 499 498 496 503 501 503 504 496 502 502 504 508 504 508 501 501 504 505 501 509 508 503 508 500 512 510 509 508 507 506 499 500 505 513 538 526 563 555 549 548 563 557 518 543 545 557 542 555 546 540 548 531 563 529 541 557 534 553 524 514 528 536 556 562 546 578 535 544 553 514 0 0 0 0 0 0 0
0 0 0 0 0 0 0 0 0 0 0 0 0 0 0 0 0 0 0 0 0 0 491 486 484 482 491 494 492 497 489 480 493 486 499 493 495 491 495 490 496 489 490 501 491 498 504 492 496 496 503 501 498 493 499 502 498 500 499 505 500 502 501 504 508 511 514 514 507 498 499 502 510 513 502 506 511 515 528 519 505 500 506 505 527 490 532 506 499 533 526 537 503 525 511 503 513 508 525 552 511 513 519 522 511 516 492 556 532 488 512 0 0 0 0 0 0 0 0 0
0 0 0 0 0 0 0 0 0 0 0 0 0 0 0 0 0 0 0 0 0 0 529 488 491 487 493 489 491 482 488 485 497 494 489 489 493 498 492 491 491 491 495 495 495 505 493 496 503 502 496 498 513 491 500 502 507 507 504 508 505 502 510 506 505 506 506 510 508 497 503 507 511 501 515 506 509 512 524 540 527 536 534 537 535 526 527 570 486 555 527 541 520 528 550 542 556 544 520 529 548 505 556 533 536 566 569 573 594 545 565 587 542 534 0 0 0 0 0 0
0 0 0 0 0 0 0 0 0 0 0 0 0 0 0 0 0 0 0 0 0 0 489 491 484 492 490 498 486 489 494 492 493 487 491 491 485 489 496 486 495 496 496 498 489 493 494 501 502 496 503 510 503 501 495 501 501 500 503 503 504 504 505 502 504 506 507 508 506 505 506 510 505 501 509 502 502 528 511 538 499 504 517 511 538 530 523 497 514 533 539 530 547 515 547 509 483 552 535 517 542 545 529 520 534 533 518 531 545 487 551 505 525 0 0 0 0 0 0 0
0 0 0 0 0 0 0 0 0 0 0 0 0 0 0 0 0 0 0 0 0 0 486 474 483 486 482 485 492 496 487 485 489 485 490 486 488 491 487 487 496 484 505 496 495 497 493 499 497 492 502 502 491 496 502 500 504 494 503 496 496 504 497 502 502 503 499 503 506 503 495 504 510 502 500 509 506 503 513 504 513 515 486 494 525 503 499 521 489 503 508 509 490 475 499 485 485 508 520 495 458 515 523 516 512 499 531 486 502 486 501 513 467 0 0 0 0 0 0 0
0 0 0 0 0 0 0 0 0 0 0 0 0 0 0 0 0 0 0 0 0 0 469 476 495 490 490 489 492 492 498 492 487 489 494 488 489 488 501 491 494 493 497 495 495 494 495 496 501 496 500 501 500 501 499 505 503 497 499 501 508 500 502 503 501 503 503 497 501 509 497 511 506 503 509 509 509 513 527 557 539 509 554 528 516 530 522 544 550 540 515 549 529 539 523 535 524 535 525 548 515 549 499 533 538 556 502 546 546 551 543 556 492 575 0 0 0 0 0 0
0 0 0 0 0 0 0 0 0 0 0 0 0 0 0 0 0 0 0 0 0 393 467 487 482 478 489 489 492 479 475 485 480 486 498 484 499 493 492 496 488 500 488 493 494 492 495 495 492 501 495 493 494 499 500 499 496 497 500 499 498 497 502 502 500 497 503 504 498 497 504 504 499 502 504 508 508 510 481 513 515 493 503 491 487 496 505 502 493 523 505 505 483 499 512 451 481 502 494 516 500 513 434 517 455 513 492 485 462 488 482 0 0 0 0 0 0 0 0 0
0 0 0 0 0 0 0 0 0 0 0 0 0 0 0 0 0 0 0 0 0 467 487 472 482 490 481 475 477 483 481 487 488 491 495 492 488 490 493 488 494 496 492 498 492 490 491 493 502 499 494 502 502 496 497 499 499 500 499 503 505 493 493 496 502 500 507 503 500 504 499 503 495 503 500 500 497 488 505 502 514 508 502 479 515 497 499 479 489 500 518 482 517 506 495 518 495 521 505 514 527 472 533 460 514 526 476 506 518 497 502 463 0 0 0 0 0 0 0 0
0 0 0 0 0 0 0 0 0 0 0 0 0 0 0 0 0 0 0 0 0 486 483 477 481 475 492 489 488 480 490 487 488 487 490 493 485 488 486 496 497 495 491 495 490 496 496 496 495 498 493 497 494 500 498 501 500 502 503 499 510 506 505 502 501 506 512 502 503 502 505 503 496 509 512 498 502 498 524 517 508 514 528 530 511 518 492 515 523 519 532 514 510 520 501 514 500 520 527 530 513 541 500 526 528 543 573 558 571 520 618 575 528 0 0 0 0 0 0 0
0 0 0 0 0 0 0 0 0 0 0 0 0 0 0 0 0 0 0 0 0 440 475 476 482 477 486 479 478 485 480 486 480 484 486 487 488 484 492 487 491 488 493 493 490 495 492 488 492 496 495 499 499 501 495 498 498 502 501 497 493 503 501 499 495 494 504 505 500 499 502 501 502 506 502 501 505 503 518 509 509 505 496 511 497 497 483 505 489 495 495 483 508 491 510 524 505 466 497 502 506 515 475 476 513 485 483 500 504 503 503 477 498 0 0 0 0 0 0 0
0 0 0 0 0 0 0 0 0 0 0 0 0 0 0 0 0 0 0 0 0 467 486 477 491 480 491 482 487 487 488 491 487 490 496 488 486 489 489 487 487 496 489 489 495 488 493 495 494 498 495 501 494 501 494 493 493 498 495 496 503 504 499 501 500 502 498 499 505 506 503 506 503 502 499 499 501 510 525 519 508 516 497 522 545 514 532 542 525 510 556 539 536 517 503 519 514 526 518 491 555 509 490 518 539 523 530 499 529 529 518 512 511 0 0 0 0 0 0 0
0 0 0 0 0 0 0 0 0 0 0 0 0 0 0 0 0 0 0 0 0 454 474 484 485 482 482 475 482 481 486 484 482 484 493 485 486 488 489 487 492 490 486 487 492 488 492 498 491 494 494 497 493 497 499 495 497 501 498 503 497 499 496 499 500 508 506 510 499 503 506 503 501 505 503 497 505 503 501 507 512 518 517 494 511 494 520 507 511 491 499 527 499 522 515 519 504 478 487 512 511 500 499 479 518 533 523 505 528 525 537 512 516 494 0 0 0 0 0 0
0 0 0 0 0 0 0 0 0 0 0 0 0 0 0 0 0 0 0 0 0 467 470 478 468 480 476 481 481 484 482 479 482 475 482 484 487 488 481 492 488 487 486 495 492 488 487 494 495 492 496 492 491 495 492 494 494 496 497 498 495 496 498 498 499 503 497 494 499 504 505 497 500 498 493 503 497 491 497 488 490 502 504 486 501 523 525 507 490 497 499 484 482 528 473 502 469 475 519 508 529 506 481 499 504 518 516 476 447 483 498 527 434 479 0 0 0 0 0 0
0 0 0 0 0 0 0 0 0 0 0 0 0 0 0 0 0 0 0 0 0 496 479 478 477 478 482 479 479 483 485 486 481 482 482 483 486 488 485 489 487 486 487 490 490 495 490 494 493 489 490 495 494 492 498 496 501 499 494 495 503 495 498 496 499 499 496 499 501 499 499 498 493 496 498 497 500 495 510 503 513 503 495 514 500 514 516 512 510 512 512 511 520 506 507 511 506 514 500 530 532 517 511 515 512 473 505 494 525 504 526 528 498 0 0 0 0 0 0 0
0 0 0 0 0 0 0 0 0 0 0 0 0 0 0 0 0 0 0 0 0 445 470 479 473 477 478 472 483 481 480 484 484 487 482 487 485 486 486 488 489 487 492 489 492 491 487 495 495 487 492 492 498 495 491 490 496 499 496 494 494 501 501 494 498 498 498 499 495 495 500 502 500 501 496 497 498 502 495 485 493 521 489 499 488 492 503 518 494 491 486 500 476 488 500 497 477 489 503 505 480 471 511 486 523 500 454 494 485 469 466 506 464 497 0 0 0 0 0 0
0 0 0 0 0 0 0 0 0 0 0 0 0 0 0 0 0 0 0 0 0 465 468 473 466 477 478 474 474 477 477 481 478 478 482 481 483 482 486 481 485 491 484 488 486 487 490 491 489 495 491 491 492 492 495 492 489 497 494 494 495 496 495 496 497 507 500 499 496 500 496 493 499 495 493 496 496 497 506 504 498 501 496 494 497 512 511 487 494 485 483 499 508 496 481 526 500 492 489 486 500 501 502 511 521 488 502 483 493 494 496 496 546 449 0 0 0 0 0 0
0 0 0 0 0 0 0 0 0 0 0 0 0 0 0 0 0 0 0 0 0 476 472 476 474 472 481 477 475 484 480 487 484 482 487 484 485 484 480 484 483 488 489 482 491 495 490 493 490 492 494 494 493 497 494 492 496 496 493 494 498 502 498 503 497 495 496 496 501 496 496 492 502 499 495 497 492 498 509 501 502 516 505 507 509 503 499 501 504 506 482 499 507 500 529 510 501 520 507 508 515 515 519 474 496 539 517 486 482 514 474 491 546 559 0 0 0 0 0 0
0 0 0 0 0 0 0 0 0 0 0 0 0 0 0 0 0 0 0 0 0 0 468 471 477 478 471 478 478 475 475 479 488 480 479 477 489 485 483 485 487 482 489 485 488 489 493 492 492 494 491 494 490 491 497 493 489 495 492 490 493 503 493 498 497 501 495 494 491 497 495 500 497 496 493 496 490 505 494 495 483 498 510 492 502 497 502 494 506 494 491 501 500 492 504 502 491 502 499 501 485 488 519 483 512 498 487 489 497 482 458 475 478 481 0 0 0 0 0 0
0 0 0 0 0 0 0 0 0 0 0 0 0 0 0 0 0 0 0 0 0 0 504 480 477 476 477 475 476 477 479 474 480 478 485 479 484 487 484 487 487 486 487 488 486 491 486 491 492 491 490 495 492 494 491 495 496 491 489 498 493 496 494 494 502 499 494 500 492 497 504 493 501 498 497 497 495 506 499 521 535 512 518 556 521 535 528 499 537 522 555 517 523 495 532 522 537 534 531 501 511 517 501 547 501 506 520 512 529 538 513 554 521 494 0 0 0 0 0 0
0 0 0 0 0 0 0 0 0 0 0 0 0 0 0 0 0 0 0 0 0 0 539 470 470 473 478 478 477 478 478 481 485 482 484 482 484 486 479 483 488 485 486 488 488 489 492 486 490 495 492 498 489 493 490 496 492 489 496 495 494 493 499 493 494 498 499 498 490 495 497 496 498 497 491 497 495 494 485 485 504 515 517 517 517 503 510 510 521 531 531 517 505 521 505 511 520 485 493 522 495 526 517 488 483 496 489 523 514 491 508 524 474 489 513 467 0 0 0 0
0 0 0 0 0 0 0 0 0 0 0 0 0 0 0 0 0 0 0 0 0 0 556 468 471 475 471 474 478 470 472 475 475 477 484 480 479 482 481 482 484 487 488 487 488 487 485 492 493 489 492 494 490 493 497 493 491 492 496 490 492 494 495 500 496 496 495 493 496 491 493 494 491 494 495 494 493 495 503 502 483 489 508 506 510 496 483 483 514 490 499 486 504 492 481 484 526 475 547 477 467 497 495 479 471 489 481 525 492 478 458 445 498 451 425 0 0 0 0 0
0 0 0 0 0 0 0 0 0 0 0 0 0 0 0 0 0 0 0 0 0 0 753 480 474 473 475 473 477 470 479 478 480 483 478 477 475 480 483 489 484 486 485 484 490 486 486 489 490 487 492 489 498 492 495 490 490 490 495 497 494 493 493 493 498 493 493 500 494 497 500 493 496 493 493 492 490 501 482 504 509 507 482 490 500 493 494 509 497 503 493 514 498 520 500 506 491 509 509 544 519 515 504 455 494 499 483 496 494 499 475 478 493 0 531 0 0 0 0 0
0 0 0 0 0 0 0 0 0 0 0 0 0 0 0 0 0 0 0 0 0 0 0 471 472 469 471 470 479 470 479 478 477 475 481 476 476 474 482 479 478 479 487 488 483 489 488 488 491 486 490 486 485 489 490 492 489 492 489 495 489 492 493 495 493 493 493 497 494 495 493 494 489 492 493 489 490 486 491 508 486 501 480 484 502 499 484 493 493 497 491 504 486 486 499 517 495 488 484 501 495 506 472 472 481 465 475 498 471 480 450 438 432 0 0 0 0 0 0 0
0 0 0 0 0 0 0 0 0 0 0 0 0 0 0 0 0 0 0 0 0 0 0 514 465 475 473 468 473 468 471 475 477 478 470 477 478 481 478 479 482 482 486 487 487 493 490 484 489 487 489 491 489 487 493 486 496 495 491 488 495 491 490 491 493 491 494 498 491 493 492 489 491 498 494 487 489 482 482 493 492 500 493 484 512 484 477 487 506 502 487 509 490 494 486 498 508 482 488 498 493 474 511 475 467 453 481 461 476 495 470 473 447 474 517 0 0 0 0 0
0 0 0 0 0 0 0 0 0 0 0 0 0 0 0 0 0 0 0 0 0 0 0 0 468 465 469 475 475 472 477 473 475 484 477 478 479 480 480 478 479 484 483 486 484 492 488 486 495 493 492 490 493 492 494 492 488 492 491 495 494 493 494 493 498 498 488 496 491 495 499 490 497 496 492 494 501 505 497 500 505 502 488 514 515 526 511 503 504 498 510 504 528 503 540 518 521 506 494 496 495 517 524 548 504 498 498 500 464 483 531 512 485 485 517 0 0 0 0 0
0 0 0 0 0 0 0 0 0 0 0 0 0 0 0 0 0 0 0 0 0 0 0 0 502 463 469 468 471 473 473 471 473 476 474 476 474 473 478 478 481 482 483 487 486 480 488 488 485 492 489 490 489 490 488 485 492 493 491 490 489 490 495 492 498 496 495 490 485 490 499 486 490 489 495 493 483 488 488 495 490 477 483 489 492 506 490 492 490 474 494 487 505 516 508 504 526 507 517 487 493 503 473 462 460 473 453 435 477 464 462 479 439 451 504 429 0 0 0 0
0 0 0 0 0 0 0 0 0 0 0 0 0 0 0 0 0 0 0 0 0 0 0 0 0 485 467 470 466 471 472 475 475 471 475 474 477 477 477 483 477 477 485 483 483 487 486 485 489 489 491 484 489 487 486 489 491 488 490 490 492 490 491 490 489 494 492 495 497 494 491 490 498 490 494 489 486 483 488 483 496 500 489 496 505 503 508 496 495 509 508 500 513 490 502 515 508 487 504 495 493 513 493 500 500 515 500 508 483 541 492 505 522 502 498 0 0 0 0 0
0 0 0 0 0 0 0 0 0 0 0 0 0 0 0 0 0 0 0 0 0 0 0 0 0 493 474 466 465 470 466 470 470 476 473 479 480 471 480 479 482 479 479 480 485 481 480 482 481 485 483 484 485 489 488 485 491 484 485 493 489 492 492 490 492 490 493 489 488 490 489 489 495 491 488 481 485 486 490 491 481 492 490 475 485 484 497 486 496 488 479 501 498 492 513 528 470 521 523 509 499 468 503 514 487 461 481 468 478 465 463 454 484 450 465 0 0 0 0 0
0 0 0 0 0 0 0 0 0 0 0 0 0 0 0 0 0 0 0 0 0 0 0 0 0 0 467 466 461 469 469 469 470 469 477 476 473 469 474 473 477 477 477 479 482 481 483 483 481 482 485 486 485 484 487 487 483 488 487 487 485 485 486 486 492 493 491 483 493 492 493 489 489 488 481 480 475 479 478 497 475 481 485 481 471 491 482 484 479 488 479 484 484 481 478 476 466 469 494 487 471 469 483 502 442 470 473 457 453 440 444 429 475 422 0 0 0 0 0 0
0 0 0 0 0 0 0 0 0 0 0 0 0 0 0 0 0 0 0 0 0 0 0 0 0 0 0 466 464 465 470 471 472 470 472 473 470 474 475 480 474 480 473 478 482 483 482 478 485 480 482 485 479 489 484 480 483 490 485 488 485 486 487 489 488 493 489 490 490 487 486 483 486 482 487 491 489 484 493 477 493 510 486 488 494 499 493 491 476 470 485 498 484 486 475 493 471 494 504 508 497 490 475 469 492 485 461 502 457 529 493 451 475 489 433 0 0 0 0 0
0 0 0 0 0 0 0 0 0 0 0 0 0 0 0 0 0 0 0 0 0 0 0 0 0 0 0 500 460 463 468 469 467 472 471 473 475 470 473 471 475 475 478 478 485 479 478 484 480 481 479 479 486 482 480 484 484 482 486 480 483 484 487 488 488 485 483 481 490 484 484 485 483 467 471 487 460 482 481 476 490 467 469 490 495 473 490 462 484 481 479 485 457 477 477 504 475 482 502 483 495 491 478 466 456 458 427 451 459 467 457 482 465 498 0 0 0 0 0 0
0 0 0 0 0 0 0 0 0 0 0 0 0 0 0 0 0 0 0 0 0 0 0 0 0 0 0 0 505 469 465 468 463 462 469 467 473 470 471 479 476 477 477 473 475 478 473 483 478 482 482 484 481 480 482 481 481 479 484 484 489 485 484 487 486 486 489 486 488 484 485 481 481 478 484 483 473 480 480 471 487 468 485 471 478 470 485 487 478 479 463 483 491 483 483 475 474 494 479 474 476 482 454 476 490 484 478 470 442 464 455 464 479 508 501 0 0 0 0 0
0 0 0 0 0 250 241 262 346 0 0 0 0 0 0 0 0 0 0 0 0 2374 0 0 0 0 0 0 0 505 462 467 465 468 464 468 470 473 472 468 473 477 479 474 478 471 477 478 478 473 483 482 478 482 485 478 483 485 485 485 486 485 481 486 478 482 481 479 480 488 471 496 482 491 483 468 485 489 497 477 477 482 507 493 496 491 484 499 481 511 507 509 504 496 500 506 516 496 496 469 487 494 483 492 457 471 471 497 480 472 466 475 445 499 491 0 0 0 0 0
0 0 0 0 241 224 229 235 236 282 361 0 0 0 0 0 0 0 0 0 0 0 0 0 0 0 0 0 0 0 457 467 462 467 469 466 468 470 475 470 474 474 474 470 479 478 477 475 474 476 475 482 484 479 478 484 477 474 479 476 481 484 484 483 480 485 482 486 483 480 476 464 471 484 479 478 483 481 483 483 493 475 478 476 490 490 478 475 470 478 475 471 465 494 472 483 475 478 497 483 462 482 468 462 475 457 479 465 494 483 439 496 436 0 0 0 0 0 0 0
0 0 0 259 227 231 228 224 233 244 349 0 0 0 0 0 0 0 0 0 0 0 0 0 0 0 0 0 0 0 0 476 467 473 463 465 469 471 468 471 470 472 471 470 471 473 472 476 476 478 477 476 485 477 481 478 485 476 479 478 482 483 477 481 481 481 486 477 481 482 477 475 477 494 479 495 487 485 488 481 487 496 489 477 485 479 491 472 502 463 482 479 510 464 490 496 503 496 513 507 469 499 489 479 464 494 467 459 483 486 489 481 479 492 498 0 0 0 0 0
174 234 257 218 262 282 263 229 235 231 317 0 370 394 394 407 414 389 400 425 456 458 416 465 445 439 437 441 436 467 446 453 461 469 461 467 464 462 464 466 466 469 465 472 468 469 470 470 473 472 470 475 473 475 477 474 473 473 473 484 474 472 479 467 479 480 466 474 477 487 475 471 467 467 461 461 464 476 461 465 480 466 472 464 470 481 456 471 469 470 464 481 464 476 476 477 469 474 464 474 487 460 475 460 458 453 461 437 426 428 447 451 438 430 421 0 0 0 0 0
214 181 198 161 214 206 231 232 235 259 311 364 387 392 377 390 386 391 409 398 402 402 406 411 422 418 421 422 435 442 452 452 453 457 455 456 458 459 456 450 459 458 455 461 464 464 471 472 472 470 466 467 469 466 466 469 463 467 468 473 469 470 467 472 469 465 473 470 468 468 465 468 464 460 453 447 455 444 452 460 451 454 451 446 464 450 459 441 448 446 444 445 443 447 452 451 449 440 444 433 446 424 421 429 432 444 428 444 437 420 424 419 431 418 426 435 414 400 0 0
198 175 203 223 243 232 231 230 234 299 396 376 374 368 376 365 389 374 379 376 380 382 394 394 412 406 412 423 429 439 440 440 436 441 436 449 443 453 448 452 444 447 445 446 454 450 450 460 454 452 453 457 457 449 453 459 446 453 454 468 457 462 456 464 462 455 460 455 452 455 456 458 441 450 430 437 436 426 431 436 434 429 443 431 444 431 434 428 422 427 420 433 431 427 446 430 433 407 439 430 423 427 416 429 428 418 417 424 424 421 419 439 409 421 416 418 425 402 382 434
250 250 235 221 226 227 227 231 245 318 330 333 341 326 338 343 349 325 358 328 342 360 353 366 371 385 390 403 412 410 410 421 420 427 432 433 433 431 424 431 427 435 430 434 427 434 435 436 443 437 439 437 436 441 447 444 442 437 443 444 442 437 443 436 434 438 434 435 437 432 433 433 425 427 408 408 404 400 386 399 388 392 393 388 391 388 400 392 382 391 387 383 398 393 404 405 378 400 385 395 389 384 390 401 387 387 363 378 386 377 379 368 390 379 377 335 367 384 388 0
296 291 280 244 233 229 229 245 288 319 320 310 311 300 323 326 321 312 317 325 331 315 338 350 358 369 379 385 387 398 397 407 409 415 417 406 410 412 415 413 414 413 415 414 418 416 413 422 420 417 417 419 418 414 422 427 418 427 427 427 420 426 421 419 421 423 421 423 413 416 415 413 403 402 395 393 384 372 366 365 370 363 353 361 378 359 369 368 363 366 379 363 369 366 370 366 350 371 361 368 372 365 370 370 369 363 362 372 368 374 373 377 380 356 373 361 372 382 343 328
289 291 280 263 242 266 263 278 271 281 282 286 282 286 283 283 292 284 302 287 300 309 311 320 322 353 366 368 369 378 383 390 388 391 394 387 392 398 393 398 394 392 394 397 389 395 389 394 393 391 392 398 397 397 405 389 398 402 407 398 397 401 398 398 394 387 397 399 397 395 389 388 398 387 375 361 359 353 343 323 339 329 329 336 335 333 335 337 334 323 331 344 335 344 346 342 345 332 320 330 339 333 341 337 343 352 336 355 349 334 319 349 326 339 358 352 357 358 325 343
233 244 240 249 248 238 254 255 254 253 253 259 258 251 254 253 261 256 264 270 275 276 291 288 307 312 332 342 348 356 365 366 365 361 359 362 362 371 368 368 368 368 371 368 371 369 370 365 364 371 372 369 377 373 379 377 375 377 379 371 375 379 384 376 370 367 374 372 372 370 366 366 361 356 345 337 331 321 309 310 307 302 311 301 312 309 304 294 305 297 296 307 306 292 306 286 293 298 296 311 305 311 299 290 303 293 318 293 303 289 302 292 313 304 291 295 293 304 288 289
227 235 231 235 236 235 246 242 240 239 240 251 248 241 247 246 246 241 246 259 257 278 271 280 290 302 316 336 331 332 337 341 349 347 346 348 343 347 341 343 348 348 355 350 353 352 346 354 349 343 347 348 351 357 353 357 350 348 358 348 355 348 355 346 355 348 348 349 354 348 346 343 345 339 325 321 310 296 290 285 284 279 282 281 287 284 282 283 281 279 276 283 283 275 277 275 270 294 282 280 288 286 276 279 286 275 276 283 294 286 285 301 296 304 305 286 289 278 300 265
210 211 229 229 233 215 220 219 222 226 225 226 222 233 221 223 231 228 233 237 241 242 259 256 267 280 297 296 304 299 305 313 320 319 314 318 319 320 324 326 319 319 320 317 329 328 324 327 324 320 320 324 326 328 327 326 329 324 331 322 334 332 331 327 324 325 322 327 323 320 321 317 323 313 299 294 284 278 276 265 266 261 257 263 261 265 259 257 255 254 262 258 260 263 262 253 254 257 260 253 257 254 253 255 251 260 258 259 261 267 278 261 269 259 260 267 263 257 264 264
208 206 203 208 213 206 218 213 206 215 208 210 207 214 216 218 219 218 219 226 226 230 238 249 248 263 272 278 281 281 285 290 294 294 294 299 300 297 304 302 297 296 297 301 302 298 305 303 307 305 309 299 301 302 301 304 306 308 302 302 305 307 304 304 307 306 307 301 300 299 298 302 302 287 280 277 259 258 259 250 247 237 241 247 249 247 249 230 237 247 241 242 249 234 244 238 247 239 247 239 234 239 247 244 245 237 247 244 240 249 241 243 255 248 247 239 236 253 256 254
196 182 202 200 203 197 203 205 203 207 188 184 188 187 202 207 205 203 209 212 214 223 234 230 239 246 250 258 266 270 268 268 271 270 277 279 281 278 279 279 276 282 286 286 283 285 282 283 282 281 281 282 279 284 279 284 283 290 289 285 284 288 286 286 291 288 285 287 284 282 283 285 279 275 271 258 253 248 243 234 227 232 234 224 231 230 227 220 228 228 225 227 225 226 226 215 228 220 226 229 224 231 238 229 218 222 231 233 225 235 242 241 242 250 254 236 233 236 256 229
181 177 173 172 184 180 184 186 178 184 183 175 181 184 179 178 188 187 183 189 207 209 216 219 230 229 237 242 244 249 251 252 253 254 257 256 258 259 265 264 262 260 265 266 265 266 267 268 262 268 264 261 264 265 266 265 267 270 262 273 261 272 267 272 263 270 268 270 267 267 263 258 256 255 247 242 234 226 222 220 216 215 216 217 215 217 215 216 212 215 212 220 221 210 212 211 210 198 209 210 216 212 212 209 193 207 206 209 219 213 211 220 221 227 212 209 215 213 222 201
173 168 166 170 175 177 177 177 179 181 174 179 177 182 185 178 179 186 179 183 186 190 189 211 216 219 223 221 230 230 235 244 244 238 242 238 238 243 246 245 244 246 246 249 250 254 247 247 245 256 246 253 249 246 242 246 251 248 246 250 248 245 250 249 247 253 253 247 244 244 241 242 239 239 238 228 222 219 198 200 200 194 185 187 189 191 192 192 196 196 186 189 190 191 185 193 188 203 204 189 188 211 185 180 184 193 188 202 182 206 205 209 206 203 213 201 201 197 208 187
170 173 171 172 174 175 172 174 176 180 180 176 175 174 177 179 177 179 187 185 189 187 187 189 208 204 214 215 217 224 223 225 223 226 229 226 228 231 229 229 230 230 233 232 235 234 231 226 235 237 237 235 236 233 236 234 237 237 237 239 235 237 236 231 231 234 235 227 234 232 233 233 225 224 219 214 197 199 186 198 195 195 195 196 193 191 193 195 193 184 191 189 191 186 180 182 181 189 188 190 186 182 179 178 183 179 185 181 177 180 180 199 200 202 205 197 208 212 191 193
163 163 169 171 168 167 171 168 167 163 168 165 166 167 171 167 170 177 176 181 176 182 188 185 185 184 184 188 208 208 197 211 206 210 210 212 212 200 212 194 214 218 218 213 221 223 219 219 222 221 217 225 218 221 220 221 224 220 220 223 218 224 223 213 219 216 218 216 219 219 220 214 216 211 192 194 185 193 190 189 184 183 185 185 181 185 185 182 179 180 181 178 184 180 177 183 174 179 180 181 182 187 181 184 178 176 179 176 180 176 180 179 180 171 200 169 183 174 170 184
149 154 163 159 159 163 158 164 162 162 160 158 162 162 166 162 162 168 171 172 175 171 180 182 183 184 185 181 183 185 181 186 181 188 185 189 189 185 189 187 190 191 191 193 195 195 193 196 190 195 196 197 199 195 197 193 192 194 197 194 203 197 201 191 193 195 195 193 196 194 197 193 195 190 189 196 195 190 183 178 175 173 176 176 171 174 174 177 178 177 172 173 171 174 170 171 169 163 165 170 165 169 171 172 170 173 169 168 169 171 173 174 171 180 193 173 177 184 172 191
143 147 146 150 155 153 153 159 156 157 154 156 151 154 156 154 158 162 155 164 163 169 179 170 178 178 174 179 180 185 188 187 190 187 188 186 188 191 191 192 193 192 190 195 192 195 195 198 194 191 194 197 195 195 186 195 195 195 195 198 199 200 198 198 192 194 195 194 199 195 194 193 191 193 187 183 186 180 176 173 170 169 166 166 166 165 168 167 165 167 168 168 173 167 164 167 166 159 165 171 164 166 169 169 164 162 154 165 165 163 169 159 171 167 170 155 160 165 159 163
139 142 148 144 149 146 146 154 146 155 149 152 150 152 150 149 153 148 156 159 164 160 164 172 169 169 173 172 173 177 177 181 182 181 178 180 183 178 183 185 183 183 186 185 182 184 185 184 189 185 185 187 188 187 187 187 187 189 0 188 187 188 185 186 189 191 191 184 183 187 183 182 181 181 175 175 176 174 167 166 160 158 162 161 160 160 162 160 165 159 159 159 160 160 160 156 157 158 163 160 158 163 160 154 155 158 149 153 160 155 151 167 155 160 155 169 160 152 154 164
135 138 139 143 141 149 147 146 144 151 146 145 141 146 145 146 144 147 150 146 159 160 164 164 169 167 168 166 169 171 171 170 174 173 170 171 174 171 173 175 173 179 178 176 174 177 175 179 177 179 180 180 178 181 182 184 180 0 0 180 177 178 181 182 176 176 177 180 180 172 175 177 171 173 171 169 168 165 163 158 161 155 154 153 155 160 157 152 158 150 150 155 155 157 154 156 152 156 156 156 154 153 152 153 147 147 147 153 158 145 155 156 149 152 155 164 151 157 159 164
137 134 132 135 143 141 151 138 140 137 138 140 144 143 142 140 140 148 143 147 151 153 154 160 159 158 162 162 165 164 163 165 169 165 164 167 166 169 166 169 170 0 172 169 173 173 168 171 171 171 174 172 175 173 172 0 174 173 0 0 172 0 0 174 170 166 172 165 174 170 168 166 169 167 165 162 168 160 156 152 149 155 146 149 152 150 149 150 149 154 144 150 151 149 147 147 152 150 159 148 151 145 143 145 147 147 143 144 145 148 150 150 150 148 148 151 146 157 156 165
128 125 129 124 136 135 142 138 134 128 134 131 127 135 136 135 136 137 141 139 138 144 147 147 150 157 157 156 157 161 162 158 157 162 158 157 164 160 0 0 0 0 0 0 0 0 0 166 164 164 167 162 166 166 0 0 0 167 0 0 0 0 0 0 165 164 167 0 161 164 163 162 160 159 156 155 154 156 147 149 148 145 144 148 141 150 141 146 143 143 143 148 145 143 139 138 142 144 140 143 135 139 139 138 138 133 137 139 133 142 142 143 154 151 153 152 138 142 144 135
123 127 125 123 125 132 133 132 139 133 123 131 126 132 132 127 121 138 137 135 142 141 143 144 149 148 154 151 152 157 156 153 157 157 152 151 153 0 0 0 0 0 0 0 0 0 0 0 0 159 162 162 0 0 0 0 0 0 0 0 0 0 0 0 159 0 0 0 0 0 0 156 159 154 151 152 150 152 148 143 137 131 144 144 140 138 146 140 146 141 139 139 139 142 138 136 145 142 141 138 136 134 139 132 129 135 133 132 142 143 137 150 141 154 132 141 144 132 139 163
113 108 112 120 126 125 128 129 126 127 130 121 121 114 118 130 132 123 131 136 126 127 133 141 139 142 142 143 144 146 150 148 151 151 149 146 0 0 0 0 0 0 0 0 0 0 0 0 149 153 154 0 0 0 0 0 0 0 0 0 0 0 0 0 0 0 0 0 0 0 0 0 149 150 150 148 143 143 140 144 128 128 126 138 127 137 137 138 129 129 137 128 128 126 119 126 138 138 134 134 127 135 130 122 132 131 128 121 129 136 140 137 138 139 136 133 134 117 109 142
105 109 112 112 111 112 119 120 113 119 115 114 114 115 128 124 119 117 115 117 130 122 133 122 135 141 138 139 140 143 141 142 141 145 145 144 0 0 0 0 0 0 0 0 0 0 0 0 0 0 0 0 0 0 0 0 0 0 0 0 0 0 0 0 0 0 0 0 0 0 0 0 0 137 142 139 139 130 128 129 127 121 121 120 125 121 124 126 121 134 126 121 112 128 123 133 126 131 121 119 119 129 121 118 119 130 118 129 130 132 130 128 112 131 110 130 114 102 129 135
110 108 116 115 114 114 114 116 118 117 117 116 112 112 118 121 121 127 121 115 116 114 119 115 130 134 135 137 0 135 0 0 0 137 138 0 0 0 0 0 0 0 0 0 0 0 0 0 0 0 0 0 0 0 0 0 0 0 0 0 0 0 0 0 0 0 0 0 0 0 0 0 0 141 123 124 127 123 120 123 119 116 118 126 114 120 118 121 119 117 117 122 115 114 113 120 117 119 118 117 115 123 130 124 119 114 127 118 107 131 129 109 130 116 126 129 106 115 137 137
102 100 110 111 105 104 104 104 99 103 104 103 105 105 107 109 107 112 114 110 111 114 112 117 120 118 126 121 0 126 0 0 0 0 0 0 0 0 0 0 0 0 0 0 0 0 0 0 0 0 0 0 0 0 0 0 0 0 0 0 0 0 0 0 0 0 0 0 0 0 0 0 128 0 0 124 119 120 121 115 116 116 108 112 111 115 111 113 107 113 111 116 104 112 112 107 111 117 113 109 114 115 111 110 115 114 109 112 121 105 104 113 103 116 120 107 112 122 108 119
99 102 91 97 102 102 104 101 100 102 101 103 100 106 107 103 107 111 117 108 110 113 110 109 116 110 115 116 119 121 0 125 0 0 0 0 0 0 0 0 0 0 0 0 0 0 0 0 0 0 0 0 0 0 0 0 0 0 0 0 0 0 0 0 0 0 0 0 0 0 0 0 0 121 0 115 121 117 114 112 111 112 104 103 109 108 106 118 105 107 113 111 111 112 108 112 105 107 100 118 114 106 110 101 106 115 111 106 111 115 108 102 104 98 95 126 128 103 123 139
94 103 99 100 97 99 99 92 94 98 96 95 98 94 97 91 105 104 110 115 111 107 95 109 114 105 113 115 115 120 116 116 122 0 0 0 0 0 0 0 0 0 0 0 0 0 0 0 0 0 0 0 0 0 0 0 0 0 0 0 0 0 0 0 0 0 0 0 0 0 0 0 123 121 0 121 114 117 117 112 106 107 101 117 104 110 104 103 101 104 103 103 111 92 98 100 103 99 111 104 105 109 107 105 107 105 109 94 99 103 98 101 100 100 121 90 127 129 108 117
86 83 82 85 85 81 86 93 93 82 85 94 97 93 87 88 79 93 92 88 92 85 98 104 99 102 113 109 0 0 103 104 116 0 0 0 0 0 0 0 0 0 0 0 0 0 0 0 0 0 0 0 0 0 0 0 0 0 0 0 0 0 0 0 0 0 0 0 0 0 0 0 113 108 103 110 107 106 102 97 101 103 97 90 95 98 88 97 105 101 91 95 105 84 82 96 93 106 83 93 93 97 95 95 83 85 96 91 96 83 80 79 83 92 88 104 95 100 98 108
95 86 89 88 98 97 100 105 92 94 95 94 92 90 94 97 96 91 104 95 94 104 104 103 99 104 112 106 0 105 111 109 116 113 122 108 0 0 0 0 0 117 0 0 0 0 0 0 0 0 0 0 0 0 0 0 0 0 0 0 0 0 0 0 109 0 0 0 107 0 109 108 115 110 116 106 107 112 101 96 110 106 105 87 96 98 107 105 100 103 105 106 110 100 99 108 101 96 100 109 100 99 93 104 98 107 96 92 89 88 90 93 93 97 108 99 112 109 133 135
87 91 90 91 99 98 91 91 83 98 85 85 86 90 90 84 94 96 95 95 96 92 94 111 87 101 103 99 100 105 94 0 105 100 98 101 0 114 115 0 110 0 0 0 0 0 0 0 0 0 0 0 0 0 0 0 0 110 0 0 0 103 104 108 111 111 103 99 110 105 107 100 99 103 111 112 97 90 103 96 96 95 98 85 93 88 92 103 105 91 97 102 109 82 83 84 90 88 96 85 96 80 91 97 89 88 98 93 100 88 92 91 88 99 93 88 97 108 102 102
85 86 83 87 93 92 101 88 89 80 90 88 83 91 90 90 88 92 93 88 78 94 95 84 82 94 94 91 104 88 94 99 98 96 96 112 99 102 103 104 103 99 100 107 107 93 0 0 95 0 0 109 102 91 99 108 105 102 107 105 100 104 112 102 100 108 102 95 98 107 100 105 105 103 103 94 91 95 98 89 97 93 91 96 89 92 87 90 92 95 101 87 91 91 92 93 84 94 88 88 88 91 91 93 87 82 96 87 85 96 85 89 91 111 82 96 137 90 105 132
84 80 85 84 82 83 99 102 83 90 82 84 84 86 85 88 90 91 88 97 84 96 91 91 91 97 95 87 96 98 96 85 96 91 94 96 95 99 96 104 103 97 99 106 100 96 105 0 102 100 96 105 99 97 103 101 102 108 96 106 105 96 94 103 102 98 96 103 93 105 100 103 101 94 105 88 93 94 95 83 97 97 93 93 96 99 89 85 94 88 83 97 87 93 92 81 93 96 95 90 92 93 83 93 88 99 89 92 93 88 86 96 104 92 101 116 110 84 122 72
81 74 66 68 78 81 90 90 87 80 85 81 84 79 87 82 84 88 85 85 92 85 92 85 86 84 92 91 84 92 93 94 95 90 94 94 95 84 88 83 94 89 97 90 97 94 90 100 93 89 94 96 84 89 90 83 98 87 98 95 97 86 98 97 94 98 95 88 96 97 90 88 93 91 97 92 90 93 90 94 87 94 85 88 82 91 89 87 85 88 93 77 88 82 87 86 83 93 82 86 83 87 80 69 84 82 88 85 82 77 85 86 85 78 90 84 127 118 99 57
74 76 80 86 69 84 81 82 80 80 83 89 76 81 81 89 87 88 83 89 82 90 83 93 86 94 92 85 94 91 93 95 92 95 86 92 94 92 89 94 94 84 95 88 85 98 88 87 99 88 94 96 95 85 104 95 91 85 88 96 98 82 88 95 97 97 86 93 104 94 97 93 88 94 94 97 97 85 96 93 91 90 88 87 81 85 87 79 92 95 76 91 73 80 90 84 89 84 77 83 84 83 81 78 76 80 85 82 87 86 94 84 88 95 88 101 117 92 76 205
