0 0 0 0 0 0 0 0 0 0 0 0 0 0 0 0 0 0 0 0 0 0 0 0 0 0 0 0 0 0 0 0 0 0 0 0 0 0 0 0 0 0 0 0 0 0 0 0 0 0 0 0 0 0 0 0 0 0 0 0 0 0 0 0 0 0 0 0 0 0 0 0 0 0 0 0 0 0 0 0 0 0 0 0 0 0 0 0 0 0 0 0 0 0 0 0 0 0 0 0 0 0 0 0 0 0 0 0 0 0 0 0 0 0 0 0 0 0 0 0
0 0 0 0 0 0 0 0 0 0 0 0 0 0 0 0 0 0 0 0 0 0 0 0 0 0 0 0 0 0 0 0 0 0 0 0 0 0 0 0 0 0 0 0 0 0 0 0 0 0 0 0 0 0 0 0 0 0 0 0 0 0 0 0 0 0 0 0 0 0 0 0 0 0 0 0 0 0 0 0 0 0 0 0 0 0 0 0 0 0 0 0 0 0 0 0 0 0 0 0 0 0 0 0 0 0 0 0 0 0 0 0 0 0 0 0 0 0 0 0
0 0 0 0 0 0 0 0 0 0 0 0 0 0 0 0 0 0 0 0 0 0 0 0 0 0 0 0 0 0 0 0 0 0 0 0 0 0 0 0 0 0 0 0 0 0 0 0 0 0 0 0 0 0 0 0 0 0 0 0 0 0 0 0 0 0 0 0 0 0 0 0 0 0 0 0 0 0 0 0 0 0 0 0 0 0 0 0 0 0 0 0 0 0 0 0 0 0 0 0 0 0 0 0 0 0 0 0 0 0 0 0 0 0 0 0 0 0 0 0
0 0 0 0 0 0 0 0 0 0 0 0 0 0 0 0 0 0 0 0 0 0 0 0 0 0 0 0 0 0 0 0 0 0 0 0 0 0 0 0 0 0 0 0 0 0 0 0 0 0 0 0 0 0 0 0 0 0 0 0 0 0 0 0 0 0 0 0 0 0 0 0 0 0 0 0 0 0 0 0 0 0 0 0 0 0 0 0 0 0 0 0 0 0 0 0 0 0 0 0 0 0 0 0 0 0 0 0 0 0 0 0 0 0 0 0 0 0 0 0
0 0 0 0 0 0 0 0 0 0 0 0 0 0 0 0 0 0 0 0 0 0 0 0 0 0 0 0 0 0 0 0 0 0 0 0 0 0 0 0 0 0 0 0 0 0 0 0 0 0 0 0 0 0 0 0 0 0 0 0 0 0 0 0 0 0 0 0 0 0 0 0 0 0 0 0 0 0 0 0 0 0 0 0 0 0 0 0 0 0 0 0 0 0 0 0 0 0 0 0 0 0 0 0 0 0 0 0 0 0 0 0 0 0 0 0 0 0 0 0
0 0 0 0 0 0 0 0 0 0 0 0 0 0 0 0 0 0 0 0 0 0 0 0 0 0 0 0 0 0 0 0 0 0 0 0 0 0 0 536 548 547 521 528 517 528 507 540 507 519 506 529 513 526 548 594 0 0 0 0 0 0 0 0 0 0 0 0 0 0 0 0 0 0 0 0 0 0 0 0 0 0 0 0 0 0 0 0 0 0 0 0 0 0 0 0 0 0 0 0 0 0 0 0 0 0 0 0 0 0 0 0 0 0 0 0 0 0 0 0
0 0 0 0 0 0 0 0 0 0 0 0 0 0 0 0 0 0 0 0 0 0 0 0 0 0 0 0 0 0 0 0 0 0 0 0 0 496 518 510 519 505 496 504 510 510 520 497 516 511 519 508 505 515 525 503 508 519 510 493 0 0 0 0 0 0 0 0 0 0 0 0 0 0 0 0 0 0 0 0 0 0 0 0 0 0 0 0 0 0 0 0 0 0 0 0 0 0 0 0 0 0 0 0 0 0 0 0 0 0 0 0 0 0 0 0 0 0 0 0
0 0 0 0 0 0 0 0 0 0 0 0 0 0 0 0 0 0 0 0 0 0 0 0 0 0 0 0 0 0 0 0 0 0 0 477 496 513 485 492 501 500 492 491 491 501 496 505 503 502 498 498 499 507 518 513 500 498 497 491 501 507 490 483 464 0 0 0 0 0 0 0 0 0 0 0 0 0 0 0 0 0 0 0 0 0 0 0 0 0 0 0 0 0 0 0 0 0 0 0 0 0 0 0 0 0 0 0 0 0 0 0 0 0 0 0 0 0 0 0
0 0 0 0 0 0 0 0 0 0 0 0 0 0 0 0 0 0 0 0 0 0 0 0 0 0 0 0 0 0 0 0 0 531 499 516 517 509 504 505 519 510 500 512 511 511 509 513 508 509 500 503 508 494 511 516 518 497 510 521 510 503 516 509 512 518 519 548 579 588 588 579 544 0 568 566 614 617 0 619 0 0 0 0 0 0 0 0 0 0 0 0 0 0 0 0 0 0 0 0 0 0 0 0 0 0 0 0 0 0 0 0 0 0 0 0 0 0 0 0
0 0 0 0 0 0 0 0 0 0 0 0 0 0 0 0 0 0 0 0 0 0 0 0 0 0 0 0 0 0 0 483 496 495 478 492 482 493 494 489 495 480 488 491 482 496 493 505 504 491 503 498 502 498 492 501 500 489 501 510 500 494 502 506 496 508 509 513 492 483 526 543 508 502 503 526 523 565 511 555 522 462 500 520 0 0 461 506 509 530 535 482 535 517 512 496 519 525 552 536 0 569 558 480 0 0 0 0 0 0 0 0 0 0 0 0 0 0 0 0
0 0 0 0 0 0 0 0 0 0 0 0 0 0 0 0 0 0 0 0 0 0 0 0 0 0 0 0 0 0 513 505 511 489 482 493 508 500 502 502 509 507 504 502 513 513 506 504 497 502 507 503 511 508 503 519 507 507 495 510 511 495 498 506 521 502 515 519 518 513 562 569 565 589 603 599 598 622 600 572 552 582 596 579 553 588 578 551 565 567 554 593 507 595 556 590 608 575 589 537 560 572 598 579 610 560 569 0 579 0 0 0 0 0 0 0 0 0 0 0
0 0 0 0 0 0 0 0 0 0 0 0 0 0 0 0 0 0 0 0 0 0 0 0 0 0 0 0 498 523 499 505 510 519 499 504 503 498 502 506 504 507 510 498 513 509 509 501 509 514 513 512 506 506 497 507 511 509 507 515 504 511 513 510 511 510 504 511 507 512 517 567 579 598 590 579 614 559 602 559 592 601 611 560 575 621 627 640 625 623 620 574 664 622 630 618 618 536 560 576 611 593 594 554 642 629 571 615 592 0 0 0 0 0 0 0 0 0 0 0
0 0 0 0 0 0 0 0 0 0 0 0 0 0 0 0 0 0 0 0 0 0 0 0 0 0 0 471 503 493 494 481 500 505 490 491 490 494 502 501 506 497 499 500 502 500 497 503 508 504 502 500 508 505 515 505 508 511 503 507 512 500 506 510 516 504 510 516 512 503 526 524 551 560 576 556 559 535 551 569 540 554 548 574 593 580 552 529 579 540 566 560 583 565 524 571 555 531 541 540 568 581 544 509 587 567 551 553 544 0 0 0 0 0 0 0 0 0 0 0
0 0 0 0 0 0 0 0 0 0 0 0 0 0 0 0 0 0 0 0 0 0 0 0 0 0 500 509 499 499 505 503 501 497 502 508 499 498 506 498 504 509 508 506 507 512 503 504 508 502 519 512 508 513 517 503 510 512 521 513 510 517 515 514 510 512 520 506 521 504 519 520 542 565 553 577 572 582 554 564 607 559 602 603 622 569 610 567 616 590 588 595 574 533 583 565 562 602 578 552 595 608 556 546 570 617 551 634 572 597 0 0 0 0 0 0 0 0 0 0
0 0 0 0 0 0 0 0 0 0 0 0 0 0 0 0 0 0 0 0 0 0 0 0 0 543 501 490 503 498 497 488 489 490 493 492 497 492 509 500 496 501 507 510 505 511 504 500 505 502 498 499 505 501 510 512 503 507 503 505 512 500 512 511 503 513 511 500 505 519 510 513 516 514 532 544 540 534 560 561 481 544 530 534 533 540 548 510 534 519 559 562 532 516 551 534 537 569 541 566 555 554 548 566 527 486 564 501 550 0 474 0 0 0 0 0 0 0 0 0
0 0 0 0 0 0 0 0 0 0 0 0 0 0 0 0 0 0 0 0 0 0 0 0 0 504 490 489 504 483 489 496 493 508 482 502 502 500 503 500 500 507 504 496 500 504 506 499 496 492 503 505 507 504 502 503 500 503 507 503 503 511 504 499 507 505 503 509 500 511 505 506 508 504 533 537 525 514 541 527 539 531 571 548 512 517 545 536 538 557 531 539 541 525 521 523 544 518 533 529 534 504 521 518 566 508 518 536 512 544 0 0 520 528 0 0 0 0 0 0
0 0 0 0 0 0 0 0 0 0 0 0 0 0 0 0 0 0 0 0 0 0 0 0 492 494 500 499 496 496 493 495 496 496 495 497 505 501 499 498 495 498 488 506 504 501 500 498 497 491 497 496 498 508 496 513 507 507 503 503 507 505 504 500 501 509 513 503 499 514 514 511 508 507 516 545 545 557 548 535 550 564 534 572 547 550 552 570 585 549 540 534 563 523 538 540 532 529 577 530 545 567 558 563 555 554 564 534 561 534 0 0 0 0 0 0 0 0 0 0
0 0 0 0 0 0 0 0 0 0 0 0 0 0 0 0 0 0 0 0 0 0 0 0 495 492 487 485 492 487 489 496 488 495 486 492 494 496 487 498 492 487 493 498 499 493 510 498 501 503 508 507 501 495 499 499 497 506 502 505 504 504 503 505 502 501 507 502 501 504 495 510 502 506 506 505 519 533 541 507 506 539 543 525 514 515 516 537 530 489 523 533 524 529 560 508 549 528 535 527 553 499 524 489 533 510 537 549 545 526 0 0 0 0 0 0 0 0 0 0
0 0 0 0 0 0 0 0 0 0 0 0 0 0 0 0 0 0 0 0 0 0 0 492 497 497 498 499 492 497 492 496 489 504 490 502 499 500 501 498 498 499 498 500 499 504 504 510 506 500 498 504 503 512 512 503 504 508 502 500 506 502 506 500 505 506 510 511 509 504 507 503 511 506 516 507 545 552 552 541 548 551 527 546 552 549 525 550 547 543 551 520 556 544 544 534 537 554 572 544 546 534 549 507 536 544 536 545 559 577 579 0 0 0 0 0 0 0 0 0
0 0 0 0 0 0 0 0 0 0 0 0 0 0 0 0 0 0 0 0 0 0 0 496 488 496 489 492 490 495 504 491 502 498 499 497 488 497 498 503 498 504 500 500 518 506 506 507 502 508 507 504 504 500 514 506 507 513 506 504 498 501 512 500 505 510 516 507 508 518 512 510 510 516 515 521 556 540 574 585 570 541 546 576 563 559 561 570 547 573 534 566 569 544 574 561 572 557 575 552 555 575 573 568 595 563 528 556 579 608 582 0 0 0 0 0 0 0 0 0
0 0 0 0 0 0 0 0 0 0 0 0 0 0 0 0 0 0 0 0 0 0 453 492 488 488 495 488 485 487 488 490 484 492 484 489 495 492 490 499 494 499 493 499 493 490 503 503 494 500 498 501 493 498 510 508 497 509 504 498 502 504 504 503 504 503 506 502 497 498 506 507 506 509 502 505 523 532 519 524 500 514 539 527 506 503 508 495 505 530 542 522 531 544 538 536 505 499 518 545 555 520 553 544 520 535 532 522 464 543 459 507 570 0 0 0 0 0 0 0
0 0 0 0 0 0 0 0 0 0 0 0 0 0 0 0 0 0 0 0 0 0 509 492 490 495 490 498 496 497 494 488 496 493 495 496 486 499 490 497 495 492 501 504 499 503 505 506 500 500 500 499 498 505 499 504 512 504 507 508 510 506 505 506 504 508 512 515 506 507 504 513 511 514 514 501 509 537 565 552 548 553 525 544 553 544 569 568 551 542 561 551 536 535 549 549 534 547 549 535 544 546 557 566 578 554 563 543 550 563 550 569 0 0 0 0 0 0 0 0
0 0 0 0 0 0 0 0 0 0 0 0 0 0 0 0 0 0 0 0 0 0 501 480 491 489 488 483 486 482 485 483 498 489 482 487 490 499 492 489 501 498 500 493 497 502 497 493 495 495 490 495 495 500 499 497 507 500 506 494 501 500 508 499 502 498 505 506 507 503 511 506 512 503 504 511 507 525 503 530 514 493 513 484 510 501 589 499 526 491 497 528 492 537 533 540 524 534 530 519 525 525 511 522 498 502 529 555 564 528 559 531 523 527 0 0 0 0 0 0
0 0 0 0 0 0 0 0 0 0 0 0 0 0 0 0 0 0 0 0 0 0 491 492 485 478 492 493 490 494 488 486 490 485 494 491 487 492 492 494 499 492 497 491 494 489 494 498 502 503 496 500 499 498 498 497 499 494 496 510 502 506 498 508 500 495 507 501 502 502 504 501 507 501 505 511 500 498 517 512 495 500 498 514 505 534 522 507 502 532 532 509 514 474 510 524 466 517 526 518 522 543 523 524 489 498 512 473 507 520 472 561 472 0 0 0 0 0 0 0
0 0 0 0 0 0 0 0 0 0 0 0 0 0 0 0 0 0 0 0 0 0 496 491 486 489 496 492 495 500 490 490 499 488 494 487 493 497 490 495 495 499 507 501 491 492 498 501 506 501 495 497 496 504 501 501 502 504 504 497 502 502 505 501 502 501 505 509 499 504 508 500 514 502 515 503 499 520 516 536 520 531 528 532 539 501 516 528 540 547 525 548 543 526 512 526 540 509 514 547 523 514 522 538 556 543 527 546 505 527 550 563 528 0 0 0 0 0 0 0
0 0 0 0 0 0 0 0 0 0 0 0 0 0 0 0 0 0 0 0 0 0 483 479 485 486 481 479 479 480 488 485 480 492 494 490 484 493 499 489 495 491 490 495 487 495 490 497 495 492 497 496 495 495 496 497 504 502 498 497 499 503 502 497 504 508 502 503 496 504 495 502 495 508 500 495 502 500 520 533 518 496 519 525 501 508 495 514 537 500 510 507 529 506 501 503 507 489 517 503 531 513 487 530 541 493 503 485 508 0 524 476 548 0 0 0 0 0 0 0
0 0 0 0 0 0 0 0 0 0 0 0 0 0 0 0 0 0 0 0 0 479 482 488 492 481 490 488 497 489 486 495 491 489 489 487 496 490 498 496 489 493 493 495 496 495 499 497 494 501 500 501 498 503 500 505 501 498 506 496 507 500 505 503 501 505 501 499 497 511 508 500 502 500 509 494 503 509 510 511 510 517 516 510 524 507 519 535 522 512 508 521 511 514 510 513 536 505 505 513 542 522 560 547 498 543 519 545 526 531 587 515 0 0 0 0 0 0 0 0
0 0 0 0 0 0 0 0 0 0 0 0 0 0 0 0 0 0 0 0 0 441 486 483 487 481 489 481 487 486 479 482 491 491 487 495 495 489 494 492 493 492 494 490 497 497 496 502 497 496 496 501 504 500 497 498 502 501 500 503 504 496 502 494 504 508 500 501 503 503 500 502 503 507 511 497 509 506 539 521 533 528 524 509 518 529 531 540 521 549 508 537 562 540 535 510 546 531 540 545 513 507 560 535 514 560 517 527 514 489 565 604 0 0 0 0 0 0 0 0
0 0 0 0 0 0 0 0 0 0 0 0 0 0 0 0 0 0 0 0 0 462 481 485 480 474 482 485 480 481 482 485 486 491 486 489 486 494 489 496 496 490 493 493 487 491 497 494 496 498 494 496 499 495 499 504 501 496 499 498 504 499 503 503 501 503 506 505 501 498 496 499 504 513 503 498 502 503 522 507 514 515 504 523 522 526 514 518 521 508 525 516 514 514 502 526 514 494 528 516 511 503 497 515 490 491 508 480 516 501 491 502 528 502 0 0 0 0 0 0
0 0 0 0 0 0 0 0 0 0 0 0 0 0 0 0 0 0 0 0 0 473 487 481 487 484 484 483 486 490 491 492 486 487 487 492 486 492 490 493 498 489 496 493 493 492 493 501 493 495 498 502 497 499 502 504 502 506 507 502 496 503 500 501 503 502 514 503 496 509 505 496 503 498 511 506 504 507 526 518 519 513 530 522 503 545 507 500 556 519 527 528 540 522 512 527 527 495 540 534 542 533 499 543 559 547 537 534 547 551 502 501 590 540 0 0 0 0 0 0
0 0 0 0 0 0 0 0 0 0 0 0 0 0 0 0 0 0 0 0 0 460 472 477 477 476 484 484 481 480 487 485 482 485 486 487 484 486 487 486 490 490 489 491 494 489 489 490 494 494 495 499 497 498 496 494 493 500 498 499 496 500 496 495 499 501 495 505 504 495 506 503 504 500 499 502 508 512 504 500 503 489 515 515 515 507 516 485 517 512 474 496 495 532 493 484 510 515 503 509 488 528 500 506 523 530 494 523 480 483 493 518 462 0 0 0 0 0 0 0
0 0 0 0 0 0 0 0 0 0 0 0 0 0 0 0 0 0 0 0 0 454 475 478 478 477 476 475 478 482 484 486 482 483 487 481 483 486 492 487 491 493 488 488 495 487 493 495 495 496 487 492 501 496 496 504 492 495 499 500 496 497 501 496 494 502 495 498 502 496 494 499 504 506 504 494 506 495 496 483 513 496 504 497 501 505 508 470 495 478 500 498 502 491 498 499 494 490 495 503 486 476 494 485 476 468 495 520 508 491 486 479 449 452 0 0 0 0 0 0
0 0 0 0 0 0 0 0 0 0 0 0 0 0 0 0 0 0 0 0 0 441 470 481 478 479 477 481 483 478 479 481 484 485 486 487 483 484 484 493 494 487 491 489 494 489 492 492 493 497 500 495 495 498 493 498 499 501 501 496 498 498 501 502 499 496 500 502 499 502 504 499 506 501 504 499 499 494 503 508 500 505 500 508 499 517 537 513 522 505 522 527 510 495 519 506 508 512 517 524 540 524 500 493 490 512 473 550 501 500 556 477 539 532 0 0 0 0 0 0
0 0 0 0 0 0 0 0 0 0 0 0 0 0 0 0 0 0 0 0 0 438 472 473 471 473 481 476 470 477 480 487 480 482 487 484 481 480 483 492 486 480 484 487 487 487 489 488 482 490 489 495 495 494 492 492 493 496 493 493 498 499 499 494 497 497 497 493 496 492 495 495 489 498 496 493 505 493 490 494 483 492 482 470 476 478 475 461 497 487 495 450 474 477 474 487 480 485 501 479 457 481 475 478 478 491 482 455 503 478 459 479 448 0 0 0 0 0 0 0
0 0 0 0 0 0 0 0 0 0 0 0 0 0 0 0 0 0 0 0 0 448 479 476 478 482 477 476 477 480 483 486 489 487 479 479 487 486 485 487 491 489 486 491 491 493 490 489 489 491 496 496 493 495 500 494 498 492 492 498 496 498 501 499 502 500 497 498 503 494 497 501 492 501 499 502 496 502 498 525 511 490 508 506 495 489 520 495 501 513 513 491 523 497 487 506 492 512 512 517 519 479 464 494 540 497 536 506 519 510 450 497 485 468 0 0 0 0 0 0
0 0 0 0 0 0 0 0 0 0 0 0 0 0 0 0 0 0 0 0 0 471 472 471 473 480 479 480 475 481 478 482 482 481 482 489 486 490 485 484 489 489 490 492 491 483 486 487 490 496 493 487 496 494 504 496 493 496 497 496 499 495 492 499 500 501 500 504 497 499 496 500 496 495 498 501 501 505 523 517 509 510 525 497 524 519 512 504 528 518 527 538 507 507 493 527 525 505 516 513 503 521 530 517 534 513 501 531 497 513 523 537 550 552 0 0 0 0 0 0
0 0 0 0 0 0 0 0 0 0 0 0 0 0 0 0 0 0 0 0 0 467 477 471 479 471 482 474 479 479 480 484 478 484 483 486 486 484 477 486 483 486 497 490 486 491 489 489 492 488 488 497 494 492 497 496 490 489 490 495 500 496 500 501 500 498 497 499 498 498 498 495 502 495 498 499 500 501 496 489 498 489 482 485 501 484 488 493 501 482 494 493 488 486 498 509 492 490 490 516 505 488 505 492 503 491 462 494 494 518 513 465 515 480 0 0 0 0 0 0
0 0 0 0 0 0 0 0 0 0 0 0 0 0 0 0 0 0 0 0 0 0 470 473 479 478 481 479 485 485 481 485 483 481 483 481 486 485 489 490 485 488 485 491 490 491 490 496 495 497 493 496 491 493 492 497 493 498 491 496 499 498 501 499 503 499 497 497 498 499 495 498 499 499 500 496 497 488 493 494 507 526 512 494 495 535 496 525 511 513 507 522 531 517 506 536 534 525 536 524 513 520 530 519 531 515 495 521 534 530 505 493 549 518 0 0 0 0 0 0
0 0 0 0 0 0 0 0 0 0 0 0 0 0 0 0 0 0 0 0 0 0 493 475 470 473 475 479 477 476 477 474 477 483 475 483 480 482 485 486 488 487 486 481 493 488 490 490 490 488 490 493 497 495 490 494 491 491 496 495 494 497 495 499 496 499 497 498 495 497 502 492 501 496 489 493 497 498 511 508 510 506 508 488 512 509 523 517 515 513 509 504 518 499 512 509 508 479 501 500 502 495 500 486 513 486 491 496 514 495 449 467 464 413 0 0 0 0 0 0
0 0 0 0 0 0 0 0 0 0 0 0 0 0 0 0 0 0 0 0 0 0 513 470 470 473 483 471 476 475 480 475 481 480 480 483 484 479 475 482 491 485 487 486 485 492 494 486 492 496 492 494 490 492 492 489 489 493 496 499 494 492 493 495 500 497 496 497 492 494 496 497 497 493 491 489 498 502 490 490 499 496 506 493 490 485 485 494 509 496 537 515 502 502 499 472 493 490 505 500 506 500 485 494 478 467 475 488 482 499 501 502 461 466 442 464 0 0 0 0
0 0 0 0 0 0 0 0 0 0 0 0 0 0 0 0 0 0 0 0 0 0 609 475 474 478 476 477 475 480 480 485 481 478 480 486 482 480 485 483 485 487 486 484 487 486 496 486 493 485 491 492 493 491 493 492 494 495 500 494 500 498 497 498 493 495 500 500 501 495 492 494 494 496 494 491 494 494 501 483 517 494 518 522 517 538 509 505 536 500 504 524 524 510 515 470 517 518 505 506 539 518 486 512 512 509 466 515 507 465 499 448 460 518 0 0 0 0 0 0
0 0 0 0 0 0 0 0 0 0 0 0 0 0 0 0 0 0 0 0 0 0 0 477 464 471 470 473 472 473 476 475 476 480 485 479 482 481 481 481 484 486 487 486 489 484 487 490 494 489 491 489 493 492 489 492 490 496 494 492 493 493 495 493 492 490 495 496 496 496 498 495 495 492 490 494 495 490 498 474 492 493 481 481 497 492 504 493 490 497 486 501 485 491 489 482 487 502 475 503 505 501 474 476 463 459 485 478 475 455 516 529 405 0 0 0 0 0 0 0
0 0 0 0 0 0 0 0 0 0 0 0 0 0 0 0 0 0 0 0 0 0 0 501 475 471 474 471 475 470 479 475 478 480 479 479 480 481 488 483 485 486 490 487 484 486 488 488 494 492 496 492 492 493 494 491 493 490 494 494 494 496 496 498 490 495 498 499 496 494 493 495 495 493 494 487 494 498 488 497 493 514 485 485 500 485 511 491 492 506 489 504 513 511 511 513 507 500 524 495 472 509 529 496 480 495 476 497 485 501 506 511 494 0 0 0 0 0 0 0
0 0 0 0 0 0 0 0 0 0 0 0 0 0 0 0 0 0 0 0 0 0 0 506 471 477 467 472 476 480 477 477 483 479 467 476 477 480 481 482 484 483 488 485 484 488 492 489 490 486 491 493 493 493 496 488 491 491 490 492 497 495 495 496 500 498 490 499 496 495 493 494 492 498 497 492 491 485 499 520 495 503 519 508 513 490 516 513 517 518 531 533 524 522 536 508 510 500 512 504 517 518 524 494 505 508 462 527 482 521 511 518 482 555 0 0 0 0 0 0
0 0 0 0 0 0 0 0 0 0 0 0 0 0 0 0 0 0 0 0 0 0 0 0 474 471 469 472 470 470 477 470 476 479 474 479 479 478 479 481 478 479 484 483 488 485 489 484 496 489 489 495 490 487 491 491 491 493 491 494 495 493 496 495 495 496 495 493 495 494 495 495 491 494 493 485 501 501 500 488 488 505 505 501 502 501 509 497 492 492 517 501 509 492 511 508 501 502 495 506 495 501 503 491 485 531 484 491 449 471 495 507 461 500 512 532 0 0 0 0
0 0 0 0 0 0 0 0 0 0 0 0 0 0 0 0 0 0 0 0 0 0 0 0 540 468 474 475 473 475 478 473 476 481 473 481 477 482 484 483 486 483 482 486 486 487 491 486 486 492 491 487 495 495 489 488 490 492 496 490 500 493 495 499 495 493 494 497 498 496 498 497 495 492 495 491 497 507 500 505 515 490 506 500 529 526 508 516 524 509 489 514 539 518 551 517 530 535 514 528 522 521 503 508 503 497 479 532 511 469 495 506 479 471 508 580 0 0 0 0
0 0 0 0 0 0 0 0 0 0 0 0 0 0 0 0 0 0 0 0 0 0 0 0 0 479 469 469 468 470 472 475 478 477 476 475 477 476 485 482 481 478 480 484 482 485 484 477 488 484 491 487 489 488 487 487 490 488 484 490 491 492 492 489 494 492 488 498 490 501 493 491 492 487 488 488 481 479 473 486 486 487 493 479 496 500 484 501 490 512 496 490 505 496 484 507 488 504 485 487 486 469 510 500 485 483 471 476 439 485 458 473 455 445 0 0 0 0 0 0
0 0 0 0 0 0 0 0 0 0 0 0 0 0 0 0 0 0 0 0 0 0 0 0 0 538 469 468 469 472 469 469 472 474 475 478 478 475 477 476 481 480 476 475 479 481 479 479 485 487 484 481 486 489 487 485 493 489 488 492 489 487 491 491 489 492 496 488 491 488 493 490 493 488 486 481 484 478 477 479 491 489 484 479 488 488 487 479 478 486 501 479 481 473 485 514 466 510 471 512 486 495 492 462 462 472 465 480 456 470 492 452 453 480 458 0 0 0 0 0
0 0 0 0 0 0 0 0 0 0 0 0 0 0 0 0 0 0 0 0 0 0 0 0 0 0 491 476 470 470 467 473 473 475 476 476 478 477 477 475 479 479 479 481 484 484 484 484 481 481 487 485 488 484 487 486 484 489 491 489 489 491 489 490 493 495 489 489 493 492 500 491 489 490 482 491 491 508 494 486 492 487 494 497 502 496 486 478 473 491 503 508 515 499 484 496 490 511 499 500 517 515 482 486 506 510 494 505 505 479 444 448 462 507 0 0 0 0 0 0
0 0 0 0 0 0 0 0 0 0 0 0 0 0 0 0 0 0 0 0 0 0 0 0 0 0 0 461 468 463 465 465 470 473 469 472 473 477 475 475 482 484 478 474 478 480 480 480 485 485 480 486 481 482 480 482 486 484 483 487 484 488 488 486 490 490 487 489 492 489 491 486 486 485 489 483 470 483 478 474 470 474 482 472 484 474 490 465 486 477 476 492 479 474 470 471 473 485 491 478 509 489 466 440 456 452 446 477 475 439 441 421 438 459 408 0 0 0 0 0
0 0 0 0 0 0 0 0 0 0 0 0 0 0 0 0 0 0 0 0 0 0 0 0 0 0 0 533 470 456 465 466 470 471 472 470 475 471 475 473 481 474 480 484 480 480 480 483 484 484 483 480 484 485 481 485 486 481 487 489 488 490 489 489 491 487 488 487 488 489 482 485 482 482 479 493 478 483 497 478 475 491 474 501 500 489 505 459 505 494 484 506 481 510 478 513 501 479 478 478 505 475 502 476 492 472 479 480 486 477 499 468 452 536 511 0 0 0 0 0
0 0 0 0 0 0 0 0 0 0 0 0 0 0 0 0 0 0 0 0 0 0 0 0 0 0 0 0 517 477 463 463 469 470 473 472 475 477 475 477 474 478 477 479 481 480 477 481 478 484 484 484 486 484 477 485 487 485 485 489 492 484 489 490 483 485 490 489 489 487 485 485 482 489 491 496 496 481 503 489 497 484 493 500 493 492 493 481 506 476 499 496 510 501 473 499 495 514 502 495 508 510 494 499 503 533 491 505 521 493 558 458 522 525 0 0 0 0 0 0
0 0 0 0 0 251 237 252 330 0 0 0 0 0 0 0 0 0 0 0 0 0 0 0 0 0 0 0 0 486 463 464 467 467 465 473 472 472 471 471 476 477 476 472 476 482 478 478 479 473 481 482 476 483 484 483 481 484 485 482 487 486 483 486 489 488 487 484 478 490 478 483 480 472 484 477 480 475 487 485 485 474 481 462 495 497 489 482 463 480 481 496 501 482 494 489 490 489 480 496 490 491 472 464 487 448 480 462 456 466 438 479 449 476 484 0 0 0 0 0
0 0 0 0 252 229 233 236 239 286 374 0 0 0 0 0 0 0 0 0 0 2297 0 0 0 0 0 0 0 0 461 467 465 474 473 470 474 474 480 474 473 475 473 470 481 477 478 479 481 483 480 483 484 479 479 483 488 480 480 478 482 481 483 489 486 485 479 485 485 482 478 480 473 493 489 499 496 481 480 496 489 490 477 482 500 498 491 477 476 480 484 485 493 478 486 504 502 501 511 519 475 502 531 485 511 482 496 485 486 509 515 527 526 465 0 0 0 0 0 0
0 0 0 230 220 225 226 225 233 239 325 0 0 0 0 0 0 0 0 0 0 0 0 0 0 0 0 0 0 0 0 472 459 467 468 467 466 465 465 470 473 470 474 470 471 475 473 480 480 479 476 480 482 477 482 475 482 482 477 482 482 483 477 479 477 479 481 471 476 473 475 470 479 482 488 483 489 478 477 477 483 470 491 475 477 478 484 481 480 481 471 464 507 477 482 478 478 479 466 493 462 463 481 442 444 465 444 434 451 447 445 440 436 470 414 0 0 0 0 0
231 258 244 241 271 275 268 228 232 236 302 0 401 382 414 405 427 427 407 404 448 442 432 432 461 445 439 442 450 455 447 461 460 465 463 461 465 471 472 472 464 472 473 463 471 472 475 469 474 478 473 474 470 480 484 471 476 475 477 484 478 483 474 481 484 480 475 475 471 471 478 477 470 471 479 461 475 459 474 466 488 469 465 460 464 484 480 489 476 484 467 463 468 475 464 465 466 474 451 472 464 481 458 451 446 473 478 442 431 459 435 454 442 460 417 438 0 0 0 0
195 211 210 243 222 237 250 232 228 249 395 378 416 402 381 409 404 397 406 411 412 422 429 416 445 429 422 435 447 443 452 452 454 453 456 458 456 462 454 455 462 464 460 468 463 471 476 472 477 471 467 474 468 470 468 465 471 473 476 467 476 471 469 472 472 470 482 469 468 469 471 468 469 474 465 458 457 459 458 457 452 455 455 455 448 454 448 455 453 455 456 455 445 441 456 438 454 454 454 464 455 439 475 452 477 454 436 479 486 443 434 432 433 436 479 421 408 413 0 0
175 180 209 182 214 226 237 228 226 292 370 345 362 334 352 348 366 374 369 366 377 375 390 391 379 392 417 410 413 428 436 440 437 439 443 443 443 442 441 443 444 446 443 444 445 446 449 448 456 452 451 448 458 449 457 458 460 452 452 457 456 457 454 460 455 458 452 448 452 452 457 449 442 450 432 424 434 432 418 414 430 415 430 425 415 423 424 422 411 419 425 426 423 419 413 412 419 419 422 414 423 403 401 408 404 413 420 409 419 406 395 412 402 399 382 369 406 380 337 0
291 289 251 227 239 228 234 235 254 359 345 312 324 344 331 341 344 349 347 338 357 348 362 378 384 393 393 404 415 422 415 425 417 430 432 429 433 432 427 429 427 431 435 431 433 432 438 439 447 439 444 438 440 437 447 445 445 438 448 439 445 437 441 446 441 440 435 441 440 435 433 440 435 422 425 419 407 397 408 402 398 397 383 392 399 401 393 395 395 397 400 378 401 404 390 382 392 389 394 395 395 395 411 398 415 381 391 388 382 383 380 384 400 390 400 405 370 403 350 373
297 289 268 246 235 232 232 244 286 306 311 310 309 306 310 319 312 314 309 327 323 325 336 344 355 369 386 379 402 394 401 404 411 412 411 408 411 409 410 418 419 415 413 415 412 420 417 424 421 418 418 421 419 424 421 420 422 424 425 428 422 425 417 426 419 419 422 423 415 422 414 409 406 411 401 395 377 376 370 381 365 368 359 368 368 357 358 361 375 366 369 361 360 367 369 362 379 354 362 374 363 360 361 378 360 382 375 359 365 369 358 357 367 363 379 358 383 361 364 390
288 265 277 259 263 254 248 271 287 289 282 273 274 288 287 296 291 286 283 274 302 304 302 317 329 345 359 364 367 377 377 390 390 379 389 383 395 394 397 388 392 392 389 393 389 396 396 388 396 392 393 402 392 394 393 386 395 395 400 398 395 395 396 396 395 389 388 394 388 393 390 392 386 381 372 366 360 352 335 337 347 325 329 325 331 330 331 333 333 340 330 337 326 328 339 336 321 331 329 325 331 325 340 325 341 341 335 335 328 320 326 346 334 333 335 349 323 348 325 299
256 238 253 250 259 255 268 262 265 268 268 267 265 258 254 263 270 272 273 270 269 283 301 298 310 316 338 344 345 356 363 363 365 365 366 374 369 369 371 373 373 368 370 374 366 370 370 370 371 377 382 370 373 383 379 370 374 382 374 383 379 374 375 377 378 371 372 377 377 372 371 370 365 367 353 342 331 316 311 316 320 304 305 305 306 317 304 303 303 304 303 311 303 322 313 307 306 298 296 311 320 311 312 306 315 309 313 315 319 300 313 313 319 328 291 312 333 327 316 279
222 230 223 237 227 242 237 243 234 236 241 241 242 245 244 246 232 243 246 251 250 264 272 277 291 295 315 328 322 333 327 336 342 342 339 336 343 337 344 344 352 348 350 347 350 342 345 344 349 340 345 349 349 355 356 347 351 349 353 350 350 349 354 343 347 350 343 345 350 349 346 343 339 342 327 322 312 294 287 288 281 278 282 270 288 277 278 279 277 281 274 275 275 265 279 276 273 271 274 278 289 283 283 273 273 271 281 283 276 266 280 283 278 277 294 264 281 290 279 306
207 223 223 223 221 220 218 219 228 228 230 222 228 228 231 226 223 239 231 238 241 247 245 262 273 283 293 292 298 305 308 313 320 321 324 319 323 320 320 329 322 316 317 323 328 323 325 325 321 322 319 321 328 321 323 320 321 321 326 329 328 324 322 329 328 325 329 327 326 319 318 320 319 307 301 292 284 272 275 272 267 261 257 259 261 260 253 258 262 255 259 260 260 255 260 260 255 251 266 258 257 258 256 253 249 258 267 251 263 257 253 269 267 262 263 252 262 252 275 239
201 213 206 218 216 208 218 218 210 211 218 214 212 210 214 216 218 218 222 224 229 234 246 251 258 262 271 280 282 283 284 294 296 289 298 301 296 298 302 303 297 300 297 300 304 301 305 302 307 303 304 304 300 298 295 301 307 303 301 300 300 305 314 303 302 307 304 302 306 301 298 301 299 291 284 271 268 261 253 248 247 242 251 243 246 241 245 242 241 243 244 248 253 249 244 239 242 241 242 235 238 240 248 253 240 236 246 240 244 248 245 248 250 253 258 248 246 229 255 261
176 200 192 192 194 199 203 203 183 203 188 185 188 188 184 190 192 205 204 210 218 225 229 227 239 243 244 256 267 271 268 266 272 275 279 278 281 278 282 283 283 279 284 286 281 278 280 279 280 281 281 280 276 285 276 284 289 282 285 288 281 287 287 286 279 285 284 281 286 281 281 278 277 270 268 259 253 248 239 231 228 221 224 230 226 227 226 218 229 230 220 231 226 230 222 227 222 219 221 226 223 231 226 219 227 222 220 226 227 230 231 236 239 240 234 245 220 211 226 235
194 168 177 173 197 183 186 202 183 184 182 184 185 188 190 179 181 188 190 192 203 211 221 227 228 235 237 241 247 246 261 255 260 258 263 260 259 257 267 267 259 266 264 267 265 264 267 270 260 270 262 267 266 266 265 266 271 268 268 273 265 269 264 271 272 270 270 271 267 261 267 259 255 258 249 244 238 234 226 220 217 219 221 220 215 228 214 216 219 203 214 215 214 213 214 216 215 198 212 215 219 223 220 211 209 214 212 223 222 223 220 228 220 229 216 214 236 224 231 231
178 172 166 177 180 180 176 173 179 176 181 174 184 178 180 186 180 188 181 181 188 191 205 214 215 221 220 226 228 232 233 242 248 235 241 242 237 243 247 253 245 241 247 248 253 254 250 243 245 249 245 249 249 246 243 246 253 254 253 252 251 248 252 251 247 257 252 248 248 249 245 246 246 237 235 229 221 214 213 198 195 198 189 186 195 193 192 196 191 193 192 188 194 186 207 191 189 205 192 187 205 189 190 190 186 194 205 203 205 208 212 198 199 212 219 205 216 205 203 200
170 172 174 175 173 175 173 175 173 178 174 173 172 175 177 180 177 177 183 188 186 187 180 191 208 193 212 219 215 223 230 225 224 226 227 225 230 233 228 230 225 233 230 234 233 236 230 228 233 231 235 232 234 236 235 230 233 235 236 237 233 235 234 233 234 237 229 229 230 231 232 230 229 222 214 214 212 198 192 192 192 194 197 187 192 183 183 191 191 191 191 192 191 187 185 190 180 187 185 189 186 178 176 181 183 177 187 180 173 179 175 185 193 200 197 180 202 183 198 205
166 168 171 174 174 171 170 168 166 163 166 164 168 170 171 172 173 176 178 185 182 187 189 181 189 187 190 190 210 210 210 219 211 214 211 215 216 215 213 213 219 222 220 219 219 224 220 223 220 222 220 222 220 222 218 219 220 224 223 227 217 222 221 222 217 216 216 219 219 219 224 217 216 197 196 195 187 198 188 189 189 182 191 183 186 186 188 186 184 185 187 181 183 180 187 181 183 179 183 189 185 186 185 185 178 185 180 182 182 177 173 181 178 173 199 176 198 193 172 214
150 153 160 162 159 158 158 164 163 164 162 160 159 160 159 160 161 166 165 174 172 174 181 178 183 184 187 192 191 190 181 186 186 186 196 189 186 189 185 189 191 193 191 189 198 194 196 194 190 193 194 194 196 196 192 194 194 190 190 195 203 200 199 192 194 192 195 196 199 196 194 196 194 193 187 197 191 188 185 178 179 176 176 179 173 172 174 175 179 173 173 175 170 171 174 169 171 172 170 170 176 174 166 170 175 163 171 163 170 169 170 174 166 174 168 169 175 172 173 170
146 151 149 158 151 155 153 159 156 160 158 158 155 154 156 153 154 162 155 166 168 169 179 178 179 176 177 182 183 185 190 187 188 191 191 189 192 192 191 191 192 191 191 187 196 196 195 194 194 191 193 188 196 196 197 195 197 199 195 196 195 198 200 199 193 193 194 197 197 196 195 193 192 190 191 183 185 181 179 171 172 174 167 164 165 171 168 165 168 168 167 168 170 166 170 170 162 169 163 162 165 169 171 168 168 161 164 165 161 162 167 167 169 169 174 176 160 168 158 153
145 144 146 148 149 147 149 150 146 151 152 152 151 153 151 151 153 151 153 158 160 163 163 171 170 173 175 177 176 179 176 177 181 182 179 183 184 178 183 183 182 184 186 187 182 187 184 186 186 186 187 190 189 186 188 187 188 190 0 188 188 189 186 187 185 189 190 186 188 185 187 184 181 178 174 178 173 174 171 165 162 158 163 161 158 160 164 156 165 161 160 162 160 165 159 160 158 154 163 165 161 164 161 158 160 163 156 159 160 160 157 161 156 163 160 170 158 161 169 168
135 141 134 141 139 150 147 145 145 145 143 144 141 146 142 145 143 144 144 153 156 155 164 162 165 166 169 167 169 172 171 170 176 172 169 173 174 172 173 178 174 178 176 177 172 177 174 177 177 177 178 178 178 177 180 180 182 0 0 177 178 178 180 179 178 176 178 177 177 174 175 176 173 172 172 171 169 165 163 158 163 156 153 151 154 157 157 152 154 154 151 150 157 155 155 156 150 152 152 153 153 156 153 155 150 148 147 149 154 152 151 151 142 149 145 147 138 149 148 162
140 133 131 139 144 141 148 142 145 139 142 137 144 143 145 140 143 146 145 146 151 153 155 159 163 162 162 161 164 166 162 165 169 165 165 167 164 169 167 170 174 0 173 171 174 172 171 171 172 171 173 171 172 175 175 0 171 171 0 176 0 0 175 172 174 169 174 169 171 170 167 166 168 169 165 165 164 159 158 152 152 154 151 150 153 151 150 147 152 158 146 153 149 151 150 147 153 148 154 150 150 146 152 149 151 148 147 146 149 148 151 147 145 160 149 151 147 157 158 167
128 124 126 125 132 134 142 138 136 123 133 132 131 132 136 138 135 135 135 142 140 146 148 154 149 157 156 155 155 163 162 155 156 160 158 160 163 161 0 0 0 0 0 0 0 0 0 164 166 164 167 166 167 166 0 0 0 167 166 0 0 0 0 0 167 167 166 0 164 163 162 160 163 160 156 154 151 157 148 149 149 144 144 147 143 149 144 147 141 140 146 145 145 148 143 140 143 144 142 143 139 139 142 141 137 135 141 136 139 146 142 143 150 151 153 143 141 140 144 150
117 118 121 115 129 134 133 131 135 130 127 133 125 127 123 123 122 136 137 135 139 141 145 146 149 150 153 154 154 154 155 154 157 160 154 156 155 0 0 0 0 0 0 0 0 0 0 0 0 161 162 160 0 0 0 0 0 0 0 0 0 0 0 0 162 163 0 0 0 0 0 154 160 153 152 151 149 151 149 145 140 140 143 145 140 143 138 138 143 141 137 141 136 139 138 128 139 145 137 134 138 137 139 134 129 131 134 133 139 137 138 143 135 142 145 135 131 131 131 159
113 107 119 123 129 126 128 129 126 126 132 121 120 118 120 129 132 132 132 134 127 134 135 144 142 142 146 145 145 151 150 147 156 149 150 148 0 0 0 0 0 0 0 0 0 0 0 0 150 154 157 0 0 0 0 0 0 0 0 0 0 0 0 0 0 0 0 0 0 0 0 0 150 149 150 149 151 146 142 145 130 140 137 137 129 126 136 140 129 137 136 130 130 135 118 130 138 138 135 133 128 140 135 132 132 132 134 126 135 141 136 139 136 150 144 130 135 132 129 130
103 111 112 110 111 113 119 119 116 121 113 115 115 114 127 123 122 119 116 117 131 123 126 125 135 141 142 139 141 145 140 143 143 143 146 143 0 0 0 0 0 0 0 0 0 0 0 0 0 0 0 0 0 0 0 0 0 0 0 0 0 0 0 0 0 0 0 0 0 0 0 0 0 140 140 140 137 130 127 139 124 122 122 120 126 121 124 127 121 128 124 123 111 127 125 134 123 131 122 118 115 129 134 119 129 131 118 123 135 128 126 132 115 119 111 116 112 102 128 111
110 108 116 117 113 112 116 117 119 116 113 120 117 114 120 125 117 127 122 114 116 111 122 118 131 127 140 131 0 142 0 0 0 137 142 0 0 0 0 0 0 0 0 0 0 0 0 0 0 0 0 0 0 0 0 0 0 0 0 0 0 0 0 0 0 0 0 0 0 0 0 0 0 142 126 127 122 123 118 127 119 116 120 125 116 121 119 123 120 117 120 126 117 115 109 120 120 118 119 121 119 125 131 123 131 114 126 118 108 132 120 110 120 114 126 122 103 130 142 150
105 100 111 109 102 101 105 105 102 105 110 105 104 105 106 110 108 113 116 109 114 113 113 118 120 120 122 122 118 126 136 0 0 0 124 0 0 0 0 0 0 0 0 0 0 0 0 0 0 0 0 0 0 0 0 0 0 0 0 0 0 0 0 0 0 0 0 0 0 0 0 0 0 0 0 126 119 119 123 113 121 113 110 114 110 117 110 116 116 115 113 114 108 106 109 104 111 113 108 109 117 111 112 116 111 114 112 108 106 111 110 104 107 124 121 105 108 131 119 142
97 100 90 96 100 101 101 99 101 102 98 102 105 104 106 104 105 107 117 107 109 108 108 108 116 109 114 116 119 120 0 126 0 0 0 0 0 0 0 0 0 0 0 0 0 0 0 0 0 0 0 0 0 0 0 0 0 0 0 0 0 0 0 0 0 0 0 0 0 0 0 0 0 121 0 113 120 113 115 109 112 107 104 104 111 109 109 115 106 110 114 112 111 111 106 115 105 107 98 115 111 103 109 100 105 115 106 111 105 110 105 100 102 90 99 114 111 94 99 125
98 103 98 102 101 100 103 93 94 98 102 97 105 97 101 95 105 104 112 116 112 108 97 107 113 105 115 116 115 123 121 119 122 0 0 0 0 0 0 0 0 0 0 0 0 0 0 0 0 0 0 0 0 0 0 0 0 0 0 0 0 0 0 0 0 0 0 0 0 0 0 0 123 120 111 120 114 117 116 115 105 110 103 118 108 105 103 102 104 103 105 108 115 92 97 102 105 102 113 107 109 108 109 104 109 107 104 95 103 106 103 102 98 98 103 97 132 130 132 118
86 80 82 83 80 82 84 93 89 82 89 94 94 97 90 89 77 93 90 89 93 87 102 110 101 102 114 106 0 0 105 105 117 0 0 0 0 0 0 0 0 0 0 0 0 0 0 0 0 0 0 0 0 0 0 0 0 0 0 0 0 0 0 0 0 0 0 0 0 0 0 0 111 110 103 110 108 105 102 98 101 101 97 91 99 98 93 99 104 98 91 98 99 84 85 96 92 100 86 96 95 93 89 88 85 93 102 100 95 89 92 76 83 94 92 100 95 91 101 143
97 87 91 90 94 95 95 107 90 92 96 95 93 90 96 96 97 91 100 97 95 105 107 104 107 106 107 107 0 102 114 107 116 113 121 109 0 0 115 0 0 119 0 0 0 0 0 0 0 0 0 0 0 0 0 0 0 0 0 0 115 0 0 0 113 0 0 0 108 0 109 108 113 109 116 107 107 107 105 101 110 104 104 87 98 99 104 102 102 103 107 105 107 100 100 104 101 97 102 109 104 98 89 103 97 105 93 91 89 81 92 95 84 103 105 103 105 98 118 134
87 94 93 90 94 99 92 92 87 97 84 89 90 93 87 85 94 99 96 96 99 91 98 116 88 104 102 102 104 110 96 0 105 103 100 106 0 114 115 0 0 0 0 0 0 0 0 0 0 0 0 0 0 0 0 0 0 109 0 0 0 105 103 108 113 111 105 102 113 107 108 104 105 103 112 108 102 94 102 97 96 96 98 87 95 91 95 102 107 94 96 102 109 87 86 85 93 93 94 87 97 85 89 101 90 96 102 94 101 88 95 93 95 94 103 102 131 144 155 118
85 84 83 87 89 94 102 88 88 83 89 89 84 91 88 89 88 87 92 84 77 91 92 85 88 93 88 89 105 87 94 97 94 97 94 111 98 101 105 101 104 97 99 109 109 91 0 0 95 0 0 106 105 90 100 107 107 104 108 105 99 103 109 102 100 111 102 94 98 108 97 108 106 99 105 93 91 98 99 93 92 92 92 96 94 96 90 89 96 93 99 89 92 92 92 91 83 91 91 85 87 89 89 89 85 79 95 81 77 91 84 95 89 90 75 91 115 85 112 123
84 79 86 84 84 89 96 99 83 90 86 81 86 89 85 92 90 94 90 97 88 96 93 95 91 94 92 88 96 100 96 84 98 94 98 97 97 101 94 107 102 96 98 107 102 95 105 0 104 104 96 103 97 99 102 104 104 107 96 107 104 94 94 104 101 101 96 101 95 107 98 106 99 97 105 87 97 95 95 95 98 96 87 92 95 95 88 86 97 89 93 98 88 92 91 83 93 94 99 88 93 100 80 90 91 100 94 97 95 88 91 94 94 91 108 121 114 98 130 96
83 74 71 69 79 84 87 87 89 78 87 82 88 83 87 85 85 87 85 85 93 84 93 88 85 86 93 93 86 93 91 92 95 93 95 96 97 85 88 84 92 88 83 88 97 93 86 101 93 88 95 86 98 90 89 82 103 91 96 97 99 81 82 98 95 81 98 91 97 96 94 86 90 94 87 91 92 95 90 95 88 94 87 90 81 92 91 89 83 88 78 80 93 81 84 86 84 77 81 88 79 91 80 71 83 81 87 84 83 81 90 87 84 85 93 107 139 118 125 85
72 73 81 86 71 82 81 86 82 79 81 89 82 81 83 88 87 88 83 84 83 93 83 92 87 94 94 84 93 89 85 96 90 94 85 90 88 93 94 97 92 82 92 90 87 99 87 86 101 87 90 85 96 85 100 97 91 96 90 93 93 98 89 94 97 93 87 93 104 94 93 92 85 96 94 96 96 84 96 93 90 87 86 88 79 85 88 80 89 93 75 89 77 84 91 80 92 87 84 77 83 76 83 80 75 84 82 90 89 88 82 86 82 88 77 90 85 82 128 142
