0 0 0 0 0 0 0 0 0 0 0 0 0 0 0 0 0 0 0 0 0 0 0 0 0 0 0 0 0 0 0 0 0 0 0 0 0 0 0 0 0 0 0 0 0 0 0 0 0 0 0 0 0 0 0 0 0 0 0 0 0 0 0 0 0 0 0 0 0 0 0 0 0 0 0 0 0 0 0 0 0 0 0 0 0 0 0 0 0 0 0 0 0 0 0 0 0 0 0 0 0 0 0 0 0 0 0 0 0 0 0 0 0 0 0 0 0 0 0 0
0 0 0 0 0 0 0 0 0 0 0 0 0 0 0 0 0 0 0 0 0 0 0 0 0 0 0 0 0 0 0 0 0 0 0 0 0 0 0 0 0 0 0 0 0 0 0 0 0 0 0 0 0 0 0 0 0 0 0 0 0 0 0 0 0 0 0 0 0 0 0 0 0 0 0 0 0 0 0 0 0 0 0 0 0 0 0 0 0 0 0 0 0 0 0 0 0 0 0 0 0 0 0 0 0 0 0 0 0 0 0 0 0 0 0 0 0 0 0 0
0 0 0 0 0 0 0 0 0 0 0 0 0 0 0 0 0 0 0 0 0 0 0 0 0 0 0 0 0 0 0 0 0 0 0 0 0 0 0 0 0 0 0 0 0 0 0 0 0 0 0 0 0 0 0 0 0 0 0 0 0 0 0 0 0 0 0 0 0 0 0 0 0 0 0 0 0 0 0 0 0 0 0 0 0 0 0 0 0 0 0 0 0 0 0 0 0 0 0 0 0 0 0 0 0 0 0 0 0 0 0 0 0 0 0 0 0 0 0 0
0 0 0 0 0 0 0 0 0 0 0 0 0 0 0 0 0 0 0 0 0 0 0 0 0 0 0 0 0 0 0 0 0 0 0 0 0 0 0 0 0 0 0 0 0 0 0 0 0 0 0 0 0 0 0 0 0 0 0 0 0 0 0 0 0 0 0 0 0 0 0 0 0 0 0 0 0 0 0 0 0 0 0 0 0 0 0 0 0 0 0 0 0 0 0 0 0 0 0 0 0 0 0 0 0 0 0 0 0 0 0 0 0 0 0 0 0 0 0 0
0 0 0 0 0 0 0 0 0 0 0 0 0 0 0 0 0 0 0 0 0 0 0 0 0 0 0 0 0 0 0 0 0 0 0 0 0 0 0 0 0 0 0 0 0 0 0 0 0 0 0 0 0 0 0 0 0 0 0 0 0 0 0 0 0 0 0 0 0 0 0 0 0 0 0 0 0 0 0 0 0 0 0 0 0 0 0 0 0 0 0 0 0 0 0 0 0 0 0 0 0 0 0 0 0 0 0 0 0 0 0 0 0 0 0 0 0 0 0 0
0 0 0 0 0 0 0 0 0 0 0 0 0 0 0 0 0 0 0 0 0 0 0 0 0 0 0 0 0 0 0 0 0 0 0 0 0 0 0 472 521 516 489 504 509 501 526 513 527 504 509 512 531 514 472 0 0 0 0 0 0 0 0 0 0 0 0 0 0 0 0 0 0 0 0 0 0 0 0 0 0 0 0 0 0 0 0 0 0 0 0 0 0 0 0 0 0 0 0 0 0 0 0 0 0 0 0 0 0 0 0 0 0 0 0 0 0 0 0 0
0 0 0 0 0 0 0 0 0 0 0 0 0 0 0 0 0 0 0 0 0 0 0 0 0 0 0 0 0 0 0 0 0 0 0 0 0 527 504 511 496 512 503 501 520 526 498 521 523 526 524 510 518 528 527 529 529 538 542 555 0 0 0 0 0 0 0 0 0 0 0 0 0 0 0 0 0 0 0 0 0 0 0 0 0 0 0 0 0 0 0 0 0 0 0 0 0 0 0 0 0 0 0 0 0 0 0 0 0 0 0 0 0 0 0 0 0 0 0 0
0 0 0 0 0 0 0 0 0 0 0 0 0 0 0 0 0 0 0 0 0 0 0 0 0 0 0 0 0 0 0 0 0 0 0 499 498 491 489 495 499 487 495 503 493 497 501 505 512 506 509 506 513 506 510 511 507 507 491 522 509 502 489 549 473 0 0 0 0 0 0 0 0 0 0 0 0 0 0 0 0 0 0 0 0 0 0 0 0 0 0 0 0 0 0 0 0 0 0 0 0 0 0 0 0 0 0 0 0 0 0 0 0 0 0 0 0 0 0 0
0 0 0 0 0 0 0 0 0 0 0 0 0 0 0 0 0 0 0 0 0 0 0 0 0 0 0 0 0 0 0 0 0 515 523 500 496 505 507 516 512 516 511 515 503 507 501 509 509 517 504 504 523 515 514 512 516 509 520 514 510 510 523 522 540 507 539 573 596 597 591 591 579 533 581 602 571 564 611 575 0 0 0 0 0 0 0 0 0 0 0 0 0 0 0 0 0 0 0 0 0 0 0 0 0 0 0 0 0 0 0 0 0 0 0 0 0 0 0 0
0 0 0 0 0 0 0 0 0 0 0 0 0 0 0 0 0 0 0 0 0 0 0 0 0 0 0 0 0 0 0 528 494 513 496 498 497 504 509 491 514 496 509 500 492 514 508 504 512 505 491 515 504 500 500 504 512 506 515 504 507 492 513 510 499 516 511 513 524 556 553 573 528 535 541 543 562 584 572 568 564 530 538 567 0 568 0 530 562 604 590 557 527 563 598 527 602 586 609 564 0 624 540 589 0 0 0 0 0 0 0 0 0 0 0 0 0 0 0 0
0 0 0 0 0 0 0 0 0 0 0 0 0 0 0 0 0 0 0 0 0 0 0 0 0 0 0 0 0 0 507 493 497 479 495 502 504 499 504 508 497 500 505 497 501 512 510 510 508 509 498 509 506 502 499 499 500 500 492 506 500 505 505 510 509 515 514 502 511 523 524 554 562 540 533 509 526 549 560 537 558 536 552 552 565 532 567 564 553 591 503 539 558 598 575 585 539 541 601 567 536 556 591 555 537 492 528 0 511 0 0 0 0 0 0 0 0 0 0 0
0 0 0 0 0 0 0 0 0 0 0 0 0 0 0 0 0 0 0 0 0 0 0 0 0 0 0 0 524 492 487 509 506 492 508 495 500 491 502 505 502 499 503 494 504 509 498 497 495 513 505 512 511 507 502 508 504 512 511 511 511 500 511 514 515 515 497 510 502 518 528 568 543 560 582 594 576 568 537 574 556 580 570 593 561 559 557 571 545 599 570 586 560 607 616 579 569 573 543 609 619 544 546 587 597 594 556 594 582 0 0 0 0 0 0 0 0 0 0 0
0 0 0 0 0 0 0 0 0 0 0 0 0 0 0 0 0 0 0 0 0 0 0 0 0 0 0 498 504 506 490 507 504 499 497 494 498 512 507 492 505 509 494 498 507 505 503 500 500 501 507 499 507 499 510 501 504 509 502 516 510 508 503 512 505 508 519 508 511 501 508 521 512 568 527 549 527 575 538 556 564 571 525 536 560 508 547 516 542 561 571 577 508 599 543 512 539 528 564 548 592 539 531 549 547 532 542 585 562 0 0 0 0 0 0 0 0 0 0 0
0 0 0 0 0 0 0 0 0 0 0 0 0 0 0 0 0 0 0 0 0 0 0 0 0 0 513 513 496 493 501 500 500 499 501 491 491 498 499 502 498 502 514 504 499 503 499 499 503 499 513 505 500 507 508 501 492 501 512 510 510 516 509 510 500 514 510 502 505 507 510 522 539 584 547 574 552 555 530 564 528 569 564 541 536 569 579 559 547 557 562 539 517 546 552 569 529 531 562 527 505 544 581 513 568 576 521 567 502 0 0 0 0 0 0 0 0 0 0 0
0 0 0 0 0 0 0 0 0 0 0 0 0 0 0 0 0 0 0 0 0 0 0 0 0 536 500 501 507 499 500 495 501 500 493 500 505 501 508 498 504 501 501 507 506 509 502 504 508 502 497 503 506 504 507 514 506 505 510 508 509 501 514 514 504 513 511 516 517 508 508 504 519 547 543 569 566 553 583 573 559 572 576 550 564 589 576 567 577 590 579 547 597 586 563 568 606 566 554 555 578 581 581 572 584 573 556 560 590 607 571 0 0 0 0 0 0 0 0 0
0 0 0 0 0 0 0 0 0 0 0 0 0 0 0 0 0 0 0 0 0 0 0 0 0 492 495 497 496 491 500 491 484 496 487 498 490 496 493 502 489 501 498 495 495 501 507 504 496 507 499 501 510 506 505 497 506 505 502 510 503 496 509 508 506 503 511 506 500 508 508 511 516 505 531 524 532 526 536 542 531 527 546 557 512 527 536 527 543 544 536 528 554 548 521 543 555 504 513 510 577 498 515 541 551 475 547 549 512 540 0 0 492 526 0 0 0 0 0 0
0 0 0 0 0 0 0 0 0 0 0 0 0 0 0 0 0 0 0 0 0 0 0 0 488 501 500 498 495 495 498 493 492 501 504 499 511 494 506 506 508 508 493 506 503 503 497 505 500 504 507 497 500 512 499 508 503 497 511 506 507 500 503 509 503 514 510 518 509 519 505 514 513 504 541 546 562 567 562 550 555 547 580 588 546 577 574 581 586 563 562 561 562 576 589 592 578 587 573 573 582 592 561 591 557 577 569 564 558 560 592 0 0 0 0 0 0 0 0 0
0 0 0 0 0 0 0 0 0 0 0 0 0 0 0 0 0 0 0 0 0 0 0 0 475 487 497 493 495 493 495 487 479 492 490 496 491 489 487 499 493 503 498 488 499 504 494 504 497 499 502 506 495 503 502 501 502 506 505 503 504 506 509 504 508 501 506 503 504 513 501 508 492 508 493 524 523 547 528 527 520 530 557 551 524 547 516 534 515 528 571 522 529 539 517 517 548 546 523 502 510 546 509 528 544 499 507 529 538 536 0 0 0 0 0 0 0 0 0 0
0 0 0 0 0 0 0 0 0 0 0 0 0 0 0 0 0 0 0 0 0 0 0 464 484 495 497 497 479 486 494 491 498 492 487 487 493 493 497 499 499 496 502 491 498 505 502 492 504 505 498 503 505 497 501 506 500 502 501 504 505 494 503 507 500 505 508 510 499 495 504 504 507 503 503 516 506 513 497 508 496 492 511 508 521 548 514 524 519 514 525 528 540 523 530 498 502 519 521 512 523 545 531 529 517 589 551 528 506 483 508 0 0 0 0 0 0 0 0 0
0 0 0 0 0 0 0 0 0 0 0 0 0 0 0 0 0 0 0 0 0 0 0 509 486 496 485 500 490 491 495 498 496 493 489 505 488 496 493 497 490 499 494 503 499 494 496 507 497 508 501 507 508 504 502 505 509 506 504 499 497 499 505 506 512 503 503 505 508 507 509 506 514 509 512 505 535 539 529 540 518 562 519 558 553 568 552 551 511 561 529 547 552 560 522 551 538 541 536 562 531 574 563 573 555 547 550 580 560 536 494 0 0 0 0 0 0 0 0 0
0 0 0 0 0 0 0 0 0 0 0 0 0 0 0 0 0 0 0 0 0 0 392 473 492 489 477 488 488 482 488 490 492 480 485 489 489 485 489 488 504 499 497 493 488 493 505 495 494 501 493 494 491 494 502 495 498 501 502 500 505 502 503 500 502 504 500 501 500 504 507 498 499 492 501 495 504 502 506 506 525 467 498 513 510 472 496 490 488 489 509 517 507 548 505 501 497 506 506 502 508 507 475 511 521 523 486 496 503 471 456 502 501 0 0 0 0 0 0 0
0 0 0 0 0 0 0 0 0 0 0 0 0 0 0 0 0 0 0 0 0 0 497 489 492 491 499 493 497 496 493 490 486 480 501 493 486 499 496 493 499 499 494 511 500 498 507 499 502 498 503 501 501 508 498 501 504 501 506 500 493 509 494 511 507 510 505 509 516 500 508 508 508 508 510 515 510 532 497 516 515 538 543 517 550 513 525 522 536 551 524 525 530 526 525 522 519 508 553 546 537 533 532 528 532 532 512 492 506 526 502 558 0 0 0 0 0 0 0 0
0 0 0 0 0 0 0 0 0 0 0 0 0 0 0 0 0 0 0 0 0 0 488 484 498 489 490 493 497 493 491 492 485 488 497 496 488 492 496 491 501 502 500 494 498 493 492 492 498 500 492 501 503 501 500 505 501 510 502 504 500 503 506 503 504 505 511 500 511 507 505 502 506 503 516 511 509 538 529 538 522 530 563 531 515 548 509 523 519 531 527 519 551 518 532 529 534 567 537 526 545 540 550 537 505 571 537 543 524 522 517 525 581 0 0 0 0 0 0 0
0 0 0 0 0 0 0 0 0 0 0 0 0 0 0 0 0 0 0 0 0 0 491 492 497 498 488 485 483 486 490 481 490 495 489 489 485 485 499 491 488 492 496 490 492 501 494 492 499 502 502 496 497 500 495 501 498 506 496 501 502 504 503 506 502 500 505 501 501 499 512 506 494 509 509 511 506 507 497 520 512 495 513 512 503 525 511 507 516 529 527 508 467 532 523 494 478 524 525 536 510 560 515 510 478 502 535 501 503 527 518 479 539 0 0 0 0 0 0 0
0 0 0 0 0 0 0 0 0 0 0 0 0 0 0 0 0 0 0 0 0 0 493 478 486 488 489 494 490 488 493 488 502 485 488 489 485 492 492 494 507 494 496 501 500 494 500 497 496 501 499 497 499 499 506 504 498 509 501 498 498 504 501 505 501 506 506 501 498 506 505 504 515 499 505 499 514 521 524 541 555 501 520 538 560 524 539 518 537 513 523 534 521 560 485 511 518 530 531 521 513 497 519 548 532 531 548 531 545 563 570 576 526 0 0 0 0 0 0 0
0 0 0 0 0 0 0 0 0 0 0 0 0 0 0 0 0 0 0 0 0 0 493 483 490 481 477 486 490 485 497 483 488 493 491 481 490 485 491 500 489 493 493 499 497 489 490 496 491 491 496 497 497 499 495 491 509 501 497 501 512 496 509 501 504 502 499 503 493 505 495 496 501 495 506 506 506 505 505 518 534 511 521 534 512 501 523 518 532 522 474 496 494 516 519 520 516 508 522 511 547 506 506 545 531 533 476 521 0 0 482 0 510 0 0 0 0 0 0 0
0 0 0 0 0 0 0 0 0 0 0 0 0 0 0 0 0 0 0 0 0 428 471 492 488 484 488 477 490 493 483 488 489 487 494 484 490 492 494 491 491 492 489 495 490 489 495 500 498 491 495 500 490 502 500 498 491 498 497 494 503 509 504 502 509 503 502 500 502 506 505 504 499 504 500 507 511 507 493 504 516 496 510 488 480 514 491 522 481 518 501 473 489 496 483 457 514 503 499 449 474 482 512 501 481 504 486 476 478 506 481 452 0 452 0 0 0 0 0 0
0 0 0 0 0 0 0 0 0 0 0 0 0 0 0 0 0 0 0 0 0 480 479 482 492 484 492 484 479 478 476 487 491 490 492 492 491 491 491 491 498 497 495 490 496 495 494 496 494 499 500 497 503 498 506 499 496 499 506 501 499 503 500 501 504 502 504 505 505 504 502 506 500 499 502 504 502 508 529 535 520 483 514 524 535 522 516 534 521 499 513 528 522 519 536 498 513 514 519 501 506 525 519 535 473 519 543 511 519 476 521 524 529 0 0 0 0 0 0 0
0 0 0 0 0 0 0 0 0 0 0 0 0 0 0 0 0 0 0 0 0 434 483 477 479 480 480 480 478 486 480 476 486 486 486 481 486 489 488 482 484 488 493 488 491 488 495 490 493 494 495 496 491 492 494 505 495 499 502 499 504 501 505 503 501 503 507 497 505 494 495 498 501 504 501 498 495 499 500 495 487 485 495 487 500 482 481 495 501 508 486 478 493 498 476 496 482 482 512 500 500 475 494 500 459 498 441 500 453 452 458 484 455 0 0 0 0 0 0 0
0 0 0 0 0 0 0 0 0 0 0 0 0 0 0 0 0 0 0 0 0 449 479 480 482 483 493 480 484 481 484 490 485 494 497 489 488 484 491 493 489 487 493 492 498 493 491 497 497 496 497 502 498 497 497 497 498 502 500 502 496 503 498 498 500 504 502 500 500 510 501 505 505 502 505 512 503 504 501 514 523 523 502 498 522 490 483 531 495 485 512 515 494 481 491 518 531 534 498 518 532 527 485 500 541 490 508 490 500 469 509 463 502 502 0 0 0 0 0 0
0 0 0 0 0 0 0 0 0 0 0 0 0 0 0 0 0 0 0 0 0 491 488 485 492 477 480 486 481 482 482 482 487 489 488 488 489 488 485 490 496 495 496 493 489 486 493 492 495 493 494 498 495 497 496 496 501 500 500 501 507 498 497 502 500 505 505 499 499 502 498 502 501 504 499 504 509 517 497 521 492 507 524 507 530 537 510 528 536 495 536 541 488 510 532 542 544 516 545 520 537 541 484 561 572 538 534 558 513 525 494 548 0 0 0 0 0 0 0 0
0 0 0 0 0 0 0 0 0 0 0 0 0 0 0 0 0 0 0 0 0 444 482 477 484 476 475 473 485 480 487 486 483 481 487 486 486 488 489 485 491 489 487 487 490 488 492 495 494 492 491 495 494 495 497 498 494 494 500 500 496 499 499 501 500 501 497 499 498 498 505 499 502 502 500 499 497 500 500 493 486 496 499 494 497 491 496 484 500 485 515 487 501 494 495 491 477 492 488 503 523 493 468 463 485 474 463 487 480 488 491 496 510 474 0 0 0 0 0 0
0 0 0 0 0 0 0 0 0 0 0 0 0 0 0 0 0 0 0 0 0 471 477 481 473 485 479 475 478 476 488 486 483 480 483 485 486 493 489 490 495 485 490 498 492 492 492 493 491 498 496 496 492 495 494 498 493 501 500 496 500 497 499 498 499 499 496 496 504 504 501 499 507 504 498 505 505 499 517 499 535 507 509 494 508 517 528 521 487 510 530 513 527 517 522 526 534 546 516 498 531 483 549 524 524 542 526 544 497 526 536 543 490 554 0 0 0 0 0 0
0 0 0 0 0 0 0 0 0 0 0 0 0 0 0 0 0 0 0 0 0 453 483 473 482 477 476 478 474 477 476 486 486 484 482 481 480 481 488 492 488 481 487 491 486 488 489 491 493 494 491 496 494 497 497 493 494 502 497 499 497 497 497 499 498 499 502 502 494 498 500 496 498 501 493 499 497 499 506 514 498 515 508 490 500 493 496 511 508 497 492 495 500 498 495 491 502 511 519 489 508 526 492 493 533 517 487 504 509 494 504 474 489 0 0 0 0 0 0 0
0 0 0 0 0 0 0 0 0 0 0 0 0 0 0 0 0 0 0 0 0 445 473 475 473 479 475 478 483 483 482 488 483 481 478 486 483 483 489 486 486 490 486 491 492 492 488 493 490 490 493 496 496 494 495 492 496 499 491 497 498 498 499 495 499 497 493 498 494 491 497 498 495 511 496 504 495 496 507 505 502 486 486 481 487 488 502 493 489 506 490 486 482 509 495 502 472 475 513 499 494 467 503 494 518 508 486 472 478 497 503 522 488 472 0 0 0 0 0 0
0 0 0 0 0 0 0 0 0 0 0 0 0 0 0 0 0 0 0 0 0 451 474 471 468 479 478 481 479 477 480 486 479 481 482 483 486 484 484 481 486 487 486 490 483 489 490 488 492 498 497 493 495 492 498 502 497 495 495 497 502 499 497 498 495 501 496 503 494 502 495 495 499 497 502 496 496 497 511 510 513 495 525 503 516 491 517 503 505 502 516 505 499 505 510 492 523 501 511 487 507 515 503 496 542 488 492 534 507 504 523 506 525 474 0 0 0 0 0 0
0 0 0 0 0 0 0 0 0 0 0 0 0 0 0 0 0 0 0 0 0 470 474 477 484 475 483 474 475 476 481 478 477 480 486 483 482 484 482 487 481 485 487 488 488 492 488 489 491 490 491 490 492 491 493 493 490 491 489 498 497 503 496 499 494 497 496 497 495 499 500 495 499 497 497 497 495 488 487 481 487 484 482 482 487 474 487 470 486 477 468 493 478 487 476 491 465 468 501 494 484 492 481 466 494 485 476 474 485 483 442 447 469 437 0 0 0 0 0 0
0 0 0 0 0 0 0 0 0 0 0 0 0 0 0 0 0 0 0 0 0 0 472 475 479 475 474 481 484 476 477 478 484 479 481 484 486 485 485 485 484 481 487 488 487 492 494 492 492 497 492 497 494 492 498 497 490 498 496 496 499 499 499 498 498 500 499 494 496 494 497 501 490 495 500 498 492 494 504 484 511 507 506 488 513 517 492 504 522 508 511 509 501 508 509 501 492 518 499 525 511 509 501 526 490 529 515 517 496 524 511 448 510 507 0 0 0 0 0 0
0 0 0 0 0 0 0 0 0 0 0 0 0 0 0 0 0 0 0 0 0 0 499 476 468 474 480 475 480 482 480 480 479 482 482 481 484 486 490 481 486 487 486 488 483 492 490 489 491 491 494 492 492 493 491 490 492 496 492 494 497 498 493 501 500 499 501 495 494 497 500 496 501 500 498 493 493 499 490 500 504 509 501 525 519 523 506 519 537 520 539 508 509 508 513 511 509 505 504 520 503 500 508 500 522 533 490 491 531 519 523 487 527 0 0 0 0 0 0 0
0 0 0 0 0 0 0 0 0 0 0 0 0 0 0 0 0 0 0 0 0 0 518 476 470 474 478 475 475 474 478 478 482 480 483 483 487 483 483 481 484 486 488 490 485 491 484 488 488 491 489 494 488 489 494 498 494 493 496 498 500 493 493 491 494 494 497 497 491 496 495 494 497 496 493 496 496 492 487 502 487 491 494 511 524 518 516 506 503 493 533 527 518 519 498 506 515 492 492 513 505 481 507 507 496 498 521 520 535 506 464 522 516 477 449 523 0 0 0 0
0 0 0 0 0 0 0 0 0 0 0 0 0 0 0 0 0 0 0 0 0 0 585 473 485 477 481 480 477 478 481 481 479 483 483 483 479 484 486 490 486 491 487 490 487 488 492 487 490 489 493 492 492 492 497 494 493 494 492 496 494 495 503 499 497 499 501 498 495 495 491 500 493 501 495 495 498 485 503 508 497 489 511 538 508 513 516 510 510 529 524 499 528 527 556 529 525 542 531 507 511 511 506 504 507 504 512 515 523 512 532 495 504 548 510 490 0 0 0 0
0 0 0 0 0 0 0 0 0 0 0 0 0 0 0 0 0 0 0 0 0 0 0 479 467 475 471 470 467 470 477 480 478 480 476 478 478 483 480 484 483 485 486 484 491 485 486 487 486 487 488 489 492 491 489 491 493 494 495 495 486 497 492 491 494 494 489 494 496 493 496 494 493 495 493 494 491 496 495 498 492 499 490 506 513 498 491 485 483 482 476 515 485 500 506 495 514 491 518 497 525 512 485 475 493 509 479 516 497 491 469 461 454 0 0 0 0 0 0 0
0 0 0 0 0 0 0 0 0 0 0 0 0 0 0 0 0 0 0 0 0 0 0 483 471 470 474 472 471 476 474 475 473 478 483 478 480 479 479 479 480 479 487 484 486 485 486 487 489 488 486 489 487 493 487 494 499 487 495 489 493 490 494 490 490 494 488 494 498 495 495 491 500 494 492 493 486 482 490 494 503 509 483 491 485 491 483 510 493 502 494 509 488 494 483 539 526 487 488 512 504 499 478 492 461 483 459 503 483 478 477 448 475 0 469 0 0 0 0 0
0 0 0 0 0 0 0 0 0 0 0 0 0 0 0 0 0 0 0 0 0 0 0 524 474 478 473 473 476 473 477 475 483 477 475 478 477 483 484 483 483 487 486 488 484 492 491 483 489 485 493 487 486 486 495 490 493 496 490 487 495 492 489 493 495 493 495 493 495 492 495 495 493 495 496 489 493 490 524 520 505 508 489 502 513 523 519 515 532 512 504 512 509 521 521 489 504 504 497 529 528 530 499 493 501 498 477 501 511 525 488 508 510 536 497 0 0 0 0 0
0 0 0 0 0 0 0 0 0 0 0 0 0 0 0 0 0 0 0 0 0 0 0 0 470 469 469 476 467 471 475 475 470 479 477 472 474 475 480 479 479 482 484 480 487 483 489 481 489 487 488 487 489 486 487 491 494 489 490 494 488 495 493 491 494 494 492 497 492 485 496 493 495 493 491 488 491 496 491 485 498 483 482 491 490 488 496 485 472 481 495 485 503 486 492 486 492 495 487 481 461 483 465 485 459 449 472 477 441 440 464 460 431 485 452 410 0 0 0 0
0 0 0 0 0 0 0 0 0 0 0 0 0 0 0 0 0 0 0 0 0 0 0 0 518 468 467 471 478 471 478 475 472 474 474 475 484 474 480 480 487 483 482 484 485 487 486 488 488 489 490 489 488 492 491 490 496 491 492 488 495 487 495 491 492 494 496 496 496 492 492 492 490 499 493 489 482 502 496 496 496 499 495 506 508 512 516 508 509 501 497 520 524 514 498 514 515 497 509 492 508 529 506 498 475 460 477 504 491 478 492 520 499 514 450 553 0 0 0 0
0 0 0 0 0 0 0 0 0 0 0 0 0 0 0 0 0 0 0 0 0 0 0 0 0 476 466 470 466 472 467 470 475 471 475 476 480 478 483 482 478 479 487 483 484 487 486 484 486 483 490 491 490 488 490 487 490 487 485 493 492 491 490 490 493 490 489 497 494 492 490 491 493 489 491 496 489 477 502 495 491 490 493 493 519 496 492 497 490 513 507 486 497 493 512 529 504 514 494 521 517 520 508 532 481 528 487 478 490 491 477 529 522 506 0 0 0 0 0 0
0 0 0 0 0 0 0 0 0 0 0 0 0 0 0 0 0 0 0 0 0 0 0 0 0 494 464 468 463 469 466 476 471 467 472 480 480 473 481 476 483 480 482 482 481 483 481 486 487 488 487 481 488 492 494 493 491 489 488 485 492 488 489 488 487 491 490 492 492 491 494 490 497 487 488 474 486 473 478 481 488 496 481 490 484 481 506 494 496 473 494 496 482 481 475 497 478 493 484 494 513 501 483 517 434 477 514 490 447 467 488 477 529 467 0 0 0 0 0 0
0 0 0 0 0 0 0 0 0 0 0 0 0 0 0 0 0 0 0 0 0 0 0 0 0 0 489 472 465 471 469 470 472 470 475 473 479 478 481 481 477 480 483 479 485 485 486 484 483 487 489 491 491 490 493 488 492 491 489 490 483 487 488 489 493 488 493 489 497 491 493 491 488 490 485 491 488 485 495 506 482 496 482 491 482 492 503 484 488 482 502 499 500 499 489 500 475 496 516 528 494 505 511 538 480 507 518 506 503 483 457 552 482 501 522 0 0 0 0 0
0 0 0 0 0 0 0 0 0 0 0 0 0 0 0 0 0 0 0 0 0 0 0 0 0 0 0 478 463 460 467 470 467 472 469 471 473 475 476 479 477 483 474 479 475 483 480 477 484 485 483 483 484 488 483 482 487 490 483 487 486 487 484 486 485 491 490 490 490 489 489 484 485 479 490 485 492 486 487 480 489 483 479 465 491 490 490 471 481 477 475 497 508 477 462 495 493 496 492 502 488 474 505 478 470 453 436 476 463 439 460 481 418 470 0 0 0 0 0 0
0 0 0 0 0 0 0 0 0 0 0 0 0 0 0 0 0 0 0 0 0 0 0 0 0 0 0 492 464 467 465 466 472 468 474 472 469 472 473 473 475 472 480 474 479 476 482 481 482 486 482 486 486 483 486 484 489 482 484 488 488 483 488 483 481 484 490 488 488 483 485 483 484 477 482 492 476 463 466 484 484 475 483 513 477 488 487 474 493 481 469 487 468 479 477 488 497 487 491 489 501 476 474 463 458 455 477 494 465 445 455 450 436 435 437 0 0 0 0 0
0 0 0 0 0 0 0 0 0 0 0 0 0 0 0 0 0 0 0 0 0 0 0 0 0 0 0 0 513 467 467 470 467 465 473 472 471 471 474 478 479 476 477 476 478 483 474 478 476 484 480 482 486 484 486 480 482 480 484 488 490 489 489 485 482 487 486 486 486 488 483 488 476 497 481 481 479 476 481 486 489 490 492 480 476 489 495 498 475 484 495 481 484 493 494 505 478 483 486 484 497 507 487 468 460 482 478 484 438 453 501 497 513 471 499 0 0 0 0 0
0 0 0 0 0 245 231 241 285 0 0 0 0 0 0 0 0 0 0 0 0 0 0 0 0 0 0 0 0 475 456 463 467 466 461 470 473 468 464 468 475 480 478 474 476 477 478 478 474 475 479 480 480 479 482 481 482 477 488 482 481 479 483 484 485 485 486 482 480 482 477 480 469 472 478 468 472 481 468 489 479 479 485 488 487 482 484 460 463 484 475 494 478 483 471 457 479 462 474 467 461 488 472 469 434 455 465 455 481 464 434 444 427 418 432 0 0 0 0 0
0 0 0 0 261 228 235 235 235 290 384 0 0 0 0 0 0 0 0 0 0 0 0 0 0 0 0 0 0 0 461 461 463 469 470 466 473 474 473 475 479 476 472 469 480 476 479 474 473 478 474 484 484 481 482 483 484 482 485 484 483 479 484 490 484 485 485 486 485 487 481 477 480 484 481 473 482 475 463 483 487 484 484 482 483 484 483 497 477 480 477 494 479 477 501 494 480 480 492 501 464 500 473 480 506 482 451 451 485 477 454 519 477 0 0 0 0 0 0 0
0 0 0 222 215 223 225 227 233 244 350 0 0 0 0 0 0 0 0 0 0 0 0 0 0 0 0 0 0 0 0 456 458 470 465 475 465 466 463 467 472 468 472 467 469 477 473 473 474 480 479 473 480 478 477 479 483 478 482 477 481 482 482 484 484 479 482 476 475 487 482 473 481 480 479 476 481 480 496 491 484 479 488 482 495 485 486 471 492 477 473 497 479 480 517 507 477 498 479 488 519 531 487 503 491 476 490 476 456 489 450 498 513 432 446 0 0 0 0 0
193 231 229 251 245 247 259 228 236 239 303 0 376 391 422 410 405 407 414 438 457 443 438 432 443 438 431 445 448 450 451 456 466 465 463 462 465 468 465 465 467 465 473 471 474 460 474 473 475 473 467 471 479 479 479 480 474 474 476 479 475 477 471 477 476 481 470 479 477 470 488 470 462 481 473 465 478 467 476 468 470 466 474 477 469 481 472 486 459 477 469 471 472 471 467 463 473 462 464 473 472 466 454 451 440 452 444 441 460 445 493 455 431 435 0 0 0 0 0 0
196 219 221 232 251 272 270 234 229 265 402 422 386 421 412 396 405 416 395 416 407 440 418 419 438 427 428 435 444 444 463 456 459 459 454 452 458 458 463 459 462 467 458 467 469 468 471 476 474 477 464 473 474 475 470 469 476 472 472 476 474 476 475 473 474 468 472 480 475 473 468 473 464 468 463 467 474 456 456 463 463 462 458 449 474 454 462 462 464 448 446 447 457 459 464 455 438 448 465 459 456 448 447 487 451 474 461 464 447 435 443 449 444 441 501 504 481 510 0 0
199 191 201 222 210 223 237 226 231 303 352 364 368 351 355 376 348 368 357 384 383 384 391 394 392 405 420 419 436 437 437 441 443 440 443 443 440 444 445 449 443 445 444 451 444 453 445 452 450 451 454 455 460 457 456 452 456 455 455 461 461 464 454 462 456 457 456 456 455 455 453 446 445 446 434 431 436 423 424 439 435 432 435 425 421 428 429 425 433 424 427 422 422 417 423 426 431 415 417 423 428 421 425 417 437 410 420 408 404 395 405 412 444 431 414 397 404 436 0 0
286 266 244 219 235 228 237 231 259 327 329 319 338 324 327 345 344 344 341 345 346 365 376 389 369 378 394 409 413 415 413 424 423 420 429 431 439 430 432 434 429 426 427 433 430 441 438 438 437 442 440 441 443 439 449 448 441 445 438 438 441 437 442 445 434 442 433 436 433 440 434 427 427 429 419 417 405 401 398 400 406 389 381 403 398 398 398 397 381 397 391 390 392 388 390 388 389 401 391 401 395 383 378 385 401 384 387 391 374 382 378 370 390 375 360 361 368 402 394 327
297 283 280 245 239 232 236 249 291 311 310 315 308 299 308 312 326 314 301 325 322 319 334 341 359 361 388 381 396 393 399 403 409 408 405 407 409 408 411 412 415 415 415 417 413 415 411 425 420 416 415 414 422 420 426 424 422 426 427 427 422 420 414 419 415 420 421 419 422 417 410 408 408 404 401 387 375 372 365 365 359 366 356 369 371 363 363 363 367 367 362 354 354 377 375 371 358 377 359 360 355 362 362 376 372 352 370 362 377 364 355 357 387 343 371 357 371 358 389 342
281 259 271 267 248 246 257 270 259 277 274 275 267 279 275 280 282 283 295 278 290 296 306 315 325 343 364 361 360 370 378 384 390 391 380 387 393 388 393 396 395 394 400 394 393 390 398 389 387 390 387 397 396 400 398 390 400 398 400 399 390 392 400 389 388 388 396 394 388 391 388 393 386 377 374 359 356 347 336 332 339 328 317 322 328 326 318 321 319 322 318 308 328 324 324 326 316 320 316 330 330 320 331 342 334 343 337 338 325 333 316 321 311 312 341 304 291 305 291 301
253 249 253 252 245 238 248 255 262 263 262 262 251 260 248 265 255 263 269 264 269 287 290 304 314 327 328 340 352 355 357 366 366 362 362 361 364 367 369 369 368 365 372 374 372 371 370 368 371 379 380 373 379 372 380 383 380 382 383 375 372 377 374 375 366 374 371 374 369 369 365 367 354 358 347 346 331 327 312 312 300 307 310 303 305 300 302 301 300 298 306 307 314 311 307 304 293 293 303 308 308 316 301 310 311 299 319 302 302 302 302 331 317 291 283 294 327 290 328 291
222 232 233 238 232 239 249 239 248 243 241 253 248 251 238 241 243 239 250 246 251 264 277 276 288 297 313 330 328 331 333 332 345 348 345 346 346 341 343 343 348 347 350 352 350 349 348 351 348 350 347 350 349 356 352 349 351 352 363 351 353 350 351 342 348 344 352 352 347 353 347 347 342 333 327 325 316 297 298 295 283 280 278 282 283 276 281 278 275 275 277 278 288 273 286 268 277 281 290 288 289 283 286 282 276 280 284 286 285 274 270 303 286 288 286 294 288 299 298 323
219 216 228 220 229 213 224 222 222 226 232 214 218 224 226 222 228 227 232 229 245 244 260 261 273 279 295 292 299 306 307 314 320 321 316 318 317 322 321 325 316 321 318 323 326 325 324 328 319 321 322 322 328 327 325 324 324 323 329 323 322 325 321 326 324 328 325 324 320 323 318 319 321 310 304 293 280 268 275 270 261 265 268 267 274 254 254 257 250 249 251 263 269 260 255 251 258 256 262 253 264 260 259 266 255 262 257 252 258 254 271 258 253 261 255 274 259 262 277 273
206 209 217 213 220 209 214 220 211 218 215 222 209 213 214 215 216 225 225 223 228 233 247 254 256 262 273 275 283 284 285 297 296 290 302 298 296 299 307 302 300 298 296 303 302 303 307 297 305 307 304 305 304 302 300 305 309 306 310 310 306 307 310 308 307 311 313 306 304 305 297 305 300 292 292 284 269 268 258 252 244 248 245 245 244 247 244 243 242 243 244 249 248 240 248 240 242 241 247 237 240 240 244 244 245 243 244 239 239 254 245 260 259 253 266 266 261 249 237 250
196 193 199 198 193 205 202 200 203 204 189 200 205 189 185 187 205 211 205 210 210 222 232 233 239 243 249 260 268 268 267 265 274 271 272 276 277 279 282 284 278 278 288 286 284 280 282 283 284 285 285 281 280 283 280 284 283 281 283 283 283 287 288 289 284 284 283 283 284 279 287 276 279 269 262 259 252 240 241 233 229 230 227 223 225 223 230 223 228 236 233 231 222 226 222 220 226 221 226 221 226 230 224 218 222 215 227 226 225 221 235 239 238 227 237 241 235 224 226 224
178 173 192 172 184 183 185 207 179 186 180 186 179 182 184 176 184 187 186 191 212 213 215 233 225 226 241 245 244 252 253 256 255 254 258 258 258 261 266 267 267 260 265 269 265 264 268 269 263 260 268 267 266 263 267 265 269 265 262 274 264 264 265 272 265 267 271 269 265 262 270 262 255 257 250 244 233 230 226 222 224 221 214 222 214 220 198 219 217 216 208 217 220 197 213 210 211 198 205 218 216 213 217 214 213 210 213 218 216 218 219 228 221 221 230 215 241 217 217 228
168 175 170 179 176 181 175 181 172 184 184 180 185 181 185 177 186 176 180 187 183 194 191 217 212 221 226 226 227 229 233 240 242 244 237 245 243 246 250 242 246 247 248 249 255 252 246 247 248 251 245 251 243 249 245 249 251 251 249 250 250 244 251 252 251 251 248 247 249 246 250 246 239 236 233 227 220 215 213 201 196 192 187 185 197 185 187 197 189 193 194 210 187 189 190 195 182 186 190 189 205 210 207 183 192 190 183 202 207 208 205 202 203 210 221 203 203 211 223 216
164 170 173 175 173 175 172 170 171 171 176 174 173 175 177 177 175 181 179 181 183 186 183 187 208 192 210 209 216 223 226 227 225 224 228 225 227 226 228 229 224 228 231 235 234 235 229 228 226 233 234 233 235 231 233 234 236 237 237 235 235 236 235 231 233 231 234 227 234 232 234 227 227 220 216 215 196 196 188 197 192 196 193 189 192 188 191 190 192 190 192 180 187 183 189 191 189 189 178 181 186 177 177 185 183 184 178 180 182 176 184 175 178 199 192 178 199 179 174 175
164 169 166 167 168 167 171 168 166 164 166 166 166 166 171 169 172 175 174 181 176 181 177 188 185 183 189 187 209 211 209 211 209 213 213 215 215 214 197 212 216 221 223 222 220 219 219 218 219 225 219 219 220 218 221 222 222 222 220 223 221 224 221 219 215 217 216 218 224 217 219 216 216 210 198 192 186 194 192 188 188 185 186 185 181 181 185 182 190 184 187 178 184 179 186 179 181 179 183 183 181 183 183 186 175 176 182 175 175 181 177 181 179 178 182 176 177 177 176 211
153 153 163 160 159 164 161 163 163 160 160 161 158 161 159 157 164 171 163 174 169 174 184 179 181 185 183 191 193 189 194 183 187 185 187 191 186 189 185 188 195 193 188 190 197 194 194 194 194 194 194 195 194 199 195 193 194 194 198 191 198 200 196 187 192 195 193 193 192 197 199 195 192 190 198 194 192 187 185 182 174 176 179 173 174 175 174 177 178 178 174 173 172 172 167 173 173 168 169 168 173 171 173 172 175 170 166 164 171 172 165 173 168 178 174 174 176 164 165 174
144 151 157 152 157 157 156 160 160 156 157 154 155 155 156 153 154 161 157 164 166 165 175 173 179 177 179 179 182 185 190 186 189 185 187 189 186 191 191 191 195 194 189 198 193 197 195 197 196 194 194 198 199 195 198 197 196 199 199 200 197 195 196 198 194 196 195 187 196 197 193 192 190 195 192 182 185 181 171 173 172 167 168 164 168 164 169 170 170 166 167 164 167 162 165 171 165 165 164 171 168 166 172 168 166 161 160 165 162 170 168 165 171 166 171 168 150 162 166 171
145 149 147 144 150 150 149 149 151 152 151 151 150 154 153 149 158 148 156 161 160 166 169 172 175 173 173 172 175 178 178 177 181 183 177 181 183 178 183 186 181 182 186 184 181 185 188 186 189 183 183 189 186 188 186 186 187 189 0 189 189 185 183 186 190 189 191 185 186 187 185 186 181 181 175 175 177 173 171 166 160 160 164 158 161 163 163 160 165 161 159 162 162 162 163 162 155 160 161 166 163 166 162 156 158 160 159 156 164 165 157 164 156 164 162 170 171 169 167 183
133 137 137 142 142 145 148 144 143 145 144 144 139 144 143 142 142 146 145 154 155 159 158 162 165 166 170 167 167 168 172 170 177 170 170 171 175 172 175 176 176 181 176 175 174 177 174 178 177 177 178 179 178 179 181 180 181 0 0 181 176 178 177 180 178 176 175 178 179 174 175 178 173 174 170 170 168 164 162 158 162 158 155 154 152 154 157 152 153 156 155 151 157 155 154 151 152 152 154 154 153 152 151 153 147 146 143 148 159 150 151 152 152 147 140 147 144 146 141 153
141 133 130 140 139 143 147 136 140 139 139 139 144 143 142 136 142 149 145 144 151 152 155 158 160 159 162 160 167 163 161 163 163 165 163 166 167 168 167 171 171 0 173 169 171 173 170 172 168 170 174 174 174 174 175 0 172 171 0 176 175 0 175 172 175 172 175 171 173 170 167 166 168 169 166 163 165 160 159 154 151 153 151 147 153 150 149 146 147 154 146 152 149 150 147 147 149 149 153 150 147 146 145 148 145 144 147 145 150 144 147 140 150 157 150 151 141 158 149 184
128 121 126 126 132 134 142 137 133 118 132 131 134 134 138 134 135 137 136 138 139 142 151 151 149 158 159 156 156 159 161 154 158 162 158 156 161 161 0 0 0 0 0 0 0 0 0 166 166 166 167 162 168 166 0 0 168 169 0 0 0 0 0 0 167 165 166 0 164 164 163 162 160 159 154 154 155 156 146 151 148 146 147 145 140 149 141 145 143 148 145 145 145 145 141 137 140 145 144 139 138 139 142 138 138 139 140 137 135 145 143 143 152 152 148 142 141 145 143 136
115 125 125 124 127 130 132 131 134 123 125 133 126 124 133 125 119 140 134 137 138 139 146 147 146 150 151 150 152 151 153 152 154 158 152 153 153 0 0 0 0 0 0 0 0 0 0 0 157 159 160 160 0 0 0 0 0 0 0 0 0 0 0 0 0 0 0 0 0 0 0 157 155 153 151 151 148 148 147 145 140 140 145 140 140 139 143 136 142 141 135 139 137 143 136 128 137 140 137 135 134 136 139 132 119 128 133 120 144 136 135 143 139 132 134 134 132 117 130 142
110 109 119 122 125 126 126 130 128 128 132 124 124 122 119 129 130 132 135 135 126 125 133 141 139 140 142 144 146 149 150 146 151 152 152 149 0 0 0 0 0 0 0 0 0 0 0 0 153 151 156 0 0 0 0 0 0 0 0 0 0 0 0 0 0 0 0 0 0 0 0 0 150 150 150 147 145 145 140 145 137 141 137 137 124 126 136 137 130 131 137 138 129 128 122 130 140 135 135 134 130 135 131 122 127 132 130 123 129 134 141 142 133 139 141 135 132 127 115 131
103 109 112 111 109 113 119 116 115 118 115 116 116 114 128 123 121 121 115 117 121 127 123 124 136 139 139 138 141 145 142 142 143 142 144 143 0 0 0 0 0 0 0 0 0 0 0 0 146 0 0 0 0 0 0 0 0 0 0 0 0 0 0 0 0 0 0 0 0 0 0 0 144 139 142 141 139 138 126 139 124 125 120 122 136 119 123 127 123 124 120 122 116 126 125 135 125 133 122 118 121 129 133 121 121 131 127 129 139 137 127 137 106 131 110 132 112 126 125 132
110 109 115 116 112 112 115 117 117 117 117 115 115 113 115 121 118 119 122 115 118 114 120 117 137 127 138 137 0 134 0 0 0 137 138 139 0 0 0 0 0 0 0 0 0 0 0 0 0 0 0 0 0 0 0 0 0 0 0 0 0 0 0 0 0 0 0 0 0 0 0 0 0 133 126 125 125 123 119 122 120 116 120 123 116 121 121 118 117 116 120 125 117 114 111 119 120 119 120 121 115 125 131 122 122 115 116 121 109 117 127 110 124 117 131 123 112 129 142 134
101 100 109 113 107 102 106 103 104 101 111 105 102 110 106 105 110 112 118 112 113 113 113 116 121 123 125 118 119 127 0 0 0 0 127 0 0 0 0 0 0 0 0 0 0 0 0 0 0 0 0 0 0 0 0 0 0 0 0 0 0 0 0 0 0 0 0 0 0 0 0 0 132 0 0 126 120 119 120 115 115 116 108 117 112 118 110 114 113 117 112 117 113 112 108 107 112 115 112 110 114 111 112 117 111 117 109 112 121 102 107 108 111 120 116 107 125 114 119 153
98 98 95 94 100 102 99 101 101 102 102 103 101 103 106 103 103 109 114 103 108 111 108 108 116 110 113 119 119 118 0 124 0 0 0 0 0 0 0 0 0 0 0 0 0 0 0 0 0 0 0 0 0 0 0 0 0 0 0 0 0 0 0 0 0 0 0 0 0 0 0 0 0 122 0 115 119 115 114 111 111 109 105 103 109 108 106 111 104 106 111 111 115 114 107 115 110 107 99 119 108 104 113 99 105 111 111 112 106 106 108 99 115 103 99 137 126 100 109 132
95 103 99 104 97 96 103 93 95 98 94 97 101 94 98 92 101 103 111 117 111 106 96 107 112 104 112 114 113 119 118 118 121 0 0 0 0 0 0 0 0 0 0 0 0 0 0 0 0 0 0 0 0 0 0 0 0 0 0 0 0 0 0 0 0 0 0 0 0 0 0 0 120 122 109 120 114 115 116 115 105 111 102 118 108 106 104 99 103 103 107 109 109 97 99 103 105 102 115 105 105 108 103 107 109 105 111 92 100 98 108 96 101 98 108 101 138 130 113 118
88 84 82 85 80 90 84 94 89 83 87 90 96 95 93 89 80 92 91 90 93 86 101 104 101 100 114 106 0 0 107 106 116 0 0 0 0 0 0 0 0 0 0 0 0 0 0 0 0 0 0 0 0 0 0 0 0 0 0 0 0 0 0 0 0 0 0 0 0 0 0 115 108 110 104 112 109 108 100 98 101 105 97 93 103 97 89 101 103 99 90 96 105 82 85 96 95 99 88 97 88 93 93 89 86 90 89 96 92 86 82 75 81 90 101 99 86 123 100 157
92 86 86 90 100 98 97 105 92 94 95 94 94 90 94 94 98 89 102 96 95 103 106 100 102 100 112 104 0 105 110 108 116 111 118 106 110 0 111 0 113 115 0 0 0 0 0 0 0 0 0 0 0 0 0 0 0 0 0 0 114 0 0 109 113 0 0 0 108 0 107 112 113 111 114 110 106 110 101 95 109 102 105 89 93 101 106 98 101 102 106 105 109 99 97 102 101 91 101 105 103 93 95 100 96 97 100 85 84 80 91 95 94 95 95 92 85 103 107 132
85 92 90 87 95 96 90 90 84 97 86 88 88 93 88 82 92 98 98 94 98 93 96 112 92 102 103 103 101 105 91 103 104 102 98 104 0 114 115 0 108 0 0 0 0 0 0 0 0 0 0 0 0 0 0 0 0 113 0 0 109 106 106 108 113 108 105 101 113 107 107 103 104 99 109 108 98 91 103 96 96 96 98 86 90 90 93 103 103 95 97 107 110 86 94 85 90 93 94 88 90 86 91 97 96 89 97 94 98 88 95 90 97 92 98 103 94 140 134 110
83 83 82 85 93 91 100 88 83 81 88 89 84 91 88 89 90 87 92 91 80 91 96 86 87 91 90 89 103 90 93 99 96 96 90 109 100 101 103 104 104 96 96 112 106 92 0 0 96 100 0 107 101 94 102 106 105 103 104 103 102 104 106 103 99 108 101 98 99 105 99 109 105 100 102 94 97 97 97 96 96 90 91 96 94 90 89 92 94 92 97 88 91 93 93 90 94 92 90 83 88 86 88 88 87 79 97 83 83 93 90 98 94 102 79 87 110 86 102 130
86 77 84 84 81 89 100 99 85 83 87 81 91 83 85 88 90 94 89 97 86 99 93 92 89 97 93 90 98 99 98 86 97 94 94 96 95 97 96 109 101 99 98 105 99 97 106 0 103 103 96 105 97 97 101 102 100 104 94 105 103 95 94 105 100 99 96 100 96 106 99 104 101 95 106 87 96 96 93 97 97 96 85 90 98 96 87 87 94 90 86 97 89 92 93 93 95 93 100 84 90 92 82 87 83 99 96 93 90 83 91 98 111 82 92 123 103 115 150 115
84 76 71 68 81 84 87 87 88 81 87 79 87 82 88 80 85 87 87 84 87 86 91 88 85 84 93 91 84 92 91 95 81 90 95 94 99 87 89 95 94 93 85 91 97 91 92 101 93 91 92 98 98 90 92 83 103 88 96 98 96 81 81 80 95 82 98 88 97 85 93 87 91 95 86 94 94 92 93 96 88 93 84 90 83 95 89 90 87 89 94 81 89 82 87 88 85 75 81 88 78 90 86 72 84 84 87 84 84 77 73 88 80 96 101 118 143 126 98 67
71 73 79 84 72 84 88 87 82 82 82 89 83 85 83 86 88 85 83 85 82 92 85 92 84 94 90 86 93 89 85 96 93 93 95 93 96 90 96 94 91 96 94 88 89 97 90 88 98 90 94 85 95 97 101 91 91 83 88 95 96 98 92 95 88 97 87 96 105 91 95 93 88 86 94 83 94 96 95 94 93 88 88 87 79 84 88 79 91 90 80 91 78 81 93 83 93 85 79 79 83 82 85 77 76 82 76 82 80 90 81 87 85 106 97 84 113 96 82 151
