0 0 0 0 0 0 0 0 0 0 0 0 0 0 0 0 0 0 0 0 0 0 0 0 0 0 0 0 0 0 0 0 0 0 0 0 0 0 0 0 0 0 0 0 0 0 0 0 0 0 0 0 0 0 0 0 0 0 0 0 0 0 0 0 0 0 0 0 0 0 0 0 0 0 0 0 0 0 0 0 0 0 0 0 0 0 0 0 0 0 0 0 0 0 0 0 0 0 0 0 0 0 0 0 0 0 0 0 0 0 0 0 0 0 0 0 0 0 0 0
0 0 0 0 0 0 0 0 0 0 0 0 0 0 0 0 0 0 0 0 0 0 0 0 0 0 0 0 0 0 0 0 0 0 0 0 0 0 0 0 0 0 0 0 0 0 0 0 0 0 0 0 0 0 0 0 0 0 0 0 0 0 0 0 0 0 0 0 0 0 0 0 0 0 0 0 0 0 0 0 0 0 0 0 0 0 0 0 0 0 0 0 0 0 0 0 0 0 0 0 0 0 0 0 0 0 0 0 0 0 0 0 0 0 0 0 0 0 0 0
0 0 0 0 0 0 0 0 0 0 0 0 0 0 0 0 0 0 0 0 0 0 0 0 0 0 0 0 0 0 0 0 0 0 0 0 0 0 0 0 0 0 0 0 0 0 0 0 0 0 0 0 0 0 0 0 0 0 0 0 0 0 0 0 0 0 0 0 0 0 0 0 0 0 0 0 0 0 0 0 0 0 0 0 0 0 0 0 0 0 0 0 0 0 0 0 0 0 0 0 0 0 0 0 0 0 0 0 0 0 0 0 0 0 0 0 0 0 0 0
0 0 0 0 0 0 0 0 0 0 0 0 0 0 0 0 0 0 0 0 0 0 0 0 0 0 0 0 0 0 0 0 0 0 0 0 0 0 0 0 0 0 0 0 0 0 0 0 0 0 0 0 0 0 0 0 0 0 0 0 0 0 0 0 0 0 0 0 0 0 0 0 0 0 0 0 0 0 0 0 0 0 0 0 0 0 0 0 0 0 0 0 0 0 0 0 0 0 0 0 0 0 0 0 0 0 0 0 0 0 0 0 0 0 0 0 0 0 0 0
0 0 0 0 0 0 0 0 0 0 0 0 0 0 0 0 0 0 0 0 0 0 0 0 0 0 0 0 0 0 0 0 0 0 0 0 0 0 0 0 0 0 0 0 0 0 0 0 0 0 0 0 0 0 0 0 0 0 0 0 0 0 0 0 0 0 0 0 0 0 0 0 0 0 0 0 0 0 0 0 0 0 0 0 0 0 0 0 0 0 0 0 0 0 0 0 0 0 0 0 0 0 0 0 0 0 0 0 0 0 0 0 0 0 0 0 0 0 0 0
0 0 0 0 0 0 0 0 0 0 0 0 0 0 0 0 0 0 0 0 0 0 0 0 0 0 0 0 0 0 0 0 0 0 0 0 0 0 0 464 492 509 498 502 512 519 519 511 514 515 519 513 510 505 509 501 0 0 0 0 0 0 0 0 0 0 0 0 0 0 0 0 0 0 0 0 0 0 0 0 0 0 0 0 0 0 0 0 0 0 0 0 0 0 0 0 0 0 0 0 0 0 0 0 0 0 0 0 0 0 0 0 0 0 0 0 0 0 0 0
0 0 0 0 0 0 0 0 0 0 0 0 0 0 0 0 0 0 0 0 0 0 0 0 0 0 0 0 0 0 0 0 0 0 0 0 0 540 507 498 520 509 497 499 515 512 520 511 504 517 506 513 524 509 519 505 539 515 522 510 0 0 0 0 0 0 0 0 0 0 0 0 0 0 0 0 0 0 0 0 0 0 0 0 0 0 0 0 0 0 0 0 0 0 0 0 0 0 0 0 0 0 0 0 0 0 0 0 0 0 0 0 0 0 0 0 0 0 0 0
0 0 0 0 0 0 0 0 0 0 0 0 0 0 0 0 0 0 0 0 0 0 0 0 0 0 0 0 0 0 0 0 0 0 0 497 492 508 509 490 505 511 497 507 496 507 500 522 504 501 496 498 503 513 515 516 516 502 488 509 497 500 514 504 535 0 0 0 0 0 0 0 0 0 0 0 0 0 0 0 0 0 0 0 0 0 0 0 0 0 0 0 0 0 0 0 0 0 0 0 0 0 0 0 0 0 0 0 0 0 0 0 0 0 0 0 0 0 0 0
0 0 0 0 0 0 0 0 0 0 0 0 0 0 0 0 0 0 0 0 0 0 0 0 0 0 0 0 0 0 0 0 0 532 503 514 503 508 501 510 517 503 515 512 503 504 509 503 504 516 507 494 512 515 503 521 501 502 510 510 501 498 516 528 511 505 522 559 541 590 622 568 582 568 610 601 651 586 602 602 0 0 0 0 0 0 0 0 0 0 0 0 0 0 0 0 0 0 0 0 0 0 0 0 0 0 0 0 0 0 0 0 0 0 0 0 0 0 0 0
0 0 0 0 0 0 0 0 0 0 0 0 0 0 0 0 0 0 0 0 0 0 0 0 0 0 0 0 0 0 0 520 507 514 497 499 496 508 506 493 504 497 498 510 504 509 493 499 506 502 519 500 504 502 507 510 499 511 507 509 510 516 510 510 508 517 518 525 526 498 574 598 554 576 568 595 584 577 581 593 608 588 628 624 0 530 0 581 581 593 568 552 551 608 625 566 579 614 606 586 0 599 618 656 0 0 0 0 0 0 0 0 0 0 0 0 0 0 0 0
0 0 0 0 0 0 0 0 0 0 0 0 0 0 0 0 0 0 0 0 0 0 0 0 0 0 0 0 0 0 531 500 503 501 488 497 501 505 498 510 494 494 505 500 506 502 518 503 498 508 498 501 505 500 504 519 502 518 503 521 504 503 504 507 511 501 499 515 514 517 538 523 575 560 555 569 588 538 571 585 552 567 565 594 531 531 511 561 582 569 558 576 555 512 581 605 585 563 577 536 574 569 557 583 550 581 558 0 539 0 0 0 0 0 0 0 0 0 0 0
0 0 0 0 0 0 0 0 0 0 0 0 0 0 0 0 0 0 0 0 0 0 0 0 0 0 0 0 520 519 512 518 500 500 490 492 491 499 503 507 504 499 495 498 510 501 508 502 503 517 501 511 506 510 509 506 504 497 496 510 507 499 515 507 513 502 501 492 508 505 520 565 558 547 569 544 571 558 569 569 562 565 598 595 597 556 572 542 540 556 570 559 602 574 586 596 556 580 563 536 582 594 592 573 555 555 570 600 556 0 0 0 0 0 0 0 0 0 0 0
0 0 0 0 0 0 0 0 0 0 0 0 0 0 0 0 0 0 0 0 0 0 0 0 0 0 0 487 492 510 508 496 502 499 493 499 502 496 508 507 508 509 506 513 507 513 497 507 496 513 506 510 505 505 506 504 507 518 506 499 510 507 514 516 511 498 513 511 512 510 511 511 538 598 589 559 537 553 581 565 533 550 551 564 534 570 494 559 519 574 582 600 558 575 577 533 573 556 580 560 577 573 561 576 527 496 568 555 0 0 0 0 0 0 0 0 0 0 0 0
0 0 0 0 0 0 0 0 0 0 0 0 0 0 0 0 0 0 0 0 0 0 0 0 0 0 500 497 493 500 505 501 504 501 486 496 503 499 498 495 509 507 508 505 504 504 500 499 507 493 513 507 511 504 503 510 506 507 509 509 506 512 515 497 520 511 513 506 510 502 513 521 521 536 549 600 546 596 531 551 573 579 587 553 549 557 582 551 532 557 570 533 541 534 569 556 513 598 545 538 569 553 554 550 594 576 613 559 513 0 0 0 0 0 0 0 0 0 0 0
0 0 0 0 0 0 0 0 0 0 0 0 0 0 0 0 0 0 0 0 0 0 0 0 0 475 498 505 509 499 503 503 501 494 495 505 497 498 502 500 501 500 504 510 504 499 508 508 511 505 505 511 508 500 512 499 502 507 508 507 502 512 510 508 503 512 502 505 514 507 513 509 511 529 566 541 566 549 577 544 563 556 549 536 555 583 591 599 522 534 584 574 558 568 520 567 573 573 565 548 550 555 614 557 529 575 520 533 519 518 504 0 0 0 0 0 0 0 0 0
0 0 0 0 0 0 0 0 0 0 0 0 0 0 0 0 0 0 0 0 0 0 0 0 0 497 499 492 490 491 499 502 499 504 497 497 502 492 504 501 503 495 510 496 498 503 515 498 502 493 504 509 514 505 494 501 506 502 497 510 510 509 508 506 507 505 516 509 508 504 513 503 504 513 532 540 535 504 528 543 538 537 558 516 556 537 505 564 539 528 548 540 534 521 522 566 536 541 515 558 536 527 517 543 573 526 551 571 546 0 0 0 536 545 0 0 0 0 0 0
0 0 0 0 0 0 0 0 0 0 0 0 0 0 0 0 0 0 0 0 0 0 0 0 518 490 504 493 495 497 498 499 501 500 495 504 498 504 509 506 498 506 495 505 498 500 502 513 499 505 505 511 504 502 503 511 503 502 507 507 511 503 503 503 510 516 502 507 505 499 502 512 502 514 529 526 556 550 549 575 611 563 560 555 535 569 548 542 561 556 538 587 558 538 542 565 506 547 541 589 557 558 543 557 559 576 581 560 570 515 573 0 0 0 0 0 0 0 0 0
0 0 0 0 0 0 0 0 0 0 0 0 0 0 0 0 0 0 0 0 0 0 0 0 487 480 494 487 499 495 484 488 492 494 491 505 501 493 497 499 500 495 507 509 492 503 507 505 508 494 505 498 507 512 505 505 503 503 508 500 507 501 499 512 502 504 505 502 506 504 504 513 502 518 501 517 521 545 536 518 516 534 564 524 557 533 535 555 570 520 529 527 554 546 554 488 531 558 566 509 559 542 559 553 515 542 571 521 545 565 0 0 0 0 0 0 0 0 0 0
0 0 0 0 0 0 0 0 0 0 0 0 0 0 0 0 0 0 0 0 0 0 0 503 495 501 486 498 489 485 504 495 492 495 503 491 502 501 493 494 494 498 503 491 491 497 496 504 502 509 499 502 504 507 503 502 505 505 504 503 511 498 505 502 500 504 505 504 519 510 504 508 507 508 512 518 513 555 571 529 505 490 546 540 528 547 505 542 526 530 535 497 509 516 543 525 519 543 557 537 526 541 518 534 488 541 524 541 511 484 507 0 0 0 0 0 0 0 0 0
0 0 0 0 0 0 0 0 0 0 0 0 0 0 0 0 0 0 0 0 0 0 0 497 491 492 494 495 495 492 494 492 489 499 490 500 489 493 496 492 489 499 505 506 501 502 506 495 497 506 500 507 502 497 500 508 507 512 503 501 497 502 501 503 514 502 500 507 504 514 512 506 511 514 506 517 539 550 549 546 530 550 533 554 543 563 556 571 552 544 531 527 567 515 554 547 549 553 565 595 540 559 553 536 543 555 569 523 571 553 573 0 0 0 0 0 0 0 0 0
0 0 0 0 0 0 0 0 0 0 0 0 0 0 0 0 0 0 0 0 0 0 438 496 493 487 491 483 488 489 497 501 486 491 487 489 493 493 490 497 500 494 495 491 497 491 503 500 502 506 492 494 498 497 507 498 504 507 509 503 502 502 504 506 500 501 508 506 509 511 511 515 501 507 506 502 527 525 536 537 518 519 515 533 523 520 520 532 508 529 541 534 504 553 494 537 505 514 534 532 499 515 522 508 546 519 538 510 504 544 542 0 477 0 0 0 0 0 0 0
0 0 0 0 0 0 0 0 0 0 0 0 0 0 0 0 0 0 0 0 0 0 477 484 485 484 490 497 488 493 488 491 504 491 498 495 494 496 491 497 497 497 494 503 505 499 503 495 510 501 502 499 496 505 499 503 499 507 505 506 504 504 497 505 505 512 506 516 507 497 499 509 508 510 507 504 516 494 527 529 520 544 509 534 524 550 519 525 548 519 542 507 523 545 528 534 557 520 535 531 502 556 526 534 567 555 547 528 481 517 506 528 0 0 0 0 0 0 0 0
0 0 0 0 0 0 0 0 0 0 0 0 0 0 0 0 0 0 0 0 0 0 490 484 489 489 496 488 497 492 494 488 496 496 496 494 496 492 494 500 499 501 497 502 497 506 503 503 504 500 499 501 495 496 497 494 505 511 508 501 509 508 508 502 503 515 504 505 507 508 518 506 512 511 512 509 507 521 513 540 528 506 550 512 542 529 525 522 555 569 532 525 519 525 532 576 545 563 554 526 533 562 532 511 538 524 549 521 571 547 579 552 509 526 0 0 0 0 0 0
0 0 0 0 0 0 0 0 0 0 0 0 0 0 0 0 0 0 0 0 0 0 487 492 490 493 484 490 489 495 496 487 493 494 479 491 487 493 495 491 496 498 485 491 493 498 496 503 497 505 499 500 497 501 496 495 503 497 505 510 510 504 499 503 500 507 498 502 501 504 509 503 507 508 510 502 496 512 532 537 505 497 525 523 514 526 538 526 523 509 525 543 519 493 527 515 520 520 536 532 546 525 541 528 492 533 534 533 534 556 505 485 501 0 0 0 0 0 0 0
0 0 0 0 0 0 0 0 0 0 0 0 0 0 0 0 0 0 0 0 0 0 498 494 485 487 489 493 492 497 486 487 492 485 484 490 493 491 491 494 499 499 499 494 503 498 493 498 506 500 504 501 498 495 503 502 501 502 504 497 511 504 507 501 507 504 505 506 503 508 503 501 509 502 507 503 507 495 524 527 527 511 525 522 532 520 514 523 519 520 516 520 528 509 529 514 533 516 515 535 535 531 545 503 480 496 552 545 549 510 566 546 566 0 0 0 0 0 0 0
0 0 0 0 0 0 0 0 0 0 0 0 0 0 0 0 0 0 0 0 0 0 487 479 488 490 485 489 487 482 495 487 491 483 496 487 487 490 499 494 496 499 494 501 494 489 492 502 497 500 496 497 497 504 497 493 504 499 502 500 508 499 510 501 510 505 504 500 502 502 501 507 502 509 504 504 512 521 494 516 520 495 525 502 524 506 531 494 512 515 484 541 541 519 505 515 512 497 494 519 544 496 534 499 519 493 513 533 539 524 515 508 542 0 0 0 0 0 0 0
0 0 0 0 0 0 0 0 0 0 0 0 0 0 0 0 0 0 0 0 0 437 476 499 487 489 489 490 491 483 481 486 482 485 481 478 499 487 495 491 500 495 498 494 493 494 495 493 494 494 497 506 497 506 499 499 499 502 503 500 499 503 506 505 506 501 506 512 505 507 500 500 499 518 503 501 503 502 519 513 532 520 543 500 483 517 508 509 505 537 493 522 502 492 512 487 510 537 495 491 507 483 509 517 495 526 506 500 512 502 511 0 0 0 0 0 0 0 0 0
0 0 0 0 0 0 0 0 0 0 0 0 0 0 0 0 0 0 0 0 0 463 485 488 483 477 484 485 484 480 484 479 490 485 487 491 489 484 493 497 489 489 488 492 494 494 494 496 501 493 498 499 496 500 502 499 502 500 502 507 499 503 495 499 502 500 503 504 507 504 503 503 503 507 504 504 505 516 534 507 513 496 518 528 506 510 529 502 510 526 507 500 506 494 541 502 523 511 514 522 534 493 533 504 508 517 493 515 515 488 525 500 476 0 0 0 0 0 0 0
0 0 0 0 0 0 0 0 0 0 0 0 0 0 0 0 0 0 0 0 0 406 481 476 481 478 479 479 478 487 481 489 485 484 484 487 490 488 495 484 489 493 495 495 489 491 494 493 496 493 493 493 500 496 497 500 498 497 500 500 508 504 505 500 499 503 504 508 501 497 504 501 495 509 502 497 501 509 515 487 511 511 499 525 511 523 501 507 520 494 503 517 496 505 492 499 512 509 530 495 507 509 492 553 508 504 508 499 479 476 525 0 467 0 0 0 0 0 0 0
0 0 0 0 0 0 0 0 0 0 0 0 0 0 0 0 0 0 0 0 0 440 485 478 487 477 481 484 492 487 480 489 490 487 490 484 487 485 484 493 491 490 490 493 491 494 497 495 490 494 493 497 499 501 498 499 498 500 506 499 499 495 499 504 502 498 503 501 496 503 503 504 505 501 506 502 498 498 519 509 523 506 498 507 517 509 510 512 510 509 512 507 505 501 502 523 523 527 528 504 541 507 484 514 525 520 509 479 492 493 506 464 472 482 0 0 0 0 0 0
0 0 0 0 0 0 0 0 0 0 0 0 0 0 0 0 0 0 0 0 0 506 487 477 480 485 483 481 484 483 496 487 482 485 491 481 486 488 491 491 490 492 492 495 494 494 491 491 497 492 496 498 502 498 494 496 498 498 500 493 502 503 503 496 499 502 499 502 499 504 499 503 501 503 498 498 501 504 493 500 496 517 520 530 512 515 512 525 513 521 530 519 510 533 504 512 507 486 542 483 539 507 509 524 553 517 519 507 530 533 541 523 489 0 0 0 0 0 0 0
0 0 0 0 0 0 0 0 0 0 0 0 0 0 0 0 0 0 0 0 0 455 471 477 483 484 470 476 482 485 481 484 483 480 492 481 486 489 492 490 488 488 488 491 489 496 502 491 495 496 492 497 496 499 501 498 495 497 494 498 496 499 501 498 504 501 501 503 502 499 506 496 497 502 501 498 506 503 498 491 497 523 509 512 506 500 513 497 514 490 506 495 538 517 519 505 491 550 511 501 515 497 501 552 475 480 501 515 573 515 485 477 480 0 0 0 0 0 0 0
0 0 0 0 0 0 0 0 0 0 0 0 0 0 0 0 0 0 0 0 0 445 475 487 474 480 475 482 483 480 489 484 487 483 479 490 488 493 483 492 494 492 485 494 491 490 491 498 493 492 498 492 490 501 498 504 495 501 500 497 502 496 499 498 502 501 499 501 507 509 503 502 505 499 499 503 502 502 502 514 512 505 528 514 520 509 525 522 517 503 523 516 507 532 534 513 497 480 497 524 516 519 486 513 546 523 537 530 499 536 502 478 563 486 0 0 0 0 0 0
0 0 0 0 0 0 0 0 0 0 0 0 0 0 0 0 0 0 0 0 0 450 475 475 479 473 476 478 477 477 482 480 485 487 483 483 486 484 488 492 491 486 491 493 490 490 487 492 488 486 495 495 495 493 499 496 496 498 495 495 499 502 506 501 501 499 501 500 499 500 499 500 497 497 497 496 495 498 494 487 503 500 500 496 516 506 481 508 506 491 505 498 516 498 496 501 488 471 489 508 503 523 500 517 493 497 489 498 504 521 489 529 532 0 0 0 0 0 0 0
0 0 0 0 0 0 0 0 0 0 0 0 0 0 0 0 0 0 0 0 0 432 475 474 476 479 471 475 478 482 483 491 481 491 481 486 481 489 486 487 484 485 487 490 491 496 482 491 495 494 494 495 494 496 499 496 496 495 488 495 491 498 501 493 502 498 501 495 495 504 496 495 496 499 501 497 504 500 495 501 490 493 510 511 503 482 480 518 494 480 493 500 481 499 472 496 477 487 540 498 472 487 501 518 482 491 478 477 462 504 497 498 521 470 0 0 0 0 0 0
0 0 0 0 0 0 0 0 0 0 0 0 0 0 0 0 0 0 0 0 0 475 472 473 475 471 478 483 478 481 480 484 479 484 484 484 491 486 486 482 487 494 485 492 486 487 493 490 489 498 493 492 497 490 501 499 491 500 500 494 493 494 497 498 502 502 504 502 493 499 498 496 501 500 497 499 495 504 526 502 526 503 525 516 520 515 513 502 501 525 512 515 523 507 513 518 488 504 505 496 537 514 523 523 497 496 521 507 513 495 508 512 519 569 0 0 0 0 0 0
0 0 0 0 0 0 0 0 0 0 0 0 0 0 0 0 0 0 0 0 0 482 478 471 480 477 478 478 474 477 476 480 483 482 479 486 486 482 483 489 487 489 490 488 489 486 491 487 494 491 492 489 490 494 493 490 492 494 497 494 497 497 500 503 495 498 498 502 498 494 497 493 498 500 500 496 495 491 509 470 509 505 502 479 496 486 507 492 487 491 497 497 479 488 525 505 476 509 530 517 512 500 497 531 512 523 456 462 490 514 519 504 454 501 0 0 0 0 0 0
0 0 0 0 0 0 0 0 0 0 0 0 0 0 0 0 0 0 0 0 0 0 479 473 470 478 473 476 478 485 479 480 482 484 481 479 487 483 486 485 487 483 488 491 489 492 494 493 494 491 492 498 494 497 499 496 493 500 494 494 499 498 501 497 496 502 497 495 497 494 496 492 496 501 494 498 492 486 504 485 505 502 493 497 501 506 492 506 501 497 493 480 505 502 508 489 477 513 508 478 489 489 475 471 469 487 469 483 515 481 469 471 485 460 0 0 0 0 0 0
0 0 0 0 0 0 0 0 0 0 0 0 0 0 0 0 0 0 0 0 0 0 514 468 468 475 480 475 478 481 479 479 484 482 479 484 480 484 491 483 493 484 486 485 487 491 488 490 497 491 492 492 497 497 495 490 494 490 493 494 502 495 495 500 496 494 502 497 496 496 499 496 495 495 498 496 498 508 503 513 510 499 514 516 532 532 518 506 512 504 514 523 519 547 514 535 507 520 526 527 521 502 509 542 502 490 519 491 541 497 519 495 495 537 0 0 0 0 0 0
0 0 0 0 0 0 0 0 0 0 0 0 0 0 0 0 0 0 0 0 0 0 506 474 473 477 478 476 480 475 476 478 481 485 479 482 484 483 477 487 490 484 486 486 490 490 486 482 489 493 494 493 492 494 491 492 501 486 493 492 489 493 491 493 496 500 501 495 496 497 494 498 493 494 493 496 497 491 501 495 504 494 500 492 499 514 493 493 485 496 515 535 503 509 488 506 514 469 498 509 481 511 467 462 468 525 475 476 489 484 503 501 448 471 458 466 0 0 0 0
0 0 0 0 0 0 0 0 0 0 0 0 0 0 0 0 0 0 0 0 0 0 610 472 476 478 483 476 474 480 479 479 483 474 483 486 484 481 481 486 492 492 487 489 486 488 492 488 488 486 489 496 493 497 497 497 490 494 498 496 496 500 500 499 499 494 500 496 501 496 495 491 492 495 489 496 497 503 502 498 514 507 500 525 519 515 503 513 525 502 533 562 537 517 513 502 526 512 518 530 493 517 497 495 524 507 521 504 554 494 492 499 503 511 534 0 0 0 0 0
0 0 0 0 0 0 0 0 0 0 0 0 0 0 0 0 0 0 0 0 0 0 0 479 468 472 473 474 475 476 473 479 481 478 476 481 479 480 481 482 486 488 488 487 485 484 490 486 486 488 490 487 492 489 494 491 495 492 494 496 495 494 493 490 494 494 491 500 497 496 496 491 500 497 494 495 489 497 500 497 500 491 477 484 507 490 490 505 479 497 484 523 525 499 522 497 502 504 503 526 477 541 479 521 501 508 507 486 486 538 463 455 468 0 0 0 0 0 0 0
0 0 0 0 0 0 0 0 0 0 0 0 0 0 0 0 0 0 0 0 0 0 0 494 473 470 472 473 467 472 481 477 473 478 478 472 479 480 484 480 484 482 487 485 484 485 487 489 487 488 493 492 488 493 490 491 497 493 495 491 491 494 495 493 489 492 492 496 493 493 495 493 494 493 490 489 484 491 494 499 496 509 508 495 490 485 493 501 506 500 492 508 490 483 504 507 472 531 480 499 511 491 468 493 496 493 483 477 479 466 457 489 505 0 0 0 0 0 0 0
0 0 0 0 0 0 0 0 0 0 0 0 0 0 0 0 0 0 0 0 0 0 0 532 467 478 470 471 473 474 478 473 480 477 477 486 475 477 479 480 482 482 491 491 487 491 489 489 488 482 495 490 492 488 495 486 494 497 492 487 496 493 492 497 497 493 488 495 492 496 497 496 494 495 494 490 496 500 501 506 508 506 508 518 497 528 520 495 511 517 516 511 502 508 516 491 520 516 506 501 520 499 528 489 509 512 485 510 494 521 473 459 487 487 550 0 0 0 0 0
0 0 0 0 0 0 0 0 0 0 0 0 0 0 0 0 0 0 0 0 0 0 0 0 477 472 464 473 469 474 479 472 470 476 482 480 480 480 481 476 481 483 486 485 487 492 483 486 483 489 487 487 492 492 489 487 491 493 491 491 490 492 492 493 500 495 489 494 497 493 495 493 486 494 491 486 486 491 501 493 496 488 499 500 507 486 484 502 505 480 494 504 503 492 496 502 501 502 499 518 491 491 487 477 506 478 462 472 491 497 502 495 446 459 487 472 0 0 0 0
0 0 0 0 0 0 0 0 0 0 0 0 0 0 0 0 0 0 0 0 0 0 0 0 527 466 470 468 473 476 476 472 477 477 474 479 479 479 481 486 485 483 483 490 483 483 489 487 488 487 493 494 490 495 490 492 492 494 490 489 493 490 491 498 492 496 497 491 493 492 497 496 494 492 490 490 481 512 491 501 481 509 495 500 490 504 488 518 494 486 492 517 497 516 523 506 509 515 519 476 503 494 484 488 509 457 480 478 494 486 500 502 475 429 478 444 0 0 0 0
0 0 0 0 0 0 0 0 0 0 0 0 0 0 0 0 0 0 0 0 0 0 0 0 0 475 465 473 467 474 471 475 482 475 474 476 476 482 480 483 481 479 482 485 485 482 489 487 482 485 493 484 486 491 485 493 491 489 488 493 489 491 492 492 491 493 494 492 490 493 491 490 492 492 492 493 489 489 496 493 486 489 490 498 492 493 499 493 493 492 512 495 498 485 506 511 479 494 489 507 489 500 488 502 499 482 476 516 497 481 487 539 524 536 0 0 0 0 0 0
0 0 0 0 0 0 0 0 0 0 0 0 0 0 0 0 0 0 0 0 0 0 0 0 0 540 472 470 466 471 471 475 473 470 472 478 474 479 481 480 481 481 482 483 482 481 482 486 482 488 487 488 490 489 491 491 495 489 487 495 486 490 494 490 486 491 493 490 491 490 488 492 494 493 492 494 487 479 489 480 496 494 478 481 490 495 490 507 483 489 494 497 479 480 490 487 486 497 484 486 491 486 516 524 457 466 453 460 481 442 471 462 468 525 0 0 0 0 0 0
0 0 0 0 0 0 0 0 0 0 0 0 0 0 0 0 0 0 0 0 0 0 0 0 0 0 489 472 466 471 471 473 470 473 475 476 479 476 474 478 483 482 481 487 483 486 483 485 485 484 487 487 490 490 490 489 489 489 489 486 492 489 486 492 496 486 490 492 492 489 496 498 488 487 489 491 489 496 482 500 485 516 486 498 481 517 496 489 492 501 499 501 481 501 485 494 509 500 504 498 483 511 496 488 510 507 474 498 487 457 514 506 513 497 0 0 0 0 0 0
0 0 0 0 0 0 0 0 0 0 0 0 0 0 0 0 0 0 0 0 0 0 0 0 0 0 0 470 465 465 471 476 472 472 473 473 472 475 475 478 482 480 476 484 482 481 482 478 487 484 482 489 481 486 483 484 490 490 484 489 483 489 490 485 488 489 491 491 486 487 489 485 487 484 472 479 496 481 481 478 479 490 482 479 481 489 494 495 487 473 488 500 501 499 481 486 503 501 496 474 505 465 487 465 458 485 449 500 497 449 466 469 458 453 0 0 0 0 0 0
0 0 0 0 0 0 0 0 0 0 0 0 0 0 0 0 0 0 0 0 0 0 0 0 0 0 0 488 468 464 469 473 469 470 468 471 476 472 477 474 476 477 477 480 478 483 485 484 485 486 488 483 485 488 483 487 486 486 486 487 487 483 487 489 490 487 490 488 486 487 481 487 488 470 496 487 480 478 478 477 473 477 482 484 489 487 485 469 493 502 484 515 486 498 480 484 477 489 490 489 481 467 505 493 475 448 459 490 493 488 481 447 455 509 451 0 0 0 0 0
0 0 0 0 0 0 0 0 0 0 0 0 0 0 0 0 0 0 0 0 0 0 0 0 0 0 0 0 521 469 466 466 470 468 473 472 474 473 470 476 477 478 478 475 484 480 476 480 481 479 479 482 482 485 484 483 484 482 487 490 489 485 485 482 486 489 490 486 484 485 485 486 477 477 478 490 490 478 476 476 497 482 489 486 487 492 494 478 497 482 491 491 471 474 493 496 503 473 490 492 498 483 488 496 465 453 474 462 456 450 424 447 417 445 432 0 0 0 0 0
0 0 0 0 0 250 230 259 332 0 0 0 0 0 0 0 0 0 0 0 0 0 0 0 0 0 0 0 0 499 462 467 465 466 464 469 470 466 472 469 470 479 482 471 475 475 476 478 479 481 477 479 479 485 483 482 487 483 483 487 482 483 484 485 485 489 484 486 486 482 478 477 478 483 477 478 488 480 480 491 484 480 480 474 477 494 480 475 483 479 482 484 516 465 486 477 501 470 474 498 479 501 492 471 488 463 486 482 472 442 452 447 493 471 435 0 0 0 0 0
0 0 0 0 249 235 233 237 235 279 361 0 0 0 0 0 0 0 0 0 0 0 0 0 0 0 0 0 0 0 467 461 461 469 464 473 469 469 476 470 476 479 473 473 474 475 478 475 480 474 477 479 480 483 483 485 484 477 485 483 487 483 486 490 480 483 481 482 479 485 477 479 481 476 487 484 477 483 468 483 480 481 480 483 478 490 488 487 478 472 474 494 508 468 482 485 479 488 462 499 500 487 495 471 487 486 478 459 466 487 451 551 490 498 0 0 0 0 0 0
0 0 0 233 222 229 231 226 234 241 326 0 0 0 0 0 0 0 0 0 0 0 0 0 0 0 0 0 0 0 0 466 460 469 466 467 466 467 467 472 473 469 476 473 472 472 471 477 474 473 476 478 481 474 479 483 482 477 479 478 479 486 478 480 478 481 481 481 479 477 467 489 490 487 491 477 478 476 476 478 478 485 486 473 487 484 496 487 477 485 470 473 507 483 477 492 491 495 478 495 470 494 453 419 479 513 478 466 454 464 474 494 442 486 503 0 0 0 0 0
181 249 279 249 279 258 255 232 233 234 316 0 406 425 404 428 385 394 410 417 446 433 440 435 459 451 452 461 442 435 440 463 464 467 461 466 462 461 472 463 466 470 465 469 471 469 472 472 479 480 474 475 477 482 479 472 476 484 476 482 474 487 472 480 479 478 472 482 480 475 481 462 468 467 469 469 467 480 465 472 476 471 480 468 470 468 493 476 469 470 476 476 477 480 471 457 461 465 472 475 459 460 472 452 459 462 451 436 454 452 438 440 468 432 456 424 0 0 0 0
232 210 226 257 241 248 251 239 233 253 385 441 390 411 403 398 396 408 410 418 414 427 421 424 427 432 440 436 450 446 455 455 463 459 455 461 460 463 457 456 460 465 465 466 461 470 471 466 478 479 470 474 474 477 469 473 474 473 474 478 475 474 473 478 474 472 479 475 476 473 476 466 478 471 471 461 466 464 456 454 469 461 451 471 461 462 450 453 459 449 471 457 457 452 452 466 467 465 460 451 460 458 465 463 447 455 456 451 452 449 445 447 477 452 442 467 457 498 0 0
175 199 224 227 222 232 238 227 229 274 389 366 368 371 356 373 366 379 363 373 386 379 403 403 399 411 416 428 430 439 443 441 445 442 437 448 439 448 447 448 449 454 450 450 457 448 455 457 453 455 450 458 464 452 455 460 462 461 455 464 462 464 454 462 464 454 460 455 458 460 453 450 448 454 436 440 433 438 426 432 434 424 412 428 420 432 427 422 430 429 434 426 431 414 429 423 427 427 427 429 428 405 424 413 414 430 414 406 424 401 414 428 404 431 396 409 407 435 400 0
252 275 245 221 229 222 231 229 253 307 328 330 334 316 323 333 342 356 337 347 342 350 360 365 368 388 386 406 411 414 419 422 415 433 424 433 427 427 430 433 434 431 428 428 435 439 437 438 434 436 441 438 442 440 438 443 449 441 444 440 446 441 441 442 439 442 436 437 442 441 430 432 425 424 424 407 410 398 391 398 402 394 401 393 386 381 399 390 396 396 398 397 403 389 390 369 388 391 384 398 379 390 393 390 391 378 371 385 373 382 386 393 371 397 397 374 371 376 356 378
307 288 286 244 235 235 234 247 302 307 292 312 302 305 311 316 320 323 314 326 327 328 332 345 352 375 377 386 392 393 401 400 407 407 410 405 413 415 413 416 411 414 417 414 422 415 418 419 422 417 418 420 423 421 422 424 420 427 417 421 419 423 411 423 415 421 424 425 426 420 412 415 413 402 399 395 376 368 367 361 361 365 352 354 357 355 358 358 367 367 357 369 369 365 362 356 355 373 364 367 364 364 370 373 383 362 353 369 342 360 346 363 367 349 363 352 348 336 334 351
274 269 277 249 254 238 253 263 268 273 275 281 270 286 291 280 276 280 289 285 289 290 310 320 326 344 355 372 356 377 379 383 390 385 384 390 386 392 395 396 389 387 393 392 390 393 391 395 388 392 390 402 399 397 394 394 394 403 394 400 393 397 397 397 395 382 398 397 386 394 386 389 383 380 373 355 365 344 345 336 345 321 324 340 334 330 330 326 330 328 327 330 329 330 335 333 334 323 318 332 335 315 319 341 326 326 336 344 330 315 314 337 326 332 353 325 312 284 319 318
247 240 260 242 245 262 243 257 262 250 261 260 262 253 249 258 264 268 275 268 275 291 300 299 313 311 328 346 351 358 361 365 362 365 361 368 368 378 373 372 373 370 376 370 371 374 370 370 362 368 378 373 374 380 382 380 367 381 381 373 381 373 377 371 374 378 370 369 371 373 369 367 360 352 347 344 330 329 315 313 309 293 308 309 310 320 302 310 302 301 311 309 313 305 306 310 298 301 298 306 318 289 310 303 311 308 317 306 313 308 307 325 324 315 308 308 289 330 328 331
239 219 219 230 232 235 234 237 244 236 235 242 248 241 244 246 253 242 248 252 255 264 271 281 296 294 317 318 328 332 332 334 344 343 344 342 341 338 338 347 346 349 348 341 345 353 345 343 346 342 346 352 347 354 351 356 354 347 357 350 345 347 349 349 345 344 348 346 350 350 348 345 338 338 329 322 307 302 295 288 285 270 278 274 281 283 282 282 272 278 273 289 282 284 273 273 265 279 280 287 278 282 280 270 275 280 274 277 275 286 276 291 277 300 275 269 277 288 281 259
221 216 224 227 223 212 231 220 222 233 224 219 225 229 227 227 224 227 228 238 241 248 256 266 275 282 296 289 305 305 311 312 317 320 321 324 318 325 325 324 323 320 320 318 329 321 327 333 321 326 326 328 332 324 333 325 327 324 335 322 326 327 328 326 329 329 326 320 322 319 319 323 317 306 309 292 286 273 274 267 264 265 265 261 263 258 261 253 257 251 247 258 252 247 262 253 260 254 261 256 260 253 259 261 253 251 256 265 270 278 266 277 251 268 267 272 253 258 272 292
206 208 210 215 224 212 219 221 217 209 209 216 214 224 212 216 220 217 220 221 228 238 243 251 255 263 271 276 280 284 289 293 296 294 299 299 297 299 302 308 300 296 298 301 305 295 305 302 307 311 302 300 300 308 299 308 310 305 304 309 308 304 307 301 313 310 306 303 304 300 296 299 301 291 285 282 268 259 251 250 247 251 245 252 249 251 247 239 243 243 242 245 246 245 250 237 246 240 242 239 245 249 241 241 246 251 247 238 253 249 237 257 259 273 258 272 259 250 243 278
196 195 209 194 199 197 205 203 185 205 201 184 190 193 184 188 205 186 208 214 211 223 234 231 238 250 246 256 264 269 269 263 276 273 274 276 277 276 282 286 274 283 282 286 283 279 281 283 281 281 283 282 277 285 281 283 283 287 284 284 283 283 282 287 289 288 280 286 286 283 285 282 279 275 267 260 252 244 238 236 230 230 227 227 228 225 227 220 228 229 226 226 225 229 222 223 222 218 220 223 224 226 223 236 221 219 228 227 229 233 236 231 240 231 241 236 241 216 228 249
177 178 175 194 180 195 182 200 188 180 183 180 184 180 177 178 181 189 192 186 214 211 222 229 223 231 237 240 244 251 256 252 259 253 260 258 257 262 269 266 263 262 263 265 262 262 266 265 263 269 263 265 265 262 269 268 266 268 266 274 267 265 266 272 267 271 270 273 267 265 268 256 258 254 250 242 239 234 225 220 217 220 217 217 215 217 201 217 211 215 215 221 218 196 214 216 212 209 210 213 216 218 210 212 215 213 216 212 221 214 227 217 230 224 212 218 235 211 211 249
173 174 171 178 179 182 176 179 178 180 181 183 180 182 185 176 180 187 180 181 192 185 192 218 213 221 223 221 230 233 239 243 236 242 242 239 238 246 242 247 245 247 248 252 249 257 247 245 241 250 246 252 247 250 244 251 250 248 254 252 251 248 249 246 247 254 249 247 247 247 245 245 237 238 235 226 226 217 214 196 199 196 188 190 190 192 189 193 194 188 187 209 194 181 189 191 184 184 185 192 184 206 192 187 192 190 187 203 201 210 218 208 214 208 212 198 216 172 227 215
167 172 178 174 176 179 173 171 171 175 175 178 171 173 179 180 176 180 184 184 187 186 180 194 206 207 210 215 212 223 227 224 222 225 229 229 230 233 230 229 229 231 237 230 237 235 228 230 236 234 234 233 235 231 230 231 235 237 235 237 237 239 236 233 237 237 232 230 228 231 233 228 225 226 217 213 196 194 187 197 198 186 193 191 193 183 187 194 192 188 183 182 189 190 191 186 185 189 187 181 187 177 188 177 186 178 179 182 185 176 184 199 193 188 193 177 199 200 177 195
162 165 168 170 167 166 166 168 166 170 168 166 166 167 175 167 172 175 176 179 179 185 178 181 188 184 187 183 192 208 210 214 213 211 214 216 213 215 213 213 214 220 219 216 220 223 220 220 220 221 223 221 218 220 220 216 219 221 220 221 218 222 219 217 217 215 217 214 224 220 221 218 221 212 194 192 186 198 189 189 186 186 188 184 188 183 185 185 185 184 185 181 181 180 181 186 175 178 181 187 184 187 184 183 177 176 174 184 182 177 171 182 171 174 179 173 171 179 193 208
151 153 155 157 160 162 157 159 159 164 157 159 158 163 161 164 164 166 167 177 167 176 179 181 184 186 186 183 193 190 183 186 182 187 186 191 187 186 197 192 192 196 190 192 196 200 194 192 190 195 195 191 196 195 196 192 201 196 196 193 204 197 201 195 194 192 195 194 196 192 197 193 195 193 197 195 195 186 189 179 180 174 177 175 177 171 179 177 178 173 178 179 172 170 173 171 169 171 168 172 175 172 171 173 174 173 168 167 169 169 172 176 176 178 177 170 169 172 173 186
149 150 154 149 156 154 152 156 159 158 157 157 155 158 157 156 160 162 158 164 165 166 172 173 177 177 178 180 183 184 191 188 191 190 191 185 190 193 191 189 197 195 189 197 192 197 194 198 197 190 195 198 193 196 200 194 195 196 195 197 194 194 199 198 195 195 196 198 189 195 193 196 192 192 189 183 186 185 176 170 173 171 169 166 164 166 168 161 172 172 169 166 170 166 171 165 170 167 162 167 167 169 173 167 163 160 158 165 162 163 161 169 168 172 169 165 163 162 170 155
145 144 145 148 148 150 148 151 148 152 151 155 150 149 150 149 155 152 157 155 164 161 168 174 170 170 174 174 176 178 174 179 181 181 178 181 181 181 181 188 185 185 186 183 181 185 186 186 189 187 187 188 188 187 187 184 187 191 0 190 190 186 183 186 191 187 189 185 189 186 184 185 184 182 174 176 173 171 170 164 160 159 163 162 160 161 162 159 163 163 158 162 161 161 161 162 158 156 162 163 165 163 161 160 156 160 160 157 158 160 158 159 161 162 158 173 160 172 158 166
132 139 139 140 142 147 150 146 144 144 143 146 141 147 146 149 142 145 147 152 157 156 161 163 165 167 169 170 168 173 173 174 173 174 175 171 173 173 175 175 174 180 178 178 175 178 176 178 177 178 178 178 182 183 180 183 183 0 0 178 180 177 181 181 178 178 178 182 180 173 175 176 174 176 171 171 168 165 163 158 163 155 157 156 156 153 159 153 159 156 151 153 163 154 153 148 154 152 155 156 155 154 151 158 152 148 147 150 163 152 155 147 150 149 147 153 148 156 163 163
138 134 132 140 144 144 151 141 142 138 139 140 143 141 142 139 141 148 147 147 150 155 155 156 160 159 159 162 166 164 164 163 169 168 164 164 162 168 166 169 172 0 172 0 170 174 169 173 171 170 175 171 173 174 174 0 174 173 0 175 175 0 176 175 172 173 175 168 172 171 169 166 170 169 164 164 168 154 160 151 149 153 151 151 153 152 150 149 149 157 145 153 148 145 150 147 151 148 154 153 148 148 144 149 146 150 142 143 147 148 149 144 143 157 150 151 142 151 157 171
131 123 115 115 136 134 143 137 132 119 132 131 134 133 137 132 135 134 135 142 140 147 148 154 149 158 159 155 155 162 158 158 156 160 157 160 164 161 0 0 0 0 0 0 0 0 0 164 164 166 167 164 169 167 0 0 168 168 167 0 0 0 0 0 166 0 165 0 163 163 165 160 162 161 156 157 152 157 147 149 151 146 148 148 141 150 144 143 144 146 146 145 142 144 144 138 143 145 143 139 137 139 142 139 135 136 137 138 138 140 140 153 146 153 142 136 142 141 138 135
117 121 127 116 127 132 133 130 136 129 131 131 126 126 132 127 130 137 137 135 145 139 146 142 146 149 154 153 153 153 155 154 157 157 155 155 155 0 0 0 0 0 0 0 0 0 0 0 0 162 162 160 0 0 0 0 0 0 0 0 0 0 0 0 0 0 0 0 0 0 0 157 160 157 156 149 148 150 147 145 141 144 144 142 144 140 147 139 145 138 137 142 138 139 138 137 140 141 137 138 137 134 139 135 129 136 138 135 136 142 136 145 145 141 137 135 139 134 133 144
110 110 117 124 126 124 132 129 128 127 134 123 122 119 122 128 132 134 131 134 127 127 134 141 142 145 145 147 144 151 151 148 151 150 149 150 0 0 0 0 0 0 0 0 0 0 0 0 153 153 157 0 0 0 0 0 0 0 0 0 0 0 0 0 0 0 0 0 0 0 0 0 151 152 149 145 147 144 140 144 130 139 138 141 127 125 136 138 138 133 137 137 130 136 119 130 139 139 135 137 136 126 134 131 126 135 131 131 133 137 138 138 140 147 136 141 134 128 114 138
103 108 115 110 109 110 122 119 115 119 115 114 116 116 126 123 122 129 117 117 132 126 129 123 133 138 138 139 142 146 143 142 142 143 145 142 0 0 0 0 0 0 0 0 0 0 0 0 0 0 0 0 0 0 0 0 0 0 0 0 0 0 0 0 0 0 0 0 0 0 0 0 139 139 142 141 139 132 127 130 127 126 121 123 126 121 123 122 121 128 126 120 114 128 125 125 127 134 119 118 118 129 130 117 121 122 118 124 129 131 117 128 124 121 128 130 117 110 131 127
108 107 114 113 114 112 115 116 120 117 113 119 117 114 119 121 118 127 125 115 118 117 121 115 127 136 140 132 0 135 137 0 0 136 143 0 0 0 0 0 0 0 0 0 0 0 0 0 0 0 0 0 0 0 0 0 0 0 0 0 0 0 0 0 0 0 0 0 0 0 0 0 0 142 126 126 124 127 117 127 119 119 122 127 113 124 114 118 118 117 118 126 118 115 112 121 117 116 121 120 120 124 118 126 131 114 118 120 110 125 118 113 123 120 128 117 120 117 132 137
104 98 108 110 106 98 108 106 102 103 111 107 105 111 107 110 109 113 119 110 113 117 111 120 120 119 124 120 120 126 0 0 0 0 127 0 0 0 0 0 0 0 0 0 0 0 0 0 0 0 0 0 0 0 0 0 0 0 0 0 0 0 0 0 0 0 0 0 0 0 0 0 131 0 0 125 122 116 122 117 117 118 109 117 110 118 110 114 110 113 113 116 106 112 111 106 112 114 113 112 115 113 110 111 112 118 108 109 107 110 110 118 103 118 123 103 122 120 119 150
97 99 92 93 101 102 103 96 103 103 101 105 101 106 108 100 106 105 116 107 109 114 109 108 117 109 114 117 119 122 0 123 0 0 0 0 0 0 0 0 0 0 0 0 0 0 0 0 0 0 0 0 0 0 0 0 0 0 0 0 0 0 0 0 0 0 0 0 0 0 0 0 0 122 0 115 119 117 115 112 114 111 104 106 112 113 108 116 104 110 112 112 111 112 105 116 105 110 103 118 115 107 111 103 106 111 113 111 114 102 105 106 112 98 101 136 111 104 122 139
98 103 100 105 99 100 101 87 96 101 96 99 100 95 96 94 105 103 111 115 113 107 98 111 113 107 114 116 112 121 119 121 124 0 0 0 0 0 0 0 0 0 0 0 0 0 0 0 0 0 0 0 0 0 0 0 0 0 0 0 0 0 0 0 0 0 0 0 0 0 0 0 122 121 109 121 114 112 120 118 105 112 103 122 106 110 103 101 102 103 105 108 111 94 101 100 107 101 113 104 105 110 104 108 108 106 109 91 106 105 95 103 98 98 121 95 137 134 110 120
87 81 82 87 80 85 81 92 91 85 91 90 99 97 94 89 79 93 90 88 94 87 101 107 98 103 114 109 0 113 104 108 118 0 0 0 0 0 0 111 0 0 0 0 0 0 0 0 0 0 0 0 0 0 0 0 0 0 0 0 0 0 0 0 0 0 0 0 0 0 0 115 109 111 106 112 105 106 103 99 99 104 97 90 98 97 87 103 105 99 91 95 102 84 87 97 94 101 86 95 92 99 94 93 83 92 95 95 93 90 86 91 82 89 93 96 103 88 93 103
94 88 91 93 96 93 94 108 90 92 92 93 94 92 95 96 98 90 101 96 94 104 103 103 101 101 113 110 0 106 110 110 118 112 118 109 113 0 111 0 0 119 0 0 0 0 0 0 0 0 0 0 0 0 0 0 0 0 0 0 114 0 0 116 112 0 0 0 110 0 109 112 115 113 111 107 107 112 103 96 112 105 105 85 96 98 104 106 101 103 107 108 109 97 98 102 99 96 102 111 102 98 94 103 91 103 104 93 90 82 84 98 90 93 106 92 97 104 146 117
86 93 90 92 96 96 92 91 84 99 87 90 87 92 88 84 94 99 99 96 98 94 99 111 94 101 104 103 103 106 95 0 106 102 102 102 0 114 115 0 108 0 0 0 0 0 0 0 0 0 0 0 0 0 0 0 0 110 0 0 109 107 106 110 113 112 105 100 112 107 111 101 105 101 115 111 100 93 106 96 96 95 97 85 95 92 94 106 107 95 98 102 107 88 84 85 91 93 95 88 94 81 93 98 90 87 101 89 94 86 90 93 90 92 99 98 126 105 137 130
86 88 83 87 88 94 102 89 89 81 89 89 84 93 93 88 89 87 92 86 82 94 96 85 83 92 91 91 107 88 97 100 96 98 97 112 102 101 103 100 105 98 102 107 104 91 0 0 93 101 0 106 104 93 98 108 107 101 107 100 98 109 112 101 101 109 102 96 100 107 100 107 106 102 105 96 94 97 101 90 94 90 92 94 96 93 88 91 96 92 97 86 94 94 93 95 94 92 94 82 83 89 92 89 84 83 96 84 80 93 87 93 93 97 85 95 106 95 134 126
85 80 86 84 84 83 95 101 87 91 85 84 83 84 83 92 89 95 91 96 85 97 93 92 90 93 95 88 95 99 94 86 96 95 99 99 98 98 94 106 101 96 104 107 100 95 106 0 103 104 98 105 98 100 102 101 103 104 98 109 104 94 96 102 102 98 100 104 94 106 100 103 99 93 109 88 93 97 92 86 99 98 84 93 101 99 89 87 93 89 83 97 87 92 92 94 95 91 100 84 83 100 84 88 92 97 91 95 98 84 81 94 105 100 107 125 90 96 108 84
84 73 71 70 80 83 86 89 73 81 87 81 87 81 90 84 88 88 86 85 92 89 93 88 88 87 94 94 86 94 95 93 80 94 92 94 96 86 91 96 93 89 85 90 97 95 91 101 96 90 93 85 85 92 89 84 103 85 101 97 97 83 82 97 98 83 99 93 96 98 98 87 97 93 85 95 94 95 98 95 87 91 82 89 84 92 91 87 87 88 78 83 91 84 87 89 82 79 80 90 81 83 82 73 85 79 89 83 78 90 70 91 94 90 117 127 135 112 101 82
73 73 80 87 71 85 81 89 79 80 81 88 82 80 84 90 88 88 83 87 82 91 83 84 86 85 93 84 94 88 95 95 92 98 88 91 85 93 88 93 95 83 91 88 88 99 90 86 98 88 91 96 96 85 101 98 90 87 89 93 98 86 93 97 90 97 89 95 103 94 93 94 88 86 93 84 93 96 94 93 91 87 91 88 78 84 87 80 94 90 74 90 78 83 93 84 91 87 80 77 88 81 78 77 81 79 84 84 89 90 82 98 80 111 91 104 110 106 87 167
