0 0 0 0 0 0 0 0 0 0 0 0 0 0 0 0 0 0 0 0 0 0 0 0 0 0 0 0 0 0 0 0 0 0 0 0 0 0 0 0 0 0 0 0 0 0 0 0 0 0 0 0 0 0 0 0 0 0 0 0 0 0 0 0 0 0 0 0 0 0 0 0 0 0 0 0 0 0 0 0 0 0 0 0 0 0 0 0 0 0 0 0 0 0 0 0 0 0 0 0 0 0 0 0 0 0 0 0 0 0 0 0 0 0 0 0 0 0 0 0
0 0 0 0 0 0 0 0 0 0 0 0 0 0 0 0 0 0 0 0 0 0 0 0 0 0 0 0 0 0 0 0 0 0 0 0 0 0 0 0 0 0 0 0 0 0 0 0 0 0 0 0 0 0 0 0 0 0 0 0 0 0 0 0 0 0 0 0 0 0 0 0 0 0 0 0 0 0 0 0 0 0 0 0 0 0 0 0 0 0 0 0 0 0 0 0 0 0 0 0 0 0 0 0 0 0 0 0 0 0 0 0 0 0 0 0 0 0 0 0
0 0 0 0 0 0 0 0 0 0 0 0 0 0 0 0 0 0 0 0 0 0 0 0 0 0 0 0 0 0 0 0 0 0 0 0 0 0 0 0 0 0 0 0 0 0 0 0 0 0 0 0 0 0 0 0 0 0 0 0 0 0 0 0 0 0 0 0 0 0 0 0 0 0 0 0 0 0 0 0 0 0 0 0 0 0 0 0 0 0 0 0 0 0 0 0 0 0 0 0 0 0 0 0 0 0 0 0 0 0 0 0 0 0 0 0 0 0 0 0
0 0 0 0 0 0 0 0 0 0 0 0 0 0 0 0 0 0 0 0 0 0 0 0 0 0 0 0 0 0 0 0 0 0 0 0 0 0 0 0 0 0 0 0 0 0 0 0 0 0 0 0 0 0 0 0 0 0 0 0 0 0 0 0 0 0 0 0 0 0 0 0 0 0 0 0 0 0 0 0 0 0 0 0 0 0 0 0 0 0 0 0 0 0 0 0 0 0 0 0 0 0 0 0 0 0 0 0 0 0 0 0 0 0 0 0 0 0 0 0
0 0 0 0 0 0 0 0 0 0 0 0 0 0 0 0 0 0 0 0 0 0 0 0 0 0 0 0 0 0 0 0 0 0 0 0 0 0 0 0 0 0 0 0 0 0 0 0 0 0 0 0 0 0 0 0 0 0 0 0 0 0 0 0 0 0 0 0 0 0 0 0 0 0 0 0 0 0 0 0 0 0 0 0 0 0 0 0 0 0 0 0 0 0 0 0 0 0 0 0 0 0 0 0 0 0 0 0 0 0 0 0 0 0 0 0 0 0 0 0
0 0 0 0 0 0 0 0 0 0 0 0 0 0 0 0 0 0 0 0 0 0 0 0 0 0 0 0 0 0 0 0 0 0 0 0 0 0 0 449 486 517 494 489 506 517 510 532 499 490 483 496 500 493 509 576 0 0 0 0 0 0 0 0 0 0 0 0 0 0 0 0 0 0 0 0 0 0 0 0 0 0 0 0 0 0 0 0 0 0 0 0 0 0 0 0 0 0 0 0 0 0 0 0 0 0 0 0 0 0 0 0 0 0 0 0 0 0 0 0
0 0 0 0 0 0 0 0 0 0 0 0 0 0 0 0 0 0 0 0 0 0 0 0 0 0 0 0 0 0 0 0 0 0 0 0 0 539 492 520 508 507 508 517 514 526 528 527 530 524 512 517 524 525 531 516 518 512 542 545 0 0 0 0 0 0 0 0 0 0 0 0 0 0 0 0 0 0 0 0 0 0 0 0 0 0 0 0 0 0 0 0 0 0 0 0 0 0 0 0 0 0 0 0 0 0 0 0 0 0 0 0 0 0 0 0 0 0 0 0
0 0 0 0 0 0 0 0 0 0 0 0 0 0 0 0 0 0 0 0 0 0 0 0 0 0 0 0 0 0 0 0 0 0 0 486 492 504 499 494 506 493 506 504 492 503 507 513 501 503 505 497 503 507 521 499 509 504 492 499 508 501 493 498 528 0 0 0 0 0 0 0 0 0 0 0 0 0 0 0 0 0 0 0 0 0 0 0 0 0 0 0 0 0 0 0 0 0 0 0 0 0 0 0 0 0 0 0 0 0 0 0 0 0 0 0 0 0 0 0
0 0 0 0 0 0 0 0 0 0 0 0 0 0 0 0 0 0 0 0 0 0 0 0 0 0 0 0 0 0 0 0 0 520 497 512 525 512 511 507 513 513 494 514 508 505 507 509 508 510 516 503 516 504 505 521 517 511 516 527 518 509 504 522 508 497 498 547 555 615 618 612 573 0 620 620 647 619 658 598 0 0 0 0 0 0 0 0 0 0 0 0 0 0 0 0 0 0 0 0 0 0 0 0 0 0 0 0 0 0 0 0 0 0 0 0 0 0 0 0
0 0 0 0 0 0 0 0 0 0 0 0 0 0 0 0 0 0 0 0 0 0 0 0 0 0 0 0 0 0 0 514 504 507 492 505 492 506 502 498 502 500 492 507 502 502 515 509 506 502 509 503 513 501 505 496 499 511 506 507 519 501 512 512 504 511 507 530 522 555 586 594 604 595 606 605 625 555 608 566 603 584 591 583 0 595 0 575 560 613 612 592 566 581 583 612 578 571 632 631 642 608 589 628 0 0 0 0 0 0 0 0 0 0 0 0 0 0 0 0
0 0 0 0 0 0 0 0 0 0 0 0 0 0 0 0 0 0 0 0 0 0 0 0 0 0 0 0 0 0 475 510 502 502 493 499 492 509 492 507 506 499 501 494 509 509 502 501 496 502 502 507 500 506 501 508 505 510 499 509 500 501 508 514 499 506 509 508 519 513 552 544 550 521 605 564 583 587 586 571 573 578 538 555 539 519 524 518 568 551 533 543 528 590 572 593 579 549 533 611 555 549 541 543 536 494 525 557 526 0 0 0 0 0 0 0 0 0 0 0
0 0 0 0 0 0 0 0 0 0 0 0 0 0 0 0 0 0 0 0 0 0 0 0 0 0 0 0 484 511 504 499 498 507 507 496 507 491 510 503 500 503 512 504 514 503 510 508 498 512 503 512 514 506 513 501 505 507 507 511 501 511 511 503 524 511 509 499 517 516 528 565 552 576 589 597 587 581 613 595 600 629 576 565 588 625 632 624 590 602 584 555 573 603 573 597 567 601 569 583 586 528 599 571 632 592 634 580 538 0 0 0 0 0 0 0 0 0 0 0
0 0 0 0 0 0 0 0 0 0 0 0 0 0 0 0 0 0 0 0 0 0 0 0 0 0 0 481 485 505 508 490 500 498 497 507 493 498 502 502 504 503 501 504 501 506 499 502 503 508 503 500 504 500 510 511 510 507 503 500 504 506 506 511 505 500 508 507 500 511 508 510 528 528 547 540 544 544 537 512 534 506 528 532 580 572 548 531 510 574 543 531 547 559 551 536 548 527 540 555 552 558 535 570 519 507 551 512 0 0 0 0 0 0 0 0 0 0 0 0
0 0 0 0 0 0 0 0 0 0 0 0 0 0 0 0 0 0 0 0 0 0 0 0 0 0 500 487 484 492 493 493 498 499 490 496 497 502 500 502 489 502 511 512 500 502 507 494 505 504 511 505 507 498 503 501 505 504 509 506 505 513 511 506 514 513 508 508 507 510 510 503 545 519 546 551 533 530 521 549 557 531 564 524 510 520 519 508 531 520 546 561 533 519 568 568 545 598 551 573 574 497 533 556 583 507 542 508 546 510 0 0 0 0 0 0 0 0 0 0
0 0 0 0 0 0 0 0 0 0 0 0 0 0 0 0 0 0 0 0 0 0 0 0 0 507 507 499 505 498 494 499 504 499 486 502 500 510 505 507 504 502 498 507 513 498 504 511 496 507 510 508 508 503 496 513 501 507 510 502 516 508 509 521 513 501 513 508 513 509 514 503 500 570 576 572 586 551 550 563 584 555 535 578 577 522 569 575 581 582 556 551 617 559 545 584 564 599 580 587 556 554 642 606 580 577 579 571 610 562 562 0 0 0 0 0 0 0 0 0
0 0 0 0 0 0 0 0 0 0 0 0 0 0 0 0 0 0 0 0 0 0 0 0 0 487 489 485 490 494 485 492 493 491 488 496 492 485 497 500 499 492 503 497 494 499 509 502 497 511 499 506 511 502 500 504 515 506 506 505 502 497 503 518 500 503 508 510 509 502 508 505 502 518 543 534 505 537 550 517 523 512 510 531 510 498 533 550 511 528 536 517 535 527 574 552 544 544 512 539 536 544 500 519 541 532 515 555 538 540 0 0 566 545 0 0 0 0 0 0
0 0 0 0 0 0 0 0 0 0 0 0 0 0 0 0 0 0 0 0 0 0 0 0 471 499 495 505 493 496 508 485 491 493 503 503 510 494 499 497 507 505 489 507 500 506 502 507 496 504 504 508 505 512 507 510 507 500 502 510 502 504 509 510 506 511 502 510 510 511 514 510 513 509 532 547 541 548 529 552 562 567 507 550 520 568 559 542 548 563 562 564 583 569 518 582 559 556 527 594 524 546 556 550 550 588 563 559 593 559 580 0 0 0 0 0 0 0 0 0
0 0 0 0 0 0 0 0 0 0 0 0 0 0 0 0 0 0 0 0 0 0 0 0 500 490 485 498 497 496 490 485 495 486 493 489 497 490 486 499 501 491 499 491 498 506 512 499 502 509 498 501 501 503 505 505 503 505 505 507 502 500 512 512 502 506 511 503 504 505 503 511 505 512 505 533 551 525 552 550 545 540 540 511 547 557 519 554 523 549 545 533 575 553 554 536 536 527 550 547 534 567 540 528 544 513 572 524 529 525 521 0 0 0 0 0 0 0 0 0
0 0 0 0 0 0 0 0 0 0 0 0 0 0 0 0 0 0 0 0 0 0 0 467 483 496 485 491 483 488 491 497 494 492 503 490 493 488 495 490 489 484 497 498 500 495 500 499 496 501 493 492 499 505 510 505 497 496 498 500 509 498 499 505 506 501 510 507 513 503 505 508 509 496 500 508 507 537 530 526 513 520 507 511 508 549 506 537 523 512 556 509 532 514 503 490 516 505 510 498 496 475 505 541 499 503 502 488 508 472 513 0 0 0 0 0 0 0 0 0
0 0 0 0 0 0 0 0 0 0 0 0 0 0 0 0 0 0 0 0 0 0 0 491 486 486 491 493 501 496 494 495 491 492 494 491 487 496 488 496 485 491 503 511 502 506 495 502 497 501 500 500 498 498 497 501 508 507 511 501 504 512 508 502 510 502 506 504 501 515 505 510 503 508 510 512 541 540 559 534 547 548 520 557 558 585 565 541 567 570 546 555 549 559 540 539 554 540 557 565 558 575 547 572 548 590 538 571 530 541 566 0 0 0 0 0 0 0 0 0
0 0 0 0 0 0 0 0 0 0 0 0 0 0 0 0 0 0 0 0 0 0 423 482 485 495 486 494 477 477 488 493 504 490 487 490 486 491 495 492 498 503 493 502 501 487 500 498 500 499 495 503 492 495 512 491 499 501 503 504 499 501 501 497 497 507 506 509 496 502 503 503 503 503 499 499 504 512 539 480 527 521 525 511 507 543 512 482 495 500 530 525 518 528 526 534 556 502 526 515 548 509 521 517 536 506 519 513 515 483 477 0 476 0 0 0 0 0 0 0
0 0 0 0 0 0 0 0 0 0 0 0 0 0 0 0 0 0 0 0 0 0 468 484 486 492 491 492 492 488 486 484 495 486 497 496 489 489 489 496 490 493 501 497 497 505 508 495 499 494 495 503 491 503 503 504 501 499 502 503 510 503 499 509 508 507 506 516 507 502 509 511 513 501 509 508 511 513 516 539 529 533 518 530 526 528 516 529 525 553 524 533 519 531 521 531 516 517 550 516 527 503 551 531 522 531 538 509 560 559 562 537 0 0 0 0 0 0 0 0
0 0 0 0 0 0 0 0 0 0 0 0 0 0 0 0 0 0 0 0 0 0 501 488 494 482 490 480 499 489 491 488 493 490 484 488 494 495 491 497 497 496 505 498 505 504 497 501 493 499 491 504 496 491 502 497 508 503 501 498 507 507 505 508 512 512 504 500 506 503 502 508 513 505 519 510 516 538 531 528 528 507 548 550 557 541 560 548 573 558 539 529 532 532 517 534 543 546 534 513 541 526 547 524 559 542 530 556 527 546 569 558 597 0 0 0 0 0 0 0
0 0 0 0 0 0 0 0 0 0 0 0 0 0 0 0 0 0 0 0 0 0 490 487 493 488 487 486 492 484 491 486 488 481 493 489 483 488 489 486 489 493 495 492 498 495 491 497 491 497 494 497 502 501 496 500 498 502 500 500 501 511 498 497 496 502 502 496 503 502 502 505 502 502 503 511 506 516 490 487 485 536 527 489 505 525 483 508 508 478 496 509 479 472 474 514 534 489 520 506 513 503 517 521 511 512 504 534 517 491 484 488 478 0 0 0 0 0 0 0
0 0 0 0 0 0 0 0 0 0 0 0 0 0 0 0 0 0 0 0 0 0 483 500 485 491 495 491 500 497 492 489 494 498 493 486 486 490 489 504 493 498 510 505 498 503 495 494 504 507 499 501 496 506 502 504 507 507 503 492 508 500 503 499 499 509 509 504 510 506 505 505 509 508 508 506 509 534 512 538 527 552 517 508 523 515 569 538 560 520 540 536 543 517 554 534 541 529 556 511 556 554 563 521 580 573 559 514 543 578 603 518 588 0 0 0 0 0 0 0
0 0 0 0 0 0 0 0 0 0 0 0 0 0 0 0 0 0 0 0 0 0 487 484 487 483 480 481 485 481 495 487 489 491 495 489 490 487 496 490 497 493 491 499 492 491 497 500 494 501 495 497 499 499 497 500 508 501 500 500 505 500 502 507 508 499 497 506 496 502 495 510 500 508 497 507 503 504 551 500 514 532 517 498 526 508 511 512 533 527 479 531 503 526 554 531 521 500 518 525 508 530 531 501 501 514 590 521 0 541 541 0 533 0 0 0 0 0 0 0
0 0 0 0 0 0 0 0 0 0 0 0 0 0 0 0 0 0 0 0 0 475 476 497 481 482 498 490 495 487 481 487 485 490 485 482 498 492 492 496 486 501 491 490 489 494 495 498 495 495 496 501 496 501 499 498 497 501 503 493 504 508 498 497 501 501 504 509 503 502 503 500 504 505 506 503 501 507 509 497 524 499 518 498 511 528 501 514 525 507 492 505 502 506 485 492 489 512 524 493 547 522 487 517 502 520 516 504 453 470 525 541 510 0 0 0 0 0 0 0
0 0 0 0 0 0 0 0 0 0 0 0 0 0 0 0 0 0 0 0 0 480 486 481 493 486 485 485 481 483 484 488 496 481 497 488 490 488 490 489 497 499 501 494 501 494 492 494 498 496 501 498 495 498 499 505 502 500 499 506 506 498 500 500 503 502 504 501 505 504 510 501 498 502 504 510 504 513 546 524 553 528 514 505 570 503 525 526 545 548 509 506 522 542 522 537 518 532 532 505 531 505 533 537 543 575 547 562 557 538 563 551 568 0 0 0 0 0 0 0
0 0 0 0 0 0 0 0 0 0 0 0 0 0 0 0 0 0 0 0 0 430 481 481 477 480 475 487 476 480 483 481 483 483 485 484 484 485 487 486 480 491 492 489 489 494 494 490 491 495 489 495 495 493 496 503 495 490 494 494 503 499 502 505 499 501 510 501 502 499 500 497 495 508 504 504 502 494 504 482 491 502 510 498 508 497 483 504 480 502 489 503 489 471 499 496 469 531 499 506 482 495 482 486 494 477 503 460 493 524 468 490 519 420 0 0 0 0 0 0
0 0 0 0 0 0 0 0 0 0 0 0 0 0 0 0 0 0 0 0 0 452 493 481 479 477 481 480 482 484 484 488 484 488 482 486 486 486 487 492 489 490 487 493 496 493 496 500 496 498 498 498 494 499 500 499 494 501 502 503 498 502 496 499 501 504 497 502 495 507 499 496 504 503 501 501 502 504 493 498 518 490 517 493 483 512 498 518 497 511 536 505 493 524 516 483 532 514 519 489 510 502 525 524 533 508 540 480 498 500 500 508 547 459 0 0 0 0 0 0
0 0 0 0 0 0 0 0 0 0 0 0 0 0 0 0 0 0 0 0 0 477 477 482 485 478 484 480 491 483 488 482 483 490 489 488 490 489 493 493 491 490 490 494 493 492 497 496 498 497 497 498 497 502 502 497 496 501 502 503 500 504 499 499 496 503 501 496 505 503 503 506 501 504 499 498 501 510 524 501 508 505 496 537 514 544 499 520 534 512 522 523 501 510 521 530 514 520 541 519 528 489 541 537 530 548 519 523 504 557 546 537 548 0 0 0 0 0 0 0
0 0 0 0 0 0 0 0 0 0 0 0 0 0 0 0 0 0 0 0 0 454 476 475 479 478 475 478 482 480 480 481 486 487 485 485 483 485 488 491 489 495 493 489 499 491 497 495 496 496 489 490 495 496 497 495 495 496 501 497 498 495 501 500 496 506 502 497 496 498 493 504 498 505 499 495 499 496 497 487 488 509 501 506 499 512 505 485 499 499 508 514 521 484 488 505 486 515 503 496 495 504 481 491 474 495 519 490 541 479 495 458 439 495 0 0 0 0 0 0
0 0 0 0 0 0 0 0 0 0 0 0 0 0 0 0 0 0 0 0 0 462 476 487 474 478 482 481 482 481 484 482 483 479 484 489 489 488 489 488 492 486 487 489 493 489 497 496 491 500 498 499 489 501 496 499 492 498 499 500 498 497 503 507 507 498 499 503 499 508 506 498 509 504 500 503 496 508 516 500 520 493 511 515 529 523 520 525 535 507 522 499 521 528 515 522 511 544 515 524 521 535 547 529 516 503 540 512 543 511 532 541 487 473 0 0 0 0 0 0
0 0 0 0 0 0 0 0 0 0 0 0 0 0 0 0 0 0 0 0 0 446 470 469 475 472 478 478 478 473 477 484 481 483 481 488 482 485 494 486 487 483 487 492 494 492 485 491 491 494 489 493 498 495 497 495 496 496 491 497 498 500 498 502 499 500 494 497 496 497 497 497 492 498 502 496 501 502 494 501 493 497 495 508 516 511 504 493 496 499 507 515 510 482 497 505 510 483 494 506 516 516 479 495 525 522 502 525 483 494 491 501 521 0 0 0 0 0 0 0
0 0 0 0 0 0 0 0 0 0 0 0 0 0 0 0 0 0 0 0 0 436 477 474 471 477 474 476 480 482 479 482 477 481 480 481 482 485 483 492 482 485 485 491 491 488 489 495 492 494 488 498 495 495 498 495 495 496 496 495 494 497 501 498 500 495 495 497 497 492 497 500 499 505 496 497 498 501 495 494 512 497 516 501 496 500 487 505 465 495 487 489 488 496 491 493 486 500 518 480 474 477 508 517 480 459 476 472 477 498 456 477 468 455 0 0 0 0 0 0
0 0 0 0 0 0 0 0 0 0 0 0 0 0 0 0 0 0 0 0 0 462 475 470 470 487 478 471 478 479 478 481 481 482 482 484 487 484 485 484 490 489 491 492 493 492 491 485 490 494 494 496 495 493 502 496 493 505 499 499 498 499 495 498 495 500 503 500 499 500 498 497 502 497 497 493 498 506 519 532 525 523 526 508 522 508 524 516 486 544 516 571 528 539 547 529 531 523 527 496 505 520 514 535 518 505 544 525 534 519 502 522 505 563 0 0 0 0 0 0
0 0 0 0 0 0 0 0 0 0 0 0 0 0 0 0 0 0 0 0 0 479 469 469 480 472 481 471 480 477 473 481 480 486 486 484 484 485 482 482 484 488 493 489 487 487 488 493 489 493 485 490 490 492 491 493 494 489 499 495 496 497 496 498 499 494 497 496 492 493 497 496 499 500 497 496 492 499 494 483 503 480 494 483 497 499 487 490 486 477 484 495 486 492 492 469 483 495 487 488 499 495 502 475 511 501 475 498 484 511 434 442 447 433 0 0 0 0 0 0
0 0 0 0 0 0 0 0 0 0 0 0 0 0 0 0 0 0 0 0 0 0 477 472 471 476 474 480 479 482 482 487 485 477 479 481 482 485 486 484 486 486 489 493 487 493 487 492 493 493 492 496 492 492 495 496 489 492 490 492 502 501 502 494 502 498 492 495 494 496 496 497 500 497 496 500 493 494 501 496 499 485 499 491 497 506 496 512 503 496 519 503 524 509 511 499 509 522 491 513 495 507 474 523 547 513 505 493 511 464 486 477 450 499 0 0 0 0 0 0
0 0 0 0 0 0 0 0 0 0 0 0 0 0 0 0 0 0 0 0 0 0 505 477 477 476 478 479 480 480 478 484 475 484 481 486 483 487 490 485 484 482 485 489 486 485 488 490 495 489 490 495 495 493 495 501 501 493 494 495 497 493 495 496 500 499 504 499 498 497 498 496 500 500 500 495 498 499 497 504 519 501 504 522 514 529 540 523 520 512 499 518 515 519 526 529 522 521 513 530 498 538 524 517 531 537 538 513 522 549 555 518 525 525 0 0 0 0 0 0
0 0 0 0 0 0 0 0 0 0 0 0 0 0 0 0 0 0 0 0 0 0 495 470 468 475 479 473 475 474 476 479 479 483 482 482 483 484 480 488 486 483 484 489 486 485 487 482 487 489 487 492 492 489 490 494 488 490 490 494 496 493 494 491 500 496 496 495 492 496 493 495 498 489 493 492 490 497 495 502 497 494 513 499 506 501 525 485 505 503 514 510 505 507 504 490 513 484 519 509 479 497 487 462 478 484 495 484 494 505 489 488 503 456 485 465 0 0 0 0
0 0 0 0 0 0 0 0 0 0 0 0 0 0 0 0 0 0 0 0 0 0 616 474 477 475 481 479 474 475 471 482 478 482 481 490 483 486 483 484 486 492 488 487 488 488 490 485 497 490 487 489 496 494 496 497 496 496 497 495 491 495 499 500 492 494 499 496 504 494 492 496 493 497 492 495 499 488 513 515 500 514 533 536 512 518 512 543 526 529 525 527 534 563 540 533 519 541 543 532 539 534 520 521 530 523 509 506 528 527 524 517 551 480 514 0 0 0 0 0
0 0 0 0 0 0 0 0 0 0 0 0 0 0 0 0 0 0 0 0 0 0 0 479 472 475 475 480 475 470 477 483 476 485 477 475 480 481 484 482 485 485 489 489 494 478 490 485 487 487 492 486 497 487 491 492 492 492 489 495 497 495 494 491 496 498 492 503 492 492 499 487 495 492 493 494 496 494 489 510 499 512 486 491 508 515 492 497 486 493 502 508 485 511 498 507 481 504 518 502 490 517 507 487 516 506 522 477 499 485 503 488 0 0 0 0 0 0 0 0
0 0 0 0 0 0 0 0 0 0 0 0 0 0 0 0 0 0 0 0 0 0 0 484 471 472 474 472 472 472 467 480 476 479 483 474 475 480 483 482 481 484 492 486 483 486 486 490 487 489 489 485 487 488 491 491 495 493 492 492 491 494 494 493 486 500 495 495 493 493 494 495 493 493 492 489 489 478 491 504 488 499 480 498 491 497 500 484 496 489 494 503 495 499 497 497 498 498 503 475 502 494 482 499 476 456 478 475 480 476 467 481 444 459 0 0 0 0 0 0
0 0 0 0 0 0 0 0 0 0 0 0 0 0 0 0 0 0 0 0 0 0 0 529 474 472 476 476 473 474 476 479 483 482 476 482 482 479 477 486 484 484 483 488 488 485 493 485 486 484 493 493 489 488 490 491 494 496 492 489 494 493 491 495 491 493 489 496 495 490 497 491 493 503 498 496 490 506 518 504 498 499 500 510 521 528 516 504 511 512 517 516 535 506 497 502 500 506 498 523 502 523 508 486 485 520 514 510 495 545 530 503 479 489 0 0 0 0 0 0
0 0 0 0 0 0 0 0 0 0 0 0 0 0 0 0 0 0 0 0 0 0 0 0 472 467 467 470 470 470 475 472 480 474 478 472 479 483 471 480 476 484 484 486 486 485 489 483 492 486 487 486 491 490 494 484 487 498 486 495 490 492 490 490 494 493 488 493 493 496 491 488 491 492 493 493 492 496 501 498 495 489 498 489 484 505 488 498 482 502 489 493 493 485 511 504 470 489 498 482 472 520 480 473 458 469 458 456 480 475 467 470 476 473 444 493 0 0 0 0
0 0 0 0 0 0 0 0 0 0 0 0 0 0 0 0 0 0 0 0 0 0 0 0 489 467 472 466 478 472 476 476 475 475 473 475 477 476 476 482 483 481 485 486 486 484 490 482 484 488 490 488 489 491 492 488 492 492 491 489 489 489 493 491 493 496 496 490 495 493 499 492 493 491 492 490 485 490 492 486 508 497 478 476 514 499 485 485 502 501 490 512 514 496 570 505 505 508 486 506 495 496 499 457 476 471 447 474 471 463 497 501 459 441 435 436 0 0 0 0
0 0 0 0 0 0 0 0 0 0 0 0 0 0 0 0 0 0 0 0 0 0 0 0 0 472 461 472 469 469 472 470 482 474 472 476 480 479 481 482 481 481 484 489 485 479 486 479 484 487 488 488 488 491 488 491 496 492 488 491 491 490 491 496 492 491 487 499 496 497 492 489 494 489 495 492 498 486 489 490 479 496 498 494 510 510 504 493 499 510 509 507 503 505 533 499 517 517 489 505 510 511 523 502 518 523 476 497 469 500 535 517 537 540 0 0 0 0 0 0
0 0 0 0 0 0 0 0 0 0 0 0 0 0 0 0 0 0 0 0 0 0 0 0 0 490 458 468 468 475 475 469 475 472 477 476 475 474 479 475 481 476 477 482 482 483 483 481 483 487 482 483 487 492 490 487 490 489 487 489 487 488 490 489 487 488 494 492 485 492 491 491 491 493 484 483 483 479 482 463 482 492 474 486 479 498 498 488 490 482 485 503 491 492 514 505 504 471 498 490 509 480 511 509 439 481 473 485 454 494 482 450 491 460 0 0 0 0 0 0
0 0 0 0 0 0 0 0 0 0 0 0 0 0 0 0 0 0 0 0 0 0 0 0 0 0 488 470 466 468 466 475 476 476 475 473 476 475 475 479 474 476 481 481 488 484 481 481 484 486 486 491 484 490 490 492 491 490 491 485 486 489 490 492 493 493 490 490 492 494 492 491 492 480 486 489 497 491 482 496 493 493 500 494 484 489 488 474 496 480 496 494 503 496 485 506 500 477 515 509 499 504 498 475 469 478 474 496 501 459 464 477 499 457 532 0 0 0 0 0
0 0 0 0 0 0 0 0 0 0 0 0 0 0 0 0 0 0 0 0 0 0 0 0 0 0 0 472 466 464 468 479 472 473 466 470 471 478 477 482 474 480 480 481 479 484 485 476 485 483 481 483 483 484 486 484 484 488 483 491 484 484 485 486 487 487 492 488 491 490 488 488 485 477 475 492 488 494 494 488 483 490 493 485 492 495 496 492 468 480 484 498 500 488 478 481 490 502 492 481 488 499 468 464 501 443 454 483 446 471 487 463 420 490 516 0 0 0 0 0
0 0 0 0 0 0 0 0 0 0 0 0 0 0 0 0 0 0 0 0 0 0 0 0 0 0 0 491 473 470 464 464 466 474 468 470 471 472 475 481 475 477 475 481 482 480 480 482 478 483 485 479 482 485 483 487 484 483 485 486 486 485 489 488 487 486 490 486 490 489 488 485 476 467 476 480 473 492 476 488 483 478 490 475 491 495 478 463 504 474 473 472 489 479 469 485 476 474 479 493 484 461 511 466 456 429 429 448 435 447 473 452 445 453 437 0 0 0 0 0
0 0 0 0 0 0 0 0 0 0 0 0 0 0 0 0 0 0 0 0 0 0 0 0 0 0 0 0 517 469 464 471 467 467 474 472 473 468 478 477 479 476 482 483 479 483 479 479 484 482 483 483 484 479 486 486 487 481 484 488 486 484 487 490 488 486 489 489 491 493 482 492 481 480 492 493 488 484 500 506 499 490 495 504 507 493 521 485 510 504 480 479 497 507 486 508 474 495 509 501 515 517 498 486 458 514 471 516 491 429 458 458 508 482 512 0 0 0 0 0
0 0 0 0 0 232 234 245 297 0 0 0 0 0 0 0 0 0 0 0 0 2362 0 0 0 0 0 0 0 497 460 468 464 472 468 467 474 468 470 472 475 473 477 472 478 477 479 479 479 477 478 482 478 478 486 485 485 485 486 481 483 485 483 487 484 487 481 478 486 486 473 481 469 492 478 471 495 469 478 472 471 482 480 486 484 483 473 492 485 493 490 482 477 468 486 466 488 457 461 496 475 486 477 468 489 462 457 482 470 453 445 436 443 476 485 0 0 0 0 0
0 0 0 0 249 228 228 229 237 292 375 0 0 0 0 0 0 0 0 0 0 2307 0 0 0 0 0 0 0 0 452 455 468 468 470 473 475 472 476 470 472 472 470 478 477 479 482 474 474 480 479 483 480 485 479 486 480 479 480 481 482 486 487 488 484 486 484 490 477 481 478 474 478 487 475 492 477 469 475 473 483 481 488 488 471 488 481 484 472 475 467 479 482 487 473 484 496 478 500 500 484 532 513 476 460 475 481 474 479 470 449 510 491 453 0 0 0 0 0 0
0 0 0 240 225 227 223 229 237 240 333 0 0 0 0 0 0 0 0 0 0 2336 0 0 0 0 0 0 0 0 0 480 464 466 462 466 469 469 468 470 471 471 476 469 477 472 474 478 476 477 478 479 479 478 483 481 488 484 479 481 481 483 481 489 482 481 482 481 485 487 475 486 482 487 493 474 487 497 482 482 495 491 493 490 488 498 503 505 503 489 503 499 495 480 491 468 512 479 517 523 504 493 497 485 469 480 502 476 502 465 487 499 499 494 517 0 0 0 0 0
217 235 237 227 255 265 264 230 238 238 309 0 394 403 410 402 428 392 414 432 449 438 428 427 432 411 434 441 432 459 452 457 465 469 462 465 457 465 465 468 462 467 469 469 476 469 472 469 469 475 476 471 472 476 480 473 475 472 478 479 476 479 479 476 480 477 476 477 472 473 473 467 461 465 477 461 462 464 476 461 471 468 471 468 476 486 468 459 457 472 465 471 479 474 473 476 476 461 463 498 472 463 460 474 465 462 428 481 440 457 457 506 470 470 487 0 0 0 0 0
254 181 234 217 233 254 267 235 229 262 374 419 392 423 405 417 410 420 422 413 415 430 419 430 432 442 443 435 446 449 456 455 457 460 455 453 453 466 464 460 457 468 457 468 469 462 473 470 470 469 468 470 475 471 468 473 471 477 469 473 468 470 475 477 470 473 476 477 471 472 475 468 470 464 463 460 468 466 461 463 468 464 468 460 461 464 471 463 462 472 453 448 456 447 454 441 467 444 456 459 450 474 458 454 473 457 450 463 457 464 473 451 447 438 462 452 498 521 0 0
173 176 205 215 225 228 230 227 227 311 382 347 349 380 376 373 362 374 366 385 386 386 387 385 407 399 412 418 421 441 434 441 440 440 436 446 441 451 445 450 443 448 449 451 449 451 450 457 451 452 455 459 456 457 452 456 460 455 457 459 467 463 453 468 461 459 455 456 453 454 458 448 446 440 438 442 426 435 444 439 429 439 419 434 435 439 420 416 412 421 423 432 425 420 433 417 433 416 435 418 423 421 423 420 422 402 415 400 414 404 404 409 423 402 384 420 375 404 433 0
261 278 236 223 225 226 228 232 245 332 316 336 330 320 315 324 336 336 339 337 348 350 359 373 372 399 390 405 406 409 412 417 426 429 430 428 435 427 426 429 428 432 427 432 430 436 437 435 437 437 442 435 444 438 446 447 444 442 441 441 441 440 437 440 434 440 437 434 437 438 427 427 427 414 418 413 411 397 390 391 393 383 391 373 393 388 389 393 393 388 389 382 396 395 394 403 390 384 393 384 400 388 379 384 376 378 359 382 382 401 390 355 377 397 383 374 348 394 384 394
300 304 300 249 232 237 235 244 317 312 319 313 306 301 317 334 316 302 310 321 339 330 345 342 358 363 381 383 404 397 402 411 409 412 413 409 413 415 414 415 417 417 415 415 417 413 416 420 420 417 419 416 423 423 423 426 423 425 424 425 423 426 411 423 417 420 426 425 422 416 412 421 410 407 397 391 381 377 374 370 362 365 356 361 359 371 369 365 374 369 366 367 368 371 379 372 367 364 364 363 368 364 375 383 371 381 360 356 370 359 369 371 361 375 373 401 387 355 375 390
264 267 280 260 244 241 238 272 263 280 275 280 270 288 275 284 282 290 274 282 285 293 305 314 319 344 353 364 366 373 382 382 391 379 379 377 383 393 392 389 388 387 394 389 390 390 393 387 394 388 395 395 389 399 400 395 395 399 394 395 394 393 392 390 393 382 401 386 391 393 392 392 391 383 378 352 348 339 336 330 340 323 323 325 326 325 335 326 325 316 322 331 329 313 329 327 315 316 316 327 328 316 335 327 335 338 324 329 328 324 312 322 333 332 329 319 293 308 324 337
246 241 245 252 249 250 250 254 262 258 257 259 262 264 257 260 266 256 272 276 271 289 298 298 310 319 326 340 350 352 358 367 361 365 364 361 366 373 369 373 373 375 378 369 369 379 367 363 368 375 370 374 378 373 382 376 379 378 376 376 387 378 373 375 375 379 366 373 377 373 368 364 363 356 343 349 331 320 319 311 313 300 297 300 301 304 304 301 298 296 310 306 313 295 310 301 303 301 301 294 313 296 305 314 317 304 317 314 298 303 308 317 322 321 311 294 302 315 321 326
220 229 226 240 240 236 244 241 238 246 238 242 247 255 241 244 248 249 248 252 253 270 279 280 289 300 318 326 326 327 329 336 339 347 349 341 343 343 347 353 350 348 345 349 348 345 349 352 352 348 345 350 347 352 353 351 353 354 356 350 347 347 353 345 346 356 350 351 353 343 351 342 341 339 330 311 312 299 296 290 286 274 283 278 285 282 277 288 273 278 276 282 280 288 280 272 272 276 286 279 285 280 278 273 280 277 291 272 274 291 286 294 280 282 283 268 313 290 286 276
214 215 230 219 230 221 222 222 227 225 234 227 215 226 226 230 227 227 226 238 239 244 255 262 270 280 292 296 301 299 311 316 319 308 314 321 323 320 329 328 320 316 313 316 324 325 318 328 322 323 319 327 332 324 325 325 327 320 325 324 327 332 324 326 324 328 326 318 323 320 321 321 318 309 304 298 285 273 271 272 260 263 264 267 258 258 261 256 255 257 252 264 259 252 256 258 248 258 261 265 259 260 265 260 255 265 251 252 258 259 264 243 265 253 262 260 249 264 277 287
204 215 203 212 220 213 217 221 216 214 218 218 222 211 217 215 212 221 221 225 229 235 244 252 253 269 273 280 279 285 292 294 295 296 299 305 297 300 303 300 306 296 301 305 305 301 305 298 304 311 309 295 296 306 300 308 306 303 304 303 308 306 304 306 302 307 306 304 306 306 300 302 299 287 284 282 267 261 265 257 254 247 251 247 252 251 249 241 238 245 251 238 250 241 256 249 240 243 239 245 243 247 246 252 252 246 236 242 243 250 248 256 250 255 256 265 278 256 247 281
194 182 203 193 201 205 201 201 184 200 204 184 190 192 204 208 206 206 210 206 214 219 229 231 235 248 250 258 266 267 265 269 273 269 271 275 280 276 280 284 277 280 281 283 280 282 282 277 280 285 280 281 277 286 278 283 283 283 283 289 282 289 286 290 283 285 282 285 283 282 282 273 278 271 264 256 248 243 234 235 226 221 226 235 228 226 225 223 223 225 227 225 230 226 220 213 229 224 221 215 224 227 232 224 221 218 226 227 228 234 232 231 231 236 243 245 240 213 243 208
170 176 173 174 187 180 187 189 185 184 179 175 178 184 181 177 182 181 190 191 212 196 216 225 224 231 238 242 244 249 254 255 261 256 258 258 258 257 262 264 266 260 266 267 266 262 266 267 264 266 267 263 268 265 264 263 264 271 263 269 267 266 266 268 265 267 265 269 263 263 263 257 254 255 249 241 240 234 223 217 222 216 216 218 217 220 198 214 218 203 215 215 215 211 212 217 214 212 213 214 214 212 217 211 208 208 211 211 220 211 212 217 221 215 210 212 229 208 206 215
174 174 172 174 180 178 175 176 179 171 175 183 181 181 181 183 185 181 180 187 183 191 207 214 210 219 219 225 227 229 233 246 241 242 244 244 241 243 243 246 244 247 250 250 253 251 250 246 245 249 245 249 247 248 244 248 249 249 247 250 253 246 255 249 243 252 253 249 248 249 245 242 236 240 233 230 218 220 196 196 197 195 189 197 190 190 193 202 196 193 192 208 209 181 189 193 186 187 188 186 183 193 205 191 192 190 188 184 199 209 201 211 213 203 207 205 215 209 211 197
175 166 174 175 170 175 171 167 172 176 176 173 170 174 175 183 173 183 187 183 184 187 180 187 206 194 216 218 216 220 227 224 224 226 226 227 226 228 229 230 229 228 234 230 230 238 228 228 233 232 233 229 231 230 231 232 237 233 238 237 235 233 236 232 235 236 233 228 227 236 233 227 227 222 220 215 196 193 188 195 189 194 193 191 193 195 190 187 188 192 187 192 184 188 188 190 188 182 185 181 174 180 186 177 179 174 182 181 173 181 176 179 180 183 203 204 203 182 168 207
158 164 167 172 175 166 168 168 169 167 169 164 167 164 170 167 174 173 175 183 176 183 177 190 188 184 190 187 206 192 198 216 192 212 211 217 216 212 212 214 214 223 219 216 221 219 220 217 219 221 219 219 217 219 222 218 222 224 221 224 218 222 221 216 218 217 218 219 219 219 221 218 216 213 199 191 198 192 192 190 185 182 187 182 187 185 181 184 185 187 184 181 180 184 184 182 185 180 181 186 184 187 183 182 179 175 181 179 174 176 181 179 178 195 174 174 169 195 174 183
153 156 164 157 159 163 160 162 164 165 161 157 162 160 164 165 162 164 171 176 171 175 178 181 184 188 183 184 183 190 194 184 184 184 187 187 184 184 185 190 192 190 190 190 195 196 194 191 196 191 192 196 197 198 194 196 196 195 194 194 200 196 200 194 194 196 195 197 194 196 197 196 196 190 191 195 193 185 189 181 175 178 171 176 175 174 174 180 176 179 175 174 172 171 169 175 168 171 168 173 168 175 177 174 171 175 171 170 169 171 172 176 178 170 177 174 169 177 175 171
145 154 148 153 154 155 153 154 155 157 158 162 155 154 155 157 155 162 155 162 167 168 176 174 178 177 177 184 182 185 188 191 188 189 188 186 193 194 191 188 190 196 194 195 192 196 195 196 198 191 193 197 194 195 186 193 199 198 194 199 195 198 199 197 191 195 197 197 199 197 196 194 192 192 190 180 185 185 176 172 172 171 167 163 170 167 168 167 172 169 169 172 172 165 168 167 164 166 165 170 169 165 172 165 163 163 156 159 166 165 166 157 170 166 178 160 164 172 164 161
147 147 148 154 153 151 148 145 151 152 154 148 147 155 152 148 153 151 158 157 164 167 167 169 168 173 174 173 173 180 174 178 181 180 181 181 182 177 183 182 183 184 185 186 181 185 186 182 191 184 183 186 188 185 188 186 188 190 0 190 187 188 182 187 191 187 190 184 185 185 187 183 182 182 176 175 178 173 170 166 163 159 166 160 160 161 164 164 166 165 157 160 162 160 164 164 156 159 165 165 161 165 167 156 157 163 160 161 160 158 163 164 162 163 166 173 165 153 174 185
134 136 138 138 139 146 147 142 142 142 145 145 141 145 140 147 143 145 150 151 156 158 163 163 165 168 169 170 165 169 168 167 176 176 170 173 174 172 172 175 174 179 176 175 174 180 175 177 178 175 177 176 179 181 182 180 182 0 0 179 177 177 179 181 181 177 176 180 176 169 173 175 172 177 170 172 169 167 163 159 162 155 154 154 158 156 156 154 155 153 152 152 157 160 153 150 151 152 149 156 157 153 150 154 149 143 150 149 158 148 150 144 143 148 151 146 144 145 156 143
140 136 131 140 141 141 151 142 140 136 142 139 141 143 146 139 143 148 146 146 150 156 156 155 160 160 161 158 165 163 166 164 167 166 163 164 164 166 168 167 172 0 172 169 172 173 171 175 172 175 174 174 173 173 174 0 174 171 0 174 173 0 178 173 173 170 173 169 172 171 169 168 168 167 166 162 165 159 156 151 149 154 150 151 157 152 150 146 145 153 147 152 152 149 149 146 153 150 154 148 145 146 145 149 150 144 143 144 150 141 147 145 151 156 153 147 144 158 162 166
130 122 128 124 136 135 140 137 132 120 134 133 133 133 136 134 139 136 132 145 138 146 148 155 148 158 158 155 157 161 158 157 152 161 157 157 161 160 0 0 0 0 0 0 0 0 0 167 166 164 167 165 165 165 0 0 170 167 166 164 0 0 0 0 165 166 169 0 162 163 160 160 163 158 154 156 156 155 148 149 150 142 145 147 144 145 141 146 147 144 141 144 143 145 145 139 143 147 144 142 137 138 145 134 135 134 133 137 142 143 140 144 148 154 146 135 133 142 138 150
116 126 125 124 116 131 133 131 134 130 128 130 124 122 125 127 123 136 136 138 140 141 147 146 148 149 152 153 153 153 154 152 156 157 153 151 155 0 0 0 0 0 0 0 0 0 0 0 155 162 161 161 0 0 0 0 0 0 0 0 0 0 0 0 160 0 0 0 0 0 0 157 160 155 156 152 150 150 146 145 140 139 142 139 141 140 141 138 147 142 136 137 139 140 140 137 141 141 137 137 136 136 139 132 131 132 133 136 135 145 134 150 139 142 132 138 138 132 126 142
114 110 119 125 128 126 129 131 121 128 130 129 121 118 120 121 132 124 131 133 135 134 132 143 139 142 144 144 142 150 150 148 151 150 150 148 0 0 0 0 0 0 0 0 0 0 0 0 152 154 157 0 0 0 0 0 0 0 0 0 0 0 0 0 0 0 0 0 0 0 0 0 150 154 149 147 145 145 141 144 129 140 138 130 125 125 138 137 128 130 135 137 137 124 118 129 140 139 133 133 135 135 136 132 133 134 134 133 131 137 133 142 139 141 137 135 133 127 118 150
103 109 113 108 110 114 122 119 111 122 117 113 115 113 127 123 123 120 119 119 132 126 127 121 133 140 137 140 142 144 141 146 142 145 147 141 0 0 0 0 0 0 0 0 0 0 0 0 0 0 0 0 0 0 0 0 0 0 0 0 0 0 0 0 0 0 0 0 0 0 0 0 144 138 143 140 139 132 128 138 128 121 121 122 126 118 125 126 124 127 118 121 115 127 124 125 126 131 121 118 119 132 133 117 121 120 127 123 129 129 127 130 115 120 122 130 116 102 115 141
109 106 115 116 114 112 115 124 119 114 114 119 112 117 118 123 119 128 122 115 117 113 122 118 131 136 139 139 0 141 0 0 0 142 140 0 0 0 0 0 0 0 0 0 0 0 0 0 0 0 0 0 0 0 0 0 0 0 0 0 0 0 0 0 0 0 0 0 0 0 0 0 0 144 125 123 122 124 122 124 121 118 125 125 115 120 116 116 121 118 115 129 113 116 113 120 116 115 119 120 121 126 120 121 130 109 118 117 100 122 127 107 120 120 129 119 113 134 139 135
99 95 109 110 103 104 106 105 102 105 108 104 105 107 108 111 108 115 118 110 112 117 112 117 119 118 123 121 122 125 0 0 0 0 126 0 0 0 0 0 0 0 0 0 0 0 0 0 0 0 0 0 0 0 0 0 0 0 0 0 0 0 0 0 0 0 0 0 0 0 0 0 129 0 0 123 123 120 120 117 121 117 109 116 109 118 110 114 115 113 114 115 105 111 112 106 112 116 112 105 115 112 112 112 110 114 107 111 126 109 103 106 112 125 118 104 109 133 126 150
94 97 93 94 99 103 103 101 100 103 101 104 103 103 105 104 103 107 116 104 111 108 107 105 115 106 116 119 118 121 125 128 0 0 0 0 0 0 0 0 0 0 0 0 0 0 0 0 0 0 0 0 0 0 0 0 0 0 0 0 0 0 0 0 0 0 0 0 0 0 0 0 0 120 0 114 121 114 115 112 110 109 106 102 110 109 109 115 106 106 115 113 112 115 110 117 104 107 101 118 111 104 109 101 109 109 106 106 113 116 96 105 113 95 110 138 122 99 99 126
101 103 101 101 98 98 100 91 96 98 97 96 102 99 98 91 103 101 109 115 107 105 99 111 113 107 113 115 114 121 118 117 121 0 0 0 0 0 0 0 0 0 0 0 0 0 0 0 0 0 0 0 0 0 0 0 0 0 0 0 0 0 0 0 0 0 0 0 0 0 0 0 123 121 106 119 112 118 120 116 107 108 103 119 108 109 102 100 102 102 105 109 113 96 103 100 108 100 112 104 105 107 104 108 108 102 103 92 102 98 104 102 99 102 100 91 129 100 112 114
89 83 82 84 82 84 83 94 90 82 89 94 96 98 91 88 77 94 88 89 91 88 98 106 97 98 113 106 0 114 107 107 117 0 112 0 0 0 0 0 0 0 0 0 0 0 0 0 0 0 0 0 0 0 0 0 0 0 0 0 0 0 0 0 0 0 0 0 0 0 0 113 110 109 103 112 106 107 100 99 100 100 94 90 101 99 88 100 106 99 92 98 102 84 86 95 93 102 86 97 88 96 94 95 81 92 93 93 97 89 84 74 89 92 96 102 97 95 98 126
91 88 90 88 99 95 97 107 91 92 95 92 94 92 96 94 98 91 101 96 97 102 104 104 102 104 108 106 108 105 112 109 117 111 121 107 113 0 114 0 0 117 0 0 0 0 0 0 0 0 0 0 0 0 0 0 0 0 0 0 117 0 0 0 111 0 0 0 113 0 110 107 113 111 111 108 107 111 102 98 110 103 105 86 97 98 101 101 102 102 106 105 109 99 100 104 99 93 102 111 103 94 95 100 92 104 95 90 88 84 91 95 93 94 92 101 86 125 126 125
86 93 90 89 94 99 90 91 84 94 85 91 86 93 90 84 96 97 96 94 96 93 100 111 89 102 104 100 105 108 93 101 105 103 99 102 0 112 117 0 108 0 0 0 0 0 0 0 0 0 0 0 0 0 0 0 0 113 0 0 110 106 105 113 114 112 106 100 111 107 106 104 105 103 113 111 98 90 102 95 92 93 100 89 90 89 91 107 105 95 100 103 111 88 95 84 90 94 97 87 94 88 89 98 87 88 98 94 97 91 93 96 82 94 87 85 112 135 132 110
85 84 82 86 95 93 102 88 89 80 86 88 84 90 89 92 92 90 93 87 78 91 93 86 83 94 94 93 106 90 95 99 98 95 94 108 100 99 102 100 102 99 99 109 107 89 0 0 94 0 0 106 107 96 102 107 106 100 108 101 100 107 110 100 100 110 106 97 100 110 97 105 105 101 102 92 94 94 101 90 93 93 91 94 96 91 92 90 92 93 101 89 91 91 93 93 87 85 91 83 86 91 91 94 87 82 95 83 82 94 86 92 94 102 85 100 116 116 112 123
84 80 85 84 82 87 98 99 83 90 82 82 83 88 82 89 90 93 90 96 85 95 95 93 91 94 94 91 97 101 98 86 97 92 95 94 98 97 95 104 102 96 100 106 103 97 105 0 104 103 96 106 99 100 99 100 104 104 97 105 108 94 94 105 103 100 97 99 91 104 98 104 102 96 103 85 95 93 93 84 100 95 97 93 97 99 88 95 93 91 87 97 85 89 94 82 90 92 97 84 83 96 91 89 90 99 92 92 89 88 92 101 91 101 105 116 104 91 102 116
83 74 68 72 82 83 84 90 86 79 88 82 87 77 88 84 88 88 86 86 84 84 93 91 88 86 93 94 85 95 91 94 95 98 94 96 94 85 89 97 90 92 97 89 94 95 91 102 97 90 94 85 96 90 89 85 103 85 98 98 96 83 97 79 98 80 99 89 96 98 94 88 92 94 88 94 93 92 92 96 90 93 81 90 84 91 89 86 85 87 93 80 90 82 84 86 84 78 78 86 84 86 80 74 81 82 91 89 83 79 89 92 91 100 102 97 142 118 96 75
73 73 79 85 71 84 81 87 81 84 83 89 82 83 84 88 86 86 81 87 85 92 83 92 89 86 93 85 94 94 83 95 95 97 87 87 94 95 95 96 93 96 90 87 89 96 90 88 98 84 93 97 87 85 99 95 91 99 89 94 99 83 90 96 90 94 87 96 107 94 97 93 84 96 93 96 96 96 95 93 92 88 87 88 80 84 87 80 90 92 76 92 77 79 91 84 92 86 79 83 82 82 81 78 78 82 82 87 85 89 89 87 84 110 105 109 134 97 89 195
