0 0 0 0 0 0 0 0 0 0 0 0 0 0 0 0 0 0 0 0 0 0 0 0 0 0 0 0 0 0 0 0 0 0 0 0 0 0 0 0 0 0 0 0 0 0 0 0 0 0 0 0 0 0 0 0 0 0 0 0 0 0 0 0 0 0 0 0 0 0 0 0 0 0 0 0 0 0 0 0 0 0 0 0 0 0 0 0 0 0 0 0 0 0 0 0 0 0 0 0 0 0 0 0 0 0 0 0 0 0 0 0 0 0 0 0 0 0 0 0
0 0 0 0 0 0 0 0 0 0 0 0 0 0 0 0 0 0 0 0 0 0 0 0 0 0 0 0 0 0 0 0 0 0 0 0 0 0 0 0 0 0 0 0 0 0 0 0 0 0 0 0 0 0 0 0 0 0 0 0 0 0 0 0 0 0 0 0 0 0 0 0 0 0 0 0 0 0 0 0 0 0 0 0 0 0 0 0 0 0 0 0 0 0 0 0 0 0 0 0 0 0 0 0 0 0 0 0 0 0 0 0 0 0 0 0 0 0 0 0
0 0 0 0 0 0 0 0 0 0 0 0 0 0 0 0 0 0 0 0 0 0 0 0 0 0 0 0 0 0 0 0 0 0 0 0 0 0 0 0 0 0 0 0 0 0 0 0 0 0 0 0 0 0 0 0 0 0 0 0 0 0 0 0 0 0 0 0 0 0 0 0 0 0 0 0 0 0 0 0 0 0 0 0 0 0 0 0 0 0 0 0 0 0 0 0 0 0 0 0 0 0 0 0 0 0 0 0 0 0 0 0 0 0 0 0 0 0 0 0
0 0 0 0 0 0 0 0 0 0 0 0 0 0 0 0 0 0 0 0 0 0 0 0 0 0 0 0 0 0 0 0 0 0 0 0 0 0 0 0 0 0 0 0 0 0 0 0 0 0 0 0 0 0 0 0 0 0 0 0 0 0 0 0 0 0 0 0 0 0 0 0 0 0 0 0 0 0 0 0 0 0 0 0 0 0 0 0 0 0 0 0 0 0 0 0 0 0 0 0 0 0 0 0 0 0 0 0 0 0 0 0 0 0 0 0 0 0 0 0
0 0 0 0 0 0 0 0 0 0 0 0 0 0 0 0 0 0 0 0 0 0 0 0 0 0 0 0 0 0 0 0 0 0 0 0 0 0 0 0 0 0 0 0 0 0 0 0 0 0 0 0 0 0 0 0 0 0 0 0 0 0 0 0 0 0 0 0 0 0 0 0 0 0 0 0 0 0 0 0 0 0 0 0 0 0 0 0 0 0 0 0 0 0 0 0 0 0 0 0 0 0 0 0 0 0 0 0 0 0 0 0 0 0 0 0 0 0 0 0
0 0 0 0 0 0 0 0 0 0 0 0 0 0 0 0 0 0 0 0 0 0 0 0 0 0 0 0 0 0 0 0 0 0 0 0 0 0 0 450 453 500 476 474 508 506 483 486 495 510 496 503 464 482 444 0 0 0 0 0 0 0 0 0 0 0 0 0 0 0 0 0 0 0 0 0 0 0 0 0 0 0 0 0 0 0 0 0 0 0 0 0 0 0 0 0 0 0 0 0 0 0 0 0 0 0 0 0 0 0 0 0 0 0 0 0 0 0 0 0
0 0 0 0 0 0 0 0 0 0 0 0 0 0 0 0 0 0 0 0 0 0 0 0 0 0 0 0 0 0 0 0 0 0 0 0 0 526 511 515 509 502 486 511 510 503 502 507 507 526 501 522 517 509 534 493 519 516 525 509 0 0 0 0 0 0 0 0 0 0 0 0 0 0 0 0 0 0 0 0 0 0 0 0 0 0 0 0 0 0 0 0 0 0 0 0 0 0 0 0 0 0 0 0 0 0 0 0 0 0 0 0 0 0 0 0 0 0 0 0
0 0 0 0 0 0 0 0 0 0 0 0 0 0 0 0 0 0 0 0 0 0 0 0 0 0 0 0 0 0 0 0 0 0 0 517 523 528 512 498 511 511 503 529 505 513 506 510 515 503 517 505 511 521 518 517 518 516 517 527 507 536 538 531 531 0 0 0 0 0 0 0 0 0 0 0 0 0 0 0 0 0 0 0 0 0 0 0 0 0 0 0 0 0 0 0 0 0 0 0 0 0 0 0 0 0 0 0 0 0 0 0 0 0 0 0 0 0 0 0
0 0 0 0 0 0 0 0 0 0 0 0 0 0 0 0 0 0 0 0 0 0 0 0 0 0 0 0 0 0 0 0 0 504 478 494 512 499 502 490 509 503 500 494 507 507 500 499 504 520 506 501 506 513 502 515 505 502 508 508 496 498 505 507 520 513 534 520 530 539 598 544 549 0 569 589 577 558 565 490 0 0 0 0 0 0 0 0 0 0 0 0 0 0 0 0 0 0 0 0 0 0 0 0 0 0 0 0 0 0 0 0 0 0 0 0 0 0 0 0
0 0 0 0 0 0 0 0 0 0 0 0 0 0 0 0 0 0 0 0 0 0 0 0 0 0 0 0 0 0 0 551 524 504 510 508 495 507 503 508 510 496 515 503 510 511 513 514 512 512 515 512 507 514 505 506 522 499 522 513 519 510 507 517 512 535 510 525 544 549 635 594 609 615 645 624 611 606 620 604 601 641 613 628 0 621 659 642 618 672 640 613 625 615 648 655 602 621 576 620 619 666 637 599 0 659 0 0 0 0 0 0 0 0 0 0 0 0 0 0
0 0 0 0 0 0 0 0 0 0 0 0 0 0 0 0 0 0 0 0 0 0 0 0 0 0 0 0 0 0 499 500 509 501 489 492 506 511 502 510 504 496 507 493 499 510 506 512 511 509 515 503 503 514 507 527 505 500 502 509 511 500 506 513 506 507 508 508 520 514 550 547 561 552 581 566 593 592 566 549 514 561 557 551 500 586 591 586 517 533 562 573 539 570 587 529 577 587 501 578 583 589 584 558 543 510 561 0 567 0 0 0 0 0 0 0 0 0 0 0
0 0 0 0 0 0 0 0 0 0 0 0 0 0 0 0 0 0 0 0 0 0 0 0 0 0 0 0 468 502 498 496 506 504 491 499 500 495 499 509 504 503 497 494 510 512 506 494 495 492 500 500 497 502 507 496 507 499 501 512 505 500 508 509 507 499 508 498 513 508 505 520 496 516 549 529 557 557 520 511 540 565 527 538 569 495 568 564 583 535 567 561 555 520 577 553 574 535 539 540 537 491 536 513 580 527 529 476 459 0 0 0 0 0 0 0 0 0 0 0
0 0 0 0 0 0 0 0 0 0 0 0 0 0 0 0 0 0 0 0 0 0 0 0 0 0 0 500 505 504 500 494 505 499 500 502 505 502 499 498 493 510 505 513 494 503 497 505 506 499 505 504 509 503 503 505 502 509 513 504 510 511 506 516 515 508 515 510 513 509 507 520 559 578 568 555 581 547 556 588 578 546 558 564 586 583 600 556 589 557 601 598 562 555 572 587 551 559 577 569 617 589 585 565 575 599 557 550 0 0 0 0 0 0 0 0 0 0 0 0
0 0 0 0 0 0 0 0 0 0 0 0 0 0 0 0 0 0 0 0 0 0 0 0 0 0 478 492 494 499 493 503 496 497 491 486 492 484 501 497 501 489 498 504 491 502 487 502 497 494 503 494 504 497 511 494 502 496 507 508 507 508 511 503 513 512 510 495 505 501 510 518 526 511 532 504 525 521 541 520 538 499 489 536 491 531 508 496 497 514 537 524 537 500 524 509 531 495 535 504 510 468 522 487 509 489 499 466 481 0 0 0 0 0 0 0 0 0 0 0
0 0 0 0 0 0 0 0 0 0 0 0 0 0 0 0 0 0 0 0 0 0 0 0 0 486 501 481 496 506 497 507 497 497 489 503 514 498 503 505 503 496 512 507 499 493 502 502 505 496 502 511 510 501 502 503 501 505 504 504 509 515 506 513 510 502 510 496 512 507 509 504 499 537 566 548 547 520 522 553 515 568 547 575 549 527 534 542 572 551 555 549 536 578 534 569 540 533 536 557 578 557 571 507 534 563 530 533 541 530 552 0 0 0 0 0 0 0 0 0
0 0 0 0 0 0 0 0 0 0 0 0 0 0 0 0 0 0 0 0 0 0 0 0 0 495 505 493 497 488 496 495 502 498 488 495 502 488 500 500 499 507 514 497 499 500 507 502 502 498 502 510 508 499 499 499 507 509 506 509 506 508 509 512 511 511 523 513 507 505 509 523 511 521 519 552 582 555 574 554 539 545 552 538 509 547 578 570 540 580 541 590 574 538 537 571 538 559 606 536 594 544 553 574 569 557 555 621 618 0 0 0 0 611 0 0 0 0 0 0
0 0 0 0 0 0 0 0 0 0 0 0 0 0 0 0 0 0 0 0 0 0 0 0 504 484 496 498 480 498 486 496 496 494 491 495 493 497 503 491 497 501 494 506 501 506 496 507 489 504 494 498 504 504 504 507 502 501 507 506 502 500 505 499 507 511 505 497 511 508 503 514 506 513 524 533 523 548 530 544 529 563 554 519 558 509 510 565 565 517 521 554 564 553 555 505 574 564 534 555 546 535 520 549 566 548 534 510 561 533 514 0 0 0 0 0 0 0 0 0
0 0 0 0 0 0 0 0 0 0 0 0 0 0 0 0 0 0 0 0 0 0 0 0 490 493 493 494 495 494 493 502 495 494 495 500 494 500 496 507 501 494 504 500 496 507 506 508 505 510 519 511 506 503 503 504 503 506 507 500 512 507 505 512 505 507 506 507 503 507 505 509 513 514 509 530 552 541 558 554 540 566 573 552 571 571 574 556 585 559 551 561 572 579 569 576 565 551 581 556 569 565 576 546 573 580 558 535 560 560 557 0 0 0 0 0 0 0 0 0
0 0 0 0 0 0 0 0 0 0 0 0 0 0 0 0 0 0 0 0 0 0 0 505 492 495 488 491 492 491 490 500 496 502 498 490 492 494 490 492 498 495 492 496 497 506 508 502 498 503 497 492 504 502 497 500 502 508 498 504 511 500 507 504 502 503 515 509 512 501 512 509 503 501 504 513 509 532 562 546 537 569 532 525 573 563 529 551 543 547 563 560 556 540 532 536 531 557 529 534 542 561 533 551 537 555 558 504 529 511 537 0 0 0 0 0 0 0 0 0
0 0 0 0 0 0 0 0 0 0 0 0 0 0 0 0 0 0 0 0 0 0 0 492 484 496 482 493 492 488 496 491 494 503 489 491 485 486 484 498 494 496 501 495 509 499 497 497 494 500 497 497 498 501 493 504 503 508 500 495 500 500 504 496 494 501 497 501 495 512 504 500 503 505 499 511 513 528 544 526 525 525 546 509 503 517 534 525 540 526 514 513 504 492 515 513 504 528 486 518 513 530 535 540 519 533 477 487 517 450 489 0 0 0 0 0 0 0 0 0
0 0 0 0 0 0 0 0 0 0 0 0 0 0 0 0 0 0 0 0 0 0 454 503 499 489 485 495 492 494 493 509 494 498 484 499 494 499 492 492 501 498 496 506 498 494 498 496 499 503 498 495 497 500 505 500 504 496 507 495 510 503 510 505 504 507 508 505 514 504 509 512 513 509 507 511 510 539 522 543 525 543 550 537 546 546 538 508 534 540 551 555 556 561 533 552 536 529 532 562 536 509 532 536 556 540 520 527 568 563 508 515 563 0 0 0 0 0 0 0
0 0 0 0 0 0 0 0 0 0 0 0 0 0 0 0 0 0 0 0 0 0 466 491 480 484 489 496 492 498 485 495 484 483 497 490 485 490 495 492 490 488 486 489 492 494 503 504 499 490 496 496 496 495 499 498 501 501 501 507 498 493 500 510 505 504 506 506 503 504 505 504 507 504 506 501 503 495 497 489 476 519 507 504 484 517 486 489 473 520 511 487 488 509 499 494 476 489 505 515 485 510 492 504 479 528 496 481 485 465 446 0 0 0 0 0 0 0 0 0
0 0 0 0 0 0 0 0 0 0 0 0 0 0 0 0 0 0 0 0 0 0 501 479 493 492 494 498 496 490 490 480 490 491 487 490 490 495 490 488 486 500 495 494 498 506 492 502 494 500 497 496 500 501 506 499 507 507 507 499 501 500 502 501 504 511 510 508 509 499 510 507 509 500 505 505 511 527 530 530 526 515 504 538 540 493 511 513 524 568 516 535 549 504 505 540 516 527 523 545 540 535 516 538 513 518 530 520 570 585 579 500 562 0 0 0 0 0 0 0
0 0 0 0 0 0 0 0 0 0 0 0 0 0 0 0 0 0 0 0 0 0 492 496 487 497 494 495 492 487 492 490 489 485 493 480 483 498 497 489 496 493 495 497 502 497 500 500 496 508 505 506 499 500 504 506 504 502 504 496 504 511 505 511 512 503 508 503 509 504 512 508 506 514 511 516 511 534 521 535 538 516 552 541 531 545 524 528 540 545 536 548 549 542 573 527 550 570 578 516 533 556 562 569 558 540 561 519 541 542 515 568 552 0 0 0 0 0 0 0
0 0 0 0 0 0 0 0 0 0 0 0 0 0 0 0 0 0 0 0 0 0 479 483 474 483 487 486 490 492 494 486 502 484 482 491 485 484 496 493 497 493 489 499 502 494 494 494 500 504 499 503 497 496 501 498 502 496 502 499 506 499 497 497 506 504 499 509 500 499 506 504 502 503 504 499 507 503 490 521 493 499 514 494 526 511 525 493 495 516 534 504 512 512 514 523 484 509 526 514 535 494 498 494 540 512 528 483 476 524 496 516 425 0 0 0 0 0 0 0
0 0 0 0 0 0 0 0 0 0 0 0 0 0 0 0 0 0 0 0 0 0 489 481 494 492 488 486 493 493 494 481 487 490 498 485 501 497 502 496 494 488 491 501 500 494 492 500 496 495 499 501 502 507 495 503 498 501 501 495 504 505 506 507 501 499 500 508 491 505 501 506 499 510 501 516 517 518 554 521 519 521 528 524 533 543 523 560 551 541 563 550 521 536 564 538 552 533 522 541 561 546 531 561 552 541 537 542 616 582 534 565 577 491 0 0 0 0 0 0
0 0 0 0 0 0 0 0 0 0 0 0 0 0 0 0 0 0 0 0 0 420 481 486 482 482 488 488 495 486 482 479 485 494 492 483 490 490 490 492 493 497 491 490 494 494 495 499 496 497 495 499 501 502 505 498 497 496 505 495 503 505 499 502 501 498 498 499 498 506 507 498 500 514 504 507 506 498 517 513 505 506 500 511 507 501 496 506 526 521 517 499 518 519 500 483 507 497 522 552 515 494 527 490 514 528 531 505 486 511 495 483 0 0 0 0 0 0 0 0
0 0 0 0 0 0 0 0 0 0 0 0 0 0 0 0 0 0 0 0 0 441 498 482 490 480 481 481 485 482 482 485 496 483 484 486 494 489 488 487 496 489 497 493 496 493 492 495 495 497 497 501 498 500 497 501 502 506 497 504 500 496 497 495 501 500 501 498 499 500 503 499 496 509 506 506 510 496 507 487 510 500 501 484 515 504 519 499 509 531 485 470 523 492 504 516 519 471 504 494 493 504 495 518 469 483 497 509 454 512 500 489 428 0 0 0 0 0 0 0
0 0 0 0 0 0 0 0 0 0 0 0 0 0 0 0 0 0 0 0 0 450 482 487 495 479 495 483 478 487 489 486 487 484 487 486 489 488 489 493 494 494 490 493 490 493 497 499 501 499 495 500 497 495 501 501 499 498 504 500 502 501 501 503 502 509 512 503 505 504 504 501 502 510 513 502 503 515 516 533 512 547 511 528 523 525 512 507 547 510 531 537 523 529 521 532 543 533 550 524 529 539 512 504 537 526 483 533 543 550 556 559 545 0 0 0 0 0 0 0
0 0 0 0 0 0 0 0 0 0 0 0 0 0 0 0 0 0 0 0 0 422 472 472 483 477 480 475 483 490 482 489 484 483 485 487 487 487 484 493 491 487 491 491 488 492 491 496 493 488 493 500 496 498 497 501 496 495 506 502 495 496 497 498 495 501 499 500 498 499 495 506 504 496 502 500 502 505 495 503 476 495 509 509 497 489 477 495 493 476 493 486 472 494 469 485 498 481 470 496 466 480 505 490 516 501 456 466 484 481 476 462 516 0 0 0 0 0 0 0
0 0 0 0 0 0 0 0 0 0 0 0 0 0 0 0 0 0 0 0 0 438 490 484 484 473 483 486 481 485 487 482 480 491 484 484 485 492 490 491 491 492 493 492 493 488 490 492 492 497 497 499 498 501 496 494 496 499 503 496 497 496 497 499 499 504 504 507 500 499 504 506 495 501 499 498 500 510 512 510 497 528 516 525 509 517 525 513 507 517 487 545 509 512 520 511 520 506 488 532 532 481 510 505 509 505 517 553 488 496 531 544 502 0 0 0 0 0 0 0
0 0 0 0 0 0 0 0 0 0 0 0 0 0 0 0 0 0 0 0 0 470 479 482 487 479 482 478 492 483 490 497 488 489 487 487 488 488 494 488 490 490 494 493 490 492 490 491 492 491 491 497 496 497 494 498 493 495 503 502 496 496 494 501 496 504 497 500 508 507 499 505 513 504 499 498 507 496 509 504 509 508 500 504 522 515 502 517 512 516 508 518 522 479 528 534 526 532 529 506 527 529 537 531 519 533 563 554 502 538 554 516 490 0 0 0 0 0 0 0
0 0 0 0 0 0 0 0 0 0 0 0 0 0 0 0 0 0 0 0 0 456 485 477 479 477 474 481 482 483 489 480 485 479 481 482 485 488 484 491 496 488 489 488 494 489 487 495 489 495 499 497 494 495 492 496 497 496 498 495 496 497 497 499 498 496 497 499 500 498 499 505 502 497 497 494 499 499 509 483 497 504 493 517 521 510 498 514 493 474 524 507 484 494 500 497 479 508 494 526 484 517 482 503 511 506 489 491 522 474 501 486 513 475 0 0 0 0 0 0
0 0 0 0 0 0 0 0 0 0 0 0 0 0 0 0 0 0 0 0 0 462 485 468 483 478 482 482 477 479 486 493 483 488 484 483 484 485 488 488 489 486 490 494 492 490 484 491 490 494 495 493 499 496 495 496 499 501 497 495 500 497 499 502 501 500 502 497 498 496 499 495 492 503 501 492 496 499 504 514 518 509 511 513 511 520 507 523 536 513 522 538 511 485 542 530 539 519 545 531 556 514 526 532 555 526 526 526 531 559 562 512 590 0 0 0 0 0 0 0
0 0 0 0 0 0 0 0 0 0 0 0 0 0 0 0 0 0 0 0 0 444 478 474 476 475 474 474 483 480 482 487 484 487 482 481 482 489 484 495 486 484 486 485 488 487 489 489 490 488 492 492 488 496 496 494 494 493 492 495 496 500 498 496 498 500 496 496 496 495 501 498 492 503 499 502 500 507 498 507 505 490 517 479 499 487 499 506 492 500 495 513 503 487 495 513 491 512 511 507 488 512 496 504 538 480 507 518 512 533 506 503 497 507 0 0 0 0 0 0
0 0 0 0 0 0 0 0 0 0 0 0 0 0 0 0 0 0 0 0 0 461 474 470 472 482 478 477 478 475 478 481 478 481 482 482 486 483 480 483 488 487 487 489 485 487 487 487 489 496 496 489 490 492 495 496 500 495 499 497 497 498 494 496 494 497 498 498 495 501 497 495 493 496 495 500 503 494 510 489 494 496 491 500 478 486 503 503 484 470 513 480 473 485 474 515 478 497 504 504 498 493 487 498 470 467 501 455 499 497 496 506 470 488 0 0 0 0 0 0
0 0 0 0 0 0 0 0 0 0 0 0 0 0 0 0 0 0 0 0 0 468 481 475 478 473 482 477 478 481 477 483 480 483 483 488 487 481 480 488 486 483 488 489 486 487 491 489 489 494 496 497 495 491 498 495 493 487 495 499 497 500 501 498 499 500 497 499 498 498 498 499 502 500 500 499 495 494 493 511 512 514 489 495 495 486 483 497 488 486 502 503 497 491 523 490 465 503 503 526 497 519 536 518 537 491 496 517 479 508 511 542 488 534 0 0 0 0 0 0
0 0 0 0 0 0 0 0 0 0 0 0 0 0 0 0 0 0 0 0 0 0 466 473 468 476 472 480 481 474 475 478 478 482 482 482 486 483 482 486 483 482 484 482 485 488 490 487 493 492 493 492 496 493 491 497 490 495 495 497 496 495 497 493 495 500 496 498 501 493 491 496 494 499 496 494 489 494 486 495 477 486 490 484 482 489 485 486 489 485 498 481 501 502 482 478 489 480 464 489 515 516 457 477 469 456 464 447 480 453 437 475 491 443 0 0 0 0 0 0
0 0 0 0 0 0 0 0 0 0 0 0 0 0 0 0 0 0 0 0 0 0 492 477 470 476 476 477 478 482 480 478 483 481 476 479 477 490 487 482 485 485 483 483 489 487 487 488 492 490 491 496 494 493 488 493 496 497 495 494 495 495 498 496 495 495 500 498 496 496 496 494 495 492 492 496 493 503 509 513 500 522 504 515 532 526 513 516 519 509 508 509 515 530 521 515 494 502 522 511 477 504 533 474 489 492 503 502 487 507 483 458 447 461 0 0 0 0 0 0
0 0 0 0 0 0 0 0 0 0 0 0 0 0 0 0 0 0 0 0 0 0 510 474 474 482 482 480 477 475 478 481 480 484 486 487 482 484 484 490 483 487 491 491 492 488 490 487 490 499 492 490 488 492 492 494 497 489 498 497 501 494 495 496 500 495 500 499 492 498 499 497 498 498 496 495 496 502 494 508 503 498 514 518 517 488 527 507 528 511 540 514 504 533 521 505 527 499 516 517 512 525 493 495 520 495 516 539 534 517 526 548 501 522 510 490 0 0 0 0
0 0 0 0 0 0 0 0 0 0 0 0 0 0 0 0 0 0 0 0 0 0 576 472 468 479 475 478 471 474 478 478 477 480 483 483 483 482 479 484 483 484 485 487 487 486 491 487 490 490 492 493 491 491 493 496 493 494 496 495 494 495 499 499 493 497 497 494 495 494 493 492 493 503 495 491 497 497 492 514 503 498 487 516 512 498 503 498 512 519 520 515 519 505 507 524 511 534 507 503 504 507 482 497 505 495 489 517 482 483 460 470 501 522 0 0 0 0 0 0
0 0 0 0 0 0 0 0 0 0 0 0 0 0 0 0 0 0 0 0 0 0 801 478 476 479 481 477 474 477 478 484 483 486 481 478 484 483 483 490 483 485 486 486 494 486 490 491 494 487 496 494 498 496 492 492 494 498 497 500 489 492 494 493 495 493 494 498 495 494 497 495 493 494 493 501 498 501 493 501 521 512 506 509 510 513 484 506 500 519 514 523 513 513 517 550 516 537 531 524 506 531 522 518 507 518 509 508 499 529 519 566 533 0 480 605 0 0 0 0
0 0 0 0 0 0 0 0 0 0 0 0 0 0 0 0 0 0 0 0 0 0 0 473 471 470 471 473 471 477 479 474 478 479 480 479 478 483 486 479 485 487 485 485 484 486 489 491 491 488 495 491 488 490 492 491 491 489 498 494 495 495 496 494 495 495 494 496 493 495 499 496 494 494 492 489 488 501 493 516 498 492 492 491 508 484 504 503 493 506 507 510 497 485 511 496 512 506 479 478 476 498 526 472 528 490 498 500 496 458 494 452 492 0 0 0 0 0 0 0
0 0 0 0 0 0 0 0 0 0 0 0 0 0 0 0 0 0 0 0 0 0 0 527 465 472 470 468 475 474 472 478 479 476 473 478 480 478 475 485 484 481 485 487 488 491 488 488 486 488 489 492 490 488 491 484 493 495 493 494 497 496 492 494 494 491 492 500 491 495 494 492 493 500 493 489 489 494 491 491 500 493 485 497 510 521 484 511 489 486 494 521 483 493 494 487 475 480 510 503 502 484 489 476 486 462 457 483 482 486 479 464 448 485 496 0 0 0 0 0
0 0 0 0 0 0 0 0 0 0 0 0 0 0 0 0 0 0 0 0 0 0 0 0 469 469 472 474 473 474 478 473 476 476 477 477 478 482 480 479 478 485 482 485 486 486 488 487 495 491 490 492 495 490 491 494 486 494 489 495 491 495 494 492 497 489 495 499 493 498 500 494 496 492 493 491 490 498 506 499 506 509 492 511 492 477 500 517 519 508 511 499 501 497 528 508 478 517 480 502 500 515 490 510 458 481 507 504 485 492 470 458 474 485 442 440 0 0 0 0
0 0 0 0 0 0 0 0 0 0 0 0 0 0 0 0 0 0 0 0 0 0 0 0 475 466 468 469 475 468 471 473 478 474 472 476 482 474 478 480 480 481 481 484 483 486 490 487 486 488 489 485 491 490 489 486 489 487 486 489 490 486 493 491 492 495 486 492 494 492 497 490 487 491 488 485 483 487 481 497 485 487 481 493 484 492 488 493 481 498 469 480 489 479 502 481 471 500 505 468 482 502 478 459 456 470 454 458 469 454 453 482 462 488 435 0 0 0 0 0
0 0 0 0 0 0 0 0 0 0 0 0 0 0 0 0 0 0 0 0 0 0 0 0 0 475 465 471 467 471 474 476 476 476 472 474 479 484 479 481 484 481 482 481 480 485 488 481 484 485 488 486 492 488 480 487 489 488 489 491 495 492 492 492 492 496 494 501 491 496 492 496 487 490 495 482 497 481 492 495 493 482 502 495 489 502 486 495 488 483 508 520 498 492 507 505 499 498 485 481 481 503 514 508 480 496 471 503 467 471 499 459 484 476 0 0 0 0 0 0
0 0 0 0 0 0 0 0 0 0 0 0 0 0 0 0 0 0 0 0 0 0 0 0 0 517 477 469 467 468 472 468 478 476 477 475 476 481 479 476 479 481 479 479 483 484 478 487 484 485 482 483 487 487 487 488 488 489 487 491 490 493 493 490 493 494 497 490 490 495 491 494 499 495 489 484 488 490 487 490 485 494 485 490 488 495 494 512 491 502 481 491 501 491 522 509 496 505 515 504 536 513 519 531 487 494 484 436 476 500 478 483 468 557 0 0 0 0 0 0
0 0 0 0 0 0 0 0 0 0 0 0 0 0 0 0 0 0 0 0 0 0 0 0 0 0 480 465 463 468 464 470 469 470 473 473 472 472 477 477 475 475 474 479 484 479 483 480 485 482 483 485 483 486 480 480 487 486 488 484 490 487 491 489 490 490 490 485 492 491 494 492 489 488 486 484 482 485 485 495 483 487 478 488 483 499 488 484 480 483 503 492 483 486 487 497 504 516 493 497 495 470 492 462 501 483 498 503 452 490 443 487 425 490 0 0 0 0 0 0
0 0 0 0 0 0 0 0 0 0 0 0 0 0 0 0 0 0 0 0 0 0 0 0 0 0 0 467 468 468 475 473 474 475 470 473 477 477 475 479 477 482 472 480 483 480 479 480 484 482 479 482 483 484 486 480 488 491 485 492 489 489 492 489 488 496 490 495 491 490 490 489 488 488 493 496 489 483 502 486 502 505 493 486 489 506 497 500 502 500 495 499 507 503 501 521 508 495 504 494 508 489 512 484 514 526 497 479 498 508 479 517 534 532 554 0 0 0 0 0
0 0 0 0 0 0 0 0 0 0 0 0 0 0 0 0 0 0 0 0 0 0 0 0 0 0 0 506 467 466 463 464 472 470 476 473 475 471 476 474 479 478 479 475 478 477 479 478 481 484 484 481 482 486 474 485 485 481 484 488 487 481 491 491 487 486 488 489 486 487 485 488 481 474 483 499 485 482 480 485 480 480 481 494 489 492 505 494 487 489 486 477 471 478 484 487 497 478 483 510 493 471 492 474 471 443 480 501 444 437 480 456 487 475 0 0 0 0 0 0
0 0 0 0 0 0 0 0 0 0 0 0 0 0 0 0 0 0 0 0 0 0 0 0 0 0 0 0 490 463 465 465 463 468 467 473 472 476 474 476 472 475 473 475 477 479 471 480 475 479 482 478 480 482 480 481 487 480 484 483 488 484 488 489 482 482 489 485 490 487 486 487 484 476 472 482 474 480 477 495 479 480 473 481 483 477 484 477 483 499 482 474 457 479 503 472 476 475 505 479 471 468 468 487 458 453 465 475 473 457 434 441 431 428 464 460 0 0 0 0
0 0 0 0 0 246 236 259 281 0 0 0 0 0 0 0 0 0 0 0 0 0 0 0 0 0 0 0 0 498 455 463 461 467 466 470 472 470 470 467 471 473 473 478 477 477 480 479 482 480 478 485 479 483 482 477 484 485 489 484 487 485 486 486 480 488 483 477 481 490 479 487 482 484 479 482 473 482 480 483 490 486 488 481 484 488 484 490 477 498 503 486 474 506 473 498 498 513 513 508 477 503 499 490 495 481 451 504 464 459 466 498 467 514 511 0 0 0 0 0
0 0 0 0 234 227 231 235 238 277 354 0 0 0 0 0 0 0 0 0 0 2407 0 0 0 0 0 0 0 0 445 461 473 467 469 472 473 470 475 470 474 472 471 470 477 475 482 474 477 481 482 485 481 481 483 480 476 479 482 474 484 480 484 486 484 480 481 483 479 479 481 473 466 470 475 484 474 473 464 462 472 470 478 471 460 477 473 474 475 477 467 479 474 459 465 487 465 480 460 472 475 481 475 452 448 444 440 442 458 466 464 442 417 0 0 0 0 0 0 0
0 0 0 225 219 226 228 228 233 237 324 0 0 0 0 0 0 0 0 0 0 0 0 0 0 0 0 0 0 0 0 468 461 465 467 467 466 466 469 464 470 473 470 472 472 476 471 477 481 479 481 478 474 479 483 476 483 481 475 480 477 483 478 480 479 476 488 481 473 477 485 487 477 482 492 487 469 497 485 482 484 496 489 471 476 482 478 467 477 491 478 477 490 475 494 500 473 469 477 506 479 476 452 467 453 487 460 469 478 471 450 478 465 448 472 0 0 0 0 0
220 257 319 246 281 308 271 232 237 236 339 0 397 448 425 424 443 436 445 428 470 465 442 460 461 446 466 447 444 456 447 458 461 465 461 463 468 463 468 464 470 472 473 472 472 468 473 476 479 475 476 476 479 480 483 480 475 482 476 478 471 479 480 477 483 478 477 477 486 484 478 481 484 480 478 477 469 470 488 489 480 476 488 477 482 496 483 478 484 482 483 484 483 488 466 469 477 479 466 473 483 489 468 457 480 500 462 444 470 472 483 539 476 453 453 0 0 0 0 0
202 207 196 181 219 240 240 235 228 258 336 376 384 400 396 400 402 403 399 405 403 412 413 416 411 415 428 432 441 453 445 457 463 451 455 455 458 458 459 459 458 468 456 461 459 458 476 463 471 467 467 474 480 470 471 467 472 467 465 473 470 471 472 472 465 475 471 473 466 474 469 460 464 464 469 461 458 467 449 451 451 448 449 443 446 458 445 448 463 451 456 455 435 436 442 448 442 440 458 459 438 454 442 446 437 432 445 444 437 437 453 440 413 420 428 438 418 411 0 0
218 211 227 267 243 257 232 230 235 331 351 391 371 355 390 390 398 378 384 370 398 393 398 413 415 411 431 424 423 438 443 440 440 447 443 445 437 445 447 443 442 456 448 446 448 452 446 455 462 461 456 455 464 457 453 464 461 453 461 465 464 458 453 459 460 468 456 462 455 460 461 459 449 455 442 441 437 438 437 442 434 439 438 441 427 431 425 433 442 438 440 425 436 434 447 432 430 420 432 424 430 434 448 438 437 415 401 415 449 418 434 444 407 426 455 438 422 470 463 490
285 282 244 221 226 222 229 233 261 342 333 331 332 336 337 343 360 344 341 348 348 354 370 377 377 391 395 409 418 406 419 420 420 430 430 430 429 427 433 435 428 432 430 426 435 432 436 439 444 437 446 436 443 445 441 444 439 440 445 447 446 444 444 436 447 446 437 436 443 436 436 429 428 426 416 404 402 403 403 396 397 391 399 387 403 397 402 405 394 393 397 387 402 393 391 402 388 391 395 390 388 391 396 397 400 381 387 376 392 392 390 373 371 386 390 384 395 397 380 388
290 298 283 240 234 234 233 248 285 306 303 296 314 297 311 312 308 315 314 322 309 319 333 347 351 356 378 384 388 389 394 402 408 413 400 408 410 410 415 415 411 413 415 411 414 422 416 423 420 417 417 415 418 417 421 424 423 422 418 421 423 418 429 421 416 418 417 419 417 414 412 412 400 402 397 395 392 371 367 355 369 368 351 360 370 359 365 353 360 371 355 351 351 365 363 368 360 347 358 349 366 365 365 345 369 368 371 355 357 360 358 361 382 350 365 346 352 347 348 384
283 275 277 268 258 252 271 278 276 285 276 288 276 289 290 297 277 292 285 293 299 309 317 321 332 350 366 368 367 377 384 390 387 385 387 386 398 397 392 391 398 391 392 395 391 398 386 392 399 391 392 400 400 398 392 387 397 397 399 404 398 396 398 397 391 390 398 392 394 397 394 393 391 382 369 367 359 352 339 335 339 329 329 333 333 323 339 337 333 326 336 336 332 328 343 338 321 330 330 330 345 343 346 337 329 344 332 340 336 337 321 354 322 347 353 326 328 342 351 348
242 243 245 233 233 233 245 245 248 263 251 255 246 258 258 250 251 260 263 264 263 276 288 287 312 309 336 339 344 354 356 359 359 360 354 359 363 366 373 366 369 365 365 375 367 370 365 370 363 369 373 368 371 370 377 370 370 378 371 375 376 375 372 369 363 366 369 375 368 372 361 365 360 349 345 335 324 322 310 308 296 289 301 300 297 300 296 293 291 287 295 288 296 294 290 286 296 296 304 294 288 299 293 294 291 306 307 294 295 309 291 286 284 284 273 301 281 318 290 301
223 219 226 234 233 232 245 240 237 237 236 247 242 250 244 242 241 247 254 247 255 268 273 275 297 293 320 325 323 330 332 330 342 337 339 344 347 342 340 344 347 345 351 341 350 346 346 352 346 349 341 347 349 350 351 351 349 346 358 346 347 353 353 339 348 348 347 348 342 351 347 343 338 338 328 323 313 296 293 287 279 281 282 283 273 283 276 284 277 277 288 289 282 274 278 269 265 273 279 278 287 283 286 274 272 284 275 290 290 282 273 300 289 280 293 282 307 304 280 268
207 214 234 227 226 223 221 225 225 226 228 233 225 232 232 229 227 228 230 240 250 248 255 265 274 282 291 304 302 303 312 315 319 322 317 318 321 325 323 328 322 320 318 319 327 329 329 323 326 326 320 327 326 330 325 322 326 318 325 326 322 328 328 327 325 329 335 330 321 325 321 323 322 312 306 304 291 276 271 271 269 266 265 259 262 263 265 257 260 253 258 269 253 259 266 256 263 260 261 265 262 256 265 264 255 255 261 256 264 258 270 261 264 276 269 281 277 256 253 261
191 211 196 224 214 216 216 213 211 222 209 211 207 215 211 216 218 220 219 218 225 229 237 250 254 265 278 277 276 285 290 292 297 298 291 302 294 298 306 307 298 300 298 294 308 302 307 298 306 300 308 302 298 300 298 301 313 299 305 301 304 307 309 301 301 302 304 308 296 300 297 297 294 293 283 281 274 255 255 249 245 243 246 249 243 246 237 236 235 240 242 245 250 238 246 244 243 241 243 234 237 233 244 242 245 236 241 244 246 242 244 251 256 249 250 236 252 265 253 258
201 202 208 210 206 210 212 211 208 210 210 201 188 207 204 192 209 209 209 208 221 225 230 236 240 249 257 255 270 270 271 270 273 275 278 282 282 285 282 287 283 285 287 291 286 281 284 283 288 286 285 283 281 282 278 288 289 282 285 286 284 292 285 288 285 294 286 286 283 280 284 280 282 276 265 257 257 250 241 236 230 232 235 232 233 226 232 226 234 234 227 230 234 228 226 226 230 221 228 237 228 235 233 232 231 233 234 235 245 236 239 248 248 260 254 249 250 263 254 239
192 180 172 177 188 180 201 188 180 185 176 176 178 183 180 187 185 185 180 191 203 212 217 225 229 234 237 247 241 250 253 255 260 256 260 256 258 257 265 268 261 266 267 268 265 260 269 272 264 264 263 266 268 264 266 267 263 267 265 276 268 264 263 272 264 270 267 270 270 268 265 257 258 254 250 244 243 233 226 220 222 216 221 217 217 225 217 212 213 214 215 218 215 209 197 212 212 207 207 221 211 206 218 214 208 207 213 210 215 219 226 227 233 231 215 217 229 243 215 231
176 176 168 175 175 171 180 176 178 171 181 179 182 184 185 184 184 186 184 182 186 196 192 216 215 219 224 225 231 229 236 243 241 241 239 241 237 244 249 245 246 247 248 248 249 249 246 247 243 251 245 249 244 248 242 246 249 250 246 255 248 242 252 249 247 250 250 246 247 245 246 248 240 239 230 227 220 216 213 201 193 194 187 191 193 188 191 194 196 195 192 189 192 185 192 188 191 202 190 191 190 207 205 187 185 191 182 207 209 201 188 208 215 203 213 212 215 209 208 220
168 174 178 179 175 175 173 175 179 175 178 176 177 173 171 176 180 185 187 184 179 188 185 189 208 192 215 217 218 223 228 225 226 224 226 231 225 232 230 229 228 233 232 229 231 235 228 230 235 233 234 235 231 229 234 235 236 234 235 238 234 235 237 232 236 234 236 228 229 231 235 229 227 224 218 216 198 192 187 189 193 197 191 195 190 194 186 192 183 190 191 182 191 180 191 185 182 184 185 182 175 180 180 179 181 184 181 182 180 175 183 199 193 186 207 210 188 202 194 208
165 164 172 171 168 165 166 167 163 164 162 160 167 165 172 168 173 170 170 178 176 181 188 188 185 182 183 188 207 211 211 212 209 211 211 211 213 213 199 214 212 217 217 213 215 220 220 217 218 218 221 218 219 216 216 221 218 220 217 223 218 219 223 221 218 216 217 216 219 217 217 214 216 210 195 189 187 194 188 190 183 181 183 183 185 185 182 179 185 183 185 179 180 184 178 176 184 175 180 179 184 182 180 179 179 179 176 179 181 181 180 177 171 173 172 171 177 168 166 174
155 153 158 158 165 161 162 162 163 167 159 162 161 158 167 162 163 171 171 174 174 176 182 187 184 186 185 185 193 191 194 186 184 187 185 192 192 187 187 190 195 192 192 196 200 195 193 196 193 193 198 195 192 198 194 192 196 194 195 192 203 199 196 191 191 192 190 199 196 196 196 196 192 191 188 195 189 189 183 180 177 179 179 173 174 173 174 178 174 176 174 177 175 173 172 174 170 172 169 169 169 173 172 171 175 165 172 168 166 169 177 174 170 170 178 169 175 176 162 177
145 149 148 153 156 153 153 160 156 158 157 158 149 154 159 156 156 162 157 167 165 165 176 174 179 181 179 181 183 185 190 186 188 189 189 188 191 193 191 189 193 192 190 198 194 195 196 196 188 192 190 199 199 195 199 196 199 196 196 195 199 195 199 197 192 197 197 199 197 194 196 196 191 191 186 185 184 180 178 173 172 167 165 167 165 166 170 166 172 168 168 169 172 166 169 165 165 166 165 171 170 168 172 170 163 157 160 165 168 169 161 163 171 168 163 155 163 160 159 141
145 143 147 149 150 148 147 148 149 153 147 148 148 151 153 148 151 150 157 160 160 167 165 171 169 170 175 172 174 178 178 178 182 179 177 178 184 180 183 184 183 182 184 186 183 182 185 188 189 186 181 186 188 188 187 186 185 188 0 185 188 189 186 186 190 186 190 188 183 184 183 185 181 179 174 175 176 173 170 166 163 162 159 158 160 157 165 161 162 163 161 157 159 163 160 159 155 155 162 164 157 158 163 157 155 157 158 158 158 154 159 161 160 157 166 161 158 167 167 187
136 138 137 138 142 149 148 150 144 147 143 145 143 145 146 148 147 146 148 149 158 161 163 164 171 168 169 167 171 169 173 171 179 175 173 178 176 170 173 176 177 181 177 177 177 180 176 180 180 180 179 180 179 181 181 179 181 0 0 178 178 180 181 183 182 177 182 181 179 172 175 176 175 177 172 172 169 167 164 160 160 158 153 155 161 157 160 157 155 154 150 153 160 155 153 155 155 154 155 156 155 157 154 155 157 152 148 150 162 158 153 150 146 150 155 153 155 155 174 163
138 135 135 139 142 143 148 142 140 135 139 140 145 143 141 141 142 145 144 144 148 150 155 156 160 158 163 162 168 166 161 164 165 167 164 168 165 170 164 168 174 0 172 170 173 173 170 171 172 170 174 173 174 173 174 0 172 175 0 172 172 0 176 175 172 173 171 169 174 168 169 166 169 167 167 162 164 158 157 154 149 154 150 150 152 151 151 145 152 156 146 153 149 149 148 148 153 151 154 149 147 144 144 146 151 147 144 144 146 148 148 147 141 153 150 152 148 160 158 156
131 125 126 125 133 134 141 138 135 129 130 132 126 133 141 134 136 133 136 141 137 144 147 153 149 157 158 154 153 160 161 156 159 162 159 155 161 162 0 0 0 0 0 0 0 0 0 165 167 165 167 164 168 166 0 0 0 167 0 163 0 0 0 0 165 166 167 0 162 163 162 159 163 158 157 158 153 158 144 150 150 145 144 148 139 147 141 146 147 148 144 145 143 145 140 137 145 146 138 140 139 141 145 138 139 132 139 136 135 137 142 147 145 148 149 137 138 136 143 130
113 120 110 116 127 134 134 132 135 134 127 136 126 134 125 124 120 140 137 136 139 143 143 148 148 147 153 153 152 156 153 154 155 158 154 154 156 0 0 0 0 0 0 0 0 0 0 0 155 161 162 160 0 0 0 0 0 0 0 0 0 0 0 0 161 162 0 0 0 0 0 157 160 156 153 151 150 150 148 145 143 139 144 142 140 141 142 139 143 140 137 139 138 139 138 139 142 141 142 136 141 133 138 135 130 132 137 133 138 141 138 147 136 146 132 135 141 132 129 159
112 105 117 120 126 124 125 129 128 129 129 121 119 119 116 130 131 131 131 133 135 127 133 145 139 141 142 145 144 149 150 147 153 149 150 144 0 0 0 0 0 0 0 0 0 0 0 0 150 154 155 0 0 0 0 0 0 0 0 0 0 0 0 0 0 0 0 0 0 0 0 0 148 150 149 147 143 140 145 143 126 138 128 128 123 125 136 136 136 137 136 137 129 134 118 127 137 139 133 136 127 135 134 131 127 133 131 132 128 130 133 134 130 138 137 131 128 131 120 127
106 110 106 110 108 112 119 119 115 119 115 113 115 117 128 119 118 120 117 119 130 124 125 123 136 139 139 139 140 143 140 143 142 143 144 143 0 0 0 0 0 0 0 0 0 0 0 0 0 0 0 0 0 0 0 0 0 0 0 0 0 0 0 0 0 0 0 0 0 0 0 0 143 139 140 139 137 131 127 131 127 121 121 122 126 120 126 124 122 127 122 121 116 128 125 127 127 134 123 115 118 133 131 114 119 122 116 121 128 132 128 133 115 119 101 125 111 109 120 107
109 110 117 116 115 114 116 115 120 117 113 116 116 116 120 123 120 127 123 115 115 117 120 114 136 136 136 138 0 135 0 0 0 138 142 0 0 0 0 0 0 0 0 0 0 0 0 0 0 0 0 0 0 0 0 0 0 0 0 0 0 0 0 0 0 0 0 0 0 0 0 0 0 141 123 135 123 124 121 127 123 117 122 124 116 118 118 120 118 118 122 122 115 116 109 123 118 122 120 121 119 122 131 123 132 115 128 114 124 123 130 113 124 122 126 118 104 134 146 134
100 100 107 109 107 100 107 105 100 105 108 102 108 104 107 111 107 112 115 110 115 116 111 117 120 122 123 119 0 128 0 0 0 0 125 0 0 0 0 0 0 0 0 0 0 0 0 0 0 0 0 0 0 0 0 0 0 0 0 0 0 0 0 0 0 0 0 0 0 0 0 0 129 0 0 122 122 119 121 116 117 111 109 114 111 114 111 112 109 113 114 113 110 109 111 104 113 115 114 111 115 113 111 113 109 115 115 109 110 103 105 114 100 118 112 100 97 131 135 142
97 99 91 92 102 102 102 101 102 103 102 104 107 105 107 104 106 111 116 107 107 109 107 106 117 110 118 117 120 121 0 125 0 0 0 0 0 0 0 0 0 0 0 0 0 0 0 0 0 0 0 0 0 0 0 0 0 0 0 0 0 0 0 0 0 0 0 0 0 0 0 0 0 0 0 116 121 117 114 107 112 110 108 105 112 109 108 119 108 110 116 109 113 112 107 113 106 110 102 118 111 107 115 106 108 119 113 108 118 119 109 104 111 96 101 143 114 112 122 150
95 101 100 103 99 99 103 91 92 101 99 96 102 96 96 91 104 105 113 118 111 108 98 107 112 107 115 113 111 119 121 118 121 0 0 0 0 0 0 0 0 0 0 0 0 0 0 0 0 0 0 0 0 0 0 0 0 0 0 0 0 0 0 0 0 0 0 0 0 0 0 0 123 121 107 124 112 115 119 115 105 110 101 117 108 107 107 103 102 103 107 107 111 96 99 102 107 104 107 104 107 110 107 104 108 107 105 94 99 98 106 99 107 98 106 99 136 134 114 123
86 81 80 87 80 87 83 94 91 84 87 91 96 96 91 88 76 94 92 86 90 87 100 104 101 104 116 109 0 0 107 109 117 0 0 0 0 0 0 0 0 0 0 0 0 0 0 0 0 0 0 0 0 0 0 0 0 0 0 0 0 0 0 0 0 0 0 0 0 0 0 115 109 106 106 110 108 102 103 99 101 101 95 88 100 99 89 97 107 101 90 97 104 83 87 99 91 100 87 96 91 96 93 91 80 90 91 91 95 89 79 85 83 91 85 89 100 87 106 116
94 86 91 91 97 95 97 106 92 94 96 93 93 94 99 100 95 93 102 97 97 105 106 102 103 102 112 108 0 104 110 110 119 112 120 106 0 0 113 0 0 117 0 0 0 0 0 0 0 0 0 0 0 0 0 0 0 0 0 0 0 0 0 0 111 0 0 0 110 0 106 107 113 111 116 107 107 114 102 99 112 102 102 90 97 98 106 101 97 101 107 106 108 100 99 104 103 94 103 113 103 99 93 103 92 102 89 91 89 91 92 95 90 99 109 90 103 104 132 150
86 92 89 86 95 96 92 93 84 95 86 90 87 90 85 84 94 97 98 93 100 90 98 109 89 104 105 100 103 107 93 0 105 101 98 101 0 115 118 0 106 0 0 0 0 0 0 0 0 0 0 0 0 0 108 0 0 108 0 0 109 101 105 108 111 109 105 99 111 110 106 99 106 102 110 108 100 88 103 97 92 92 101 87 92 91 92 101 103 92 96 101 107 88 85 81 91 89 94 88 90 82 87 94 90 88 95 92 94 89 90 91 82 88 93 82 105 84 91 108
84 87 80 88 92 92 102 87 89 82 87 89 91 92 88 90 88 87 87 86 93 93 97 85 89 94 90 89 106 93 98 99 98 94 95 111 99 102 106 100 103 95 101 104 108 91 0 0 93 0 0 109 104 93 101 109 107 104 107 102 99 104 109 99 101 110 103 99 99 106 97 104 105 101 105 95 93 95 96 89 91 92 93 95 89 90 95 96 96 94 97 89 94 92 92 93 85 92 93 82 88 90 93 91 88 81 95 86 83 94 88 97 92 105 82 83 99 100 106 97
84 80 86 84 86 85 99 99 87 83 86 80 84 89 82 88 91 93 92 100 85 98 95 86 92 96 95 90 99 97 94 86 95 93 96 95 97 99 94 110 102 95 98 107 100 95 104 0 104 103 97 105 97 97 104 102 106 105 96 103 105 95 96 105 103 100 99 103 96 103 99 106 100 96 104 86 94 93 93 86 100 98 84 93 95 92 90 86 93 88 84 98 86 92 93 92 94 90 104 84 91 101 82 89 88 99 94 94 90 88 85 102 108 92 113 119 125 110 132 116
79 72 71 69 79 85 84 86 86 77 83 81 84 77 88 86 85 88 86 84 92 83 91 90 84 86 93 94 86 92 91 94 80 93 92 94 96 86 89 96 90 90 84 89 96 92 89 101 88 90 94 98 97 89 88 83 103 91 99 88 98 99 81 98 95 98 96 93 95 95 92 87 89 91 84 93 90 96 93 94 85 92 86 89 83 92 87 90 83 88 91 78 88 80 88 86 82 75 83 89 82 86 78 69 81 82 89 83 80 79 84 89 86 89 95 87 110 119 80 76
73 77 82 86 72 84 89 88 84 80 80 90 81 84 84 89 89 91 83 87 84 92 84 92 88 83 92 85 86 89 86 99 92 99 89 92 85 92 91 95 95 82 95 90 87 100 88 86 102 90 93 97 96 87 103 96 91 89 92 93 95 82 89 94 88 85 86 96 107 94 85 96 82 85 97 97 93 85 83 94 90 91 90 87 80 86 90 82 94 93 80 91 78 82 93 84 89 89 82 84 83 85 81 80 79 86 81 91 85 92 92 98 85 131 128 119 129 111 84 206
