0 0 0 0 0 0 0 0 0 0 0 0 0 0 0 0 0 0 0 0 0 0 0 0 0 0 0 0 0 0 0 0 0 0 0 0 0 0 0 0 0 0 0 0 0 0 0 0 0 0 0 0 0 0 0 0 0 0 0 0 0 0 0 0 0 0 0 0 0 0 0 0 0 0 0 0 0 0 0 0 0 0 0 0 0 0 0 0 0 0 0 0 0 0 0 0 0 0 0 0 0 0 0 0 0 0 0 0 0 0 0 0 0 0 0 0 0 0 0 0
0 0 0 0 0 0 0 0 0 0 0 0 0 0 0 0 0 0 0 0 0 0 0 0 0 0 0 0 0 0 0 0 0 0 0 0 0 0 0 0 0 0 0 0 0 0 0 0 0 0 0 0 0 0 0 0 0 0 0 0 0 0 0 0 0 0 0 0 0 0 0 0 0 0 0 0 0 0 0 0 0 0 0 0 0 0 0 0 0 0 0 0 0 0 0 0 0 0 0 0 0 0 0 0 0 0 0 0 0 0 0 0 0 0 0 0 0 0 0 0
0 0 0 0 0 0 0 0 0 0 0 0 0 0 0 0 0 0 0 0 0 0 0 0 0 0 0 0 0 0 0 0 0 0 0 0 0 0 0 0 0 0 0 0 0 0 0 0 0 0 0 0 0 0 0 0 0 0 0 0 0 0 0 0 0 0 0 0 0 0 0 0 0 0 0 0 0 0 0 0 0 0 0 0 0 0 0 0 0 0 0 0 0 0 0 0 0 0 0 0 0 0 0 0 0 0 0 0 0 0 0 0 0 0 0 0 0 0 0 0
0 0 0 0 0 0 0 0 0 0 0 0 0 0 0 0 0 0 0 0 0 0 0 0 0 0 0 0 0 0 0 0 0 0 0 0 0 0 0 0 0 0 0 0 0 0 0 0 0 0 0 0 0 0 0 0 0 0 0 0 0 0 0 0 0 0 0 0 0 0 0 0 0 0 0 0 0 0 0 0 0 0 0 0 0 0 0 0 0 0 0 0 0 0 0 0 0 0 0 0 0 0 0 0 0 0 0 0 0 0 0 0 0 0 0 0 0 0 0 0
0 0 0 0 0 0 0 0 0 0 0 0 0 0 0 0 0 0 0 0 0 0 0 0 0 0 0 0 0 0 0 0 0 0 0 0 0 0 0 0 0 0 0 0 0 0 0 0 0 0 0 0 0 0 0 0 0 0 0 0 0 0 0 0 0 0 0 0 0 0 0 0 0 0 0 0 0 0 0 0 0 0 0 0 0 0 0 0 0 0 0 0 0 0 0 0 0 0 0 0 0 0 0 0 0 0 0 0 0 0 0 0 0 0 0 0 0 0 0 0
0 0 0 0 0 0 0 0 0 0 0 0 0 0 0 0 0 0 0 0 0 0 0 0 0 0 0 0 0 0 0 0 0 0 0 0 0 0 0 502 526 486 506 515 534 512 511 502 496 505 497 505 520 487 463 0 0 0 0 0 0 0 0 0 0 0 0 0 0 0 0 0 0 0 0 0 0 0 0 0 0 0 0 0 0 0 0 0 0 0 0 0 0 0 0 0 0 0 0 0 0 0 0 0 0 0 0 0 0 0 0 0 0 0 0 0 0 0 0 0
0 0 0 0 0 0 0 0 0 0 0 0 0 0 0 0 0 0 0 0 0 0 0 0 0 0 0 0 0 0 0 0 0 0 0 0 0 550 498 514 504 515 508 508 512 517 517 517 519 525 521 514 523 511 522 523 525 524 524 541 0 0 0 0 0 0 0 0 0 0 0 0 0 0 0 0 0 0 0 0 0 0 0 0 0 0 0 0 0 0 0 0 0 0 0 0 0 0 0 0 0 0 0 0 0 0 0 0 0 0 0 0 0 0 0 0 0 0 0 0
0 0 0 0 0 0 0 0 0 0 0 0 0 0 0 0 0 0 0 0 0 0 0 0 0 0 0 0 0 0 0 0 0 0 0 504 505 510 495 491 507 486 496 498 485 507 508 507 500 505 505 507 499 504 509 507 501 500 501 505 518 532 492 484 523 0 0 0 0 0 0 0 0 0 0 0 0 0 0 0 0 0 0 0 0 0 0 0 0 0 0 0 0 0 0 0 0 0 0 0 0 0 0 0 0 0 0 0 0 0 0 0 0 0 0 0 0 0 0 0
0 0 0 0 0 0 0 0 0 0 0 0 0 0 0 0 0 0 0 0 0 0 0 0 0 0 0 0 0 0 0 0 0 498 501 521 503 519 497 497 512 513 512 510 511 506 502 517 515 532 508 504 511 502 508 530 519 509 523 504 511 520 513 518 524 514 542 537 538 593 658 639 591 0 602 654 585 624 603 615 0 0 0 0 0 0 0 0 0 0 0 0 0 0 0 0 0 0 0 0 0 0 0 0 0 0 0 0 0 0 0 0 0 0 0 0 0 0 0 0
0 0 0 0 0 0 0 0 0 0 0 0 0 0 0 0 0 0 0 0 0 0 0 0 0 0 0 0 0 0 0 533 497 502 492 482 486 505 506 493 508 494 502 499 504 500 507 515 524 504 502 502 506 506 503 506 509 503 514 507 510 516 515 507 498 523 515 522 533 558 577 605 561 549 596 581 592 553 611 604 637 595 604 614 0 550 0 574 560 626 600 599 582 505 625 617 568 580 622 590 541 615 601 578 0 0 0 0 0 0 0 0 0 0 0 0 0 0 0 0
0 0 0 0 0 0 0 0 0 0 0 0 0 0 0 0 0 0 0 0 0 0 0 0 0 0 0 0 0 0 489 505 492 505 502 490 494 499 500 515 511 501 502 499 501 507 509 505 508 496 517 500 499 499 505 509 499 503 494 504 505 501 501 519 510 503 516 501 511 514 539 526 545 497 555 550 547 507 557 574 538 558 577 553 577 528 520 562 545 546 538 539 563 572 574 568 536 582 552 558 527 549 568 553 533 514 541 575 575 0 0 0 0 0 0 0 0 0 0 0
0 0 0 0 0 0 0 0 0 0 0 0 0 0 0 0 0 0 0 0 0 0 0 0 0 0 0 0 551 539 502 513 498 508 514 503 498 501 513 512 510 508 499 508 513 504 503 512 508 502 498 508 503 507 511 506 508 505 498 514 515 501 512 514 513 507 515 504 517 529 532 587 568 599 576 602 579 580 593 566 575 620 581 641 590 618 578 574 597 604 592 598 577 528 576 597 618 602 608 592 575 597 569 569 593 624 590 625 620 0 0 0 0 0 0 0 0 0 0 0
0 0 0 0 0 0 0 0 0 0 0 0 0 0 0 0 0 0 0 0 0 0 0 0 0 0 0 485 486 497 494 484 497 487 492 490 508 500 499 492 506 505 503 499 500 502 501 509 505 498 501 503 506 499 511 507 501 504 507 504 507 502 513 507 510 508 504 510 505 503 511 499 536 528 546 513 568 566 562 523 517 518 555 525 523 541 538 537 572 562 554 554 561 521 513 548 551 559 527 512 534 512 542 575 552 505 529 500 475 0 0 0 0 0 0 0 0 0 0 0
0 0 0 0 0 0 0 0 0 0 0 0 0 0 0 0 0 0 0 0 0 0 0 0 0 0 485 491 494 499 497 497 500 503 505 498 501 491 507 502 499 506 502 508 505 502 499 494 502 497 509 502 512 503 501 504 502 506 507 510 504 512 511 510 512 516 516 501 508 509 508 508 537 560 549 557 538 574 526 533 564 562 556 565 536 545 529 537 538 556 575 545 521 528 577 572 548 546 553 576 593 555 584 506 559 543 510 584 494 581 0 0 0 0 0 0 0 0 0 0
0 0 0 0 0 0 0 0 0 0 0 0 0 0 0 0 0 0 0 0 0 0 0 0 0 562 504 499 505 509 496 501 499 494 493 498 494 502 507 495 508 505 494 507 508 510 498 505 508 505 508 505 508 509 499 511 503 508 513 509 515 507 509 520 515 510 503 508 516 523 507 517 497 528 541 548 551 579 574 538 569 577 563 565 565 563 595 546 533 572 567 537 557 569 577 569 609 575 592 563 597 604 579 572 560 571 594 587 542 581 0 0 0 0 0 0 0 0 0 0
0 0 0 0 0 0 0 0 0 0 0 0 0 0 0 0 0 0 0 0 0 0 0 0 0 496 489 493 494 486 489 491 498 503 487 490 491 495 502 499 496 507 503 494 496 505 505 505 494 509 506 509 510 510 502 501 495 494 507 510 501 496 504 513 510 511 517 511 503 511 513 507 506 499 547 538 520 511 531 535 535 524 518 555 520 501 545 546 520 565 563 527 527 529 522 548 522 550 519 534 564 516 534 498 526 542 524 505 504 0 0 0 548 503 0 0 0 0 0 0
0 0 0 0 0 0 0 0 0 0 0 0 0 0 0 0 0 0 0 0 0 0 0 0 489 491 494 498 505 499 496 508 508 500 495 498 500 504 500 494 504 504 495 504 495 505 506 500 497 504 499 505 505 508 504 515 506 503 500 503 510 502 500 511 501 513 503 500 509 515 507 511 514 519 527 564 558 568 534 545 551 569 535 570 568 535 562 548 585 541 535 547 572 538 535 569 532 561 559 554 589 561 555 575 545 555 553 536 559 553 521 579 0 0 0 0 0 0 0 0
0 0 0 0 0 0 0 0 0 0 0 0 0 0 0 0 0 0 0 0 0 0 0 0 487 483 492 490 491 491 495 492 485 480 494 496 492 485 490 501 502 488 495 500 495 508 500 502 497 497 503 503 499 506 504 502 503 502 502 504 507 505 505 506 504 514 510 501 494 510 495 516 515 508 513 515 543 533 552 554 577 553 572 542 519 552 544 547 551 524 551 537 508 536 535 560 577 567 523 535 562 526 522 559 526 501 543 536 547 537 524 0 0 0 0 0 0 0 0 0
0 0 0 0 0 0 0 0 0 0 0 0 0 0 0 0 0 0 0 0 0 0 0 460 485 505 494 497 480 495 490 506 492 492 500 493 499 492 490 502 502 495 500 496 499 505 495 503 509 501 501 495 494 504 508 501 502 502 502 499 508 499 506 503 495 499 513 506 510 504 500 498 507 497 508 510 511 523 517 517 502 546 514 504 542 540 509 520 513 544 532 520 543 523 500 550 508 540 522 512 515 530 503 527 521 534 553 540 514 528 518 0 0 0 0 0 0 0 0 0
0 0 0 0 0 0 0 0 0 0 0 0 0 0 0 0 0 0 0 0 0 0 0 507 487 490 491 498 491 501 500 494 508 492 487 494 486 491 499 503 490 498 499 504 504 502 496 506 499 502 500 500 497 510 504 503 504 511 498 507 508 499 500 504 508 494 503 505 506 514 508 520 505 505 508 513 542 552 545 558 534 529 527 558 540 576 559 565 565 549 597 533 556 540 527 562 570 545 523 566 539 562 544 584 545 551 571 547 613 546 556 589 0 0 0 0 0 0 0 0
0 0 0 0 0 0 0 0 0 0 0 0 0 0 0 0 0 0 0 0 0 0 435 489 484 492 484 499 488 487 483 501 492 494 488 487 492 494 493 494 494 501 501 493 491 492 508 497 503 506 501 499 496 496 503 500 502 502 508 495 505 511 498 499 496 513 498 505 505 507 511 509 506 502 510 504 505 507 520 514 515 507 526 530 522 525 531 485 530 530 522 542 522 545 505 530 512 502 520 529 509 530 533 515 513 518 504 545 532 579 489 0 549 0 0 0 0 0 0 0
0 0 0 0 0 0 0 0 0 0 0 0 0 0 0 0 0 0 0 0 0 0 481 485 485 491 490 485 497 492 493 489 485 486 508 500 484 494 497 497 498 502 499 495 501 497 499 504 494 497 491 495 503 506 495 504 508 507 507 500 503 501 500 508 507 509 510 513 513 507 503 499 512 510 505 507 517 498 519 536 531 507 525 539 507 511 517 493 522 506 520 496 507 493 533 494 507 508 545 523 531 539 527 513 504 532 511 528 491 549 508 506 0 0 0 0 0 0 0 0
0 0 0 0 0 0 0 0 0 0 0 0 0 0 0 0 0 0 0 0 0 0 501 485 488 486 484 487 485 488 481 486 494 484 493 495 488 504 496 496 490 500 503 498 495 494 504 496 496 493 495 504 498 502 494 497 497 509 511 501 507 499 509 507 507 510 513 502 507 501 508 501 510 507 505 514 523 535 529 560 542 508 518 527 552 536 538 535 554 535 572 543 497 556 555 551 539 524 523 520 548 518 538 583 538 556 545 608 592 536 533 512 528 0 0 0 0 0 0 0
0 0 0 0 0 0 0 0 0 0 0 0 0 0 0 0 0 0 0 0 0 0 486 493 498 491 487 492 489 491 488 487 486 494 488 485 490 491 493 487 489 497 496 490 496 493 493 500 502 502 502 505 498 498 504 497 499 495 499 500 496 501 497 503 504 506 502 503 505 502 511 501 500 497 498 522 495 512 534 523 501 516 526 504 534 507 529 532 496 527 478 521 525 532 536 507 509 512 530 521 528 475 509 523 509 519 496 507 547 502 490 529 519 0 0 0 0 0 0 0
0 0 0 0 0 0 0 0 0 0 0 0 0 0 0 0 0 0 0 0 0 0 493 489 489 492 501 492 497 501 486 493 494 488 497 487 495 490 494 496 497 491 497 503 495 501 496 500 504 502 505 498 503 499 506 505 502 505 501 498 508 511 503 501 506 507 502 502 505 508 504 506 505 500 505 508 510 530 552 552 541 534 526 522 534 528 508 512 528 566 510 509 541 524 574 546 533 526 558 525 546 524 564 549 576 563 573 596 520 497 588 590 561 0 0 0 0 0 0 0
0 0 0 0 0 0 0 0 0 0 0 0 0 0 0 0 0 0 0 0 0 0 482 482 485 490 485 486 490 481 495 491 490 484 487 482 493 491 503 490 491 498 495 495 495 490 495 496 498 495 499 498 498 501 497 501 509 506 495 501 505 498 499 505 503 499 502 504 492 498 496 507 504 509 508 507 503 503 541 522 507 534 513 525 522 518 496 538 517 502 533 527 537 501 510 539 536 520 505 508 512 520 488 520 541 549 551 562 559 0 547 0 506 0 0 0 0 0 0 0
0 0 0 0 0 0 0 0 0 0 0 0 0 0 0 0 0 0 0 0 0 497 475 488 485 480 483 485 483 487 483 486 480 490 491 483 494 493 496 491 490 493 494 494 489 494 492 496 492 498 496 498 497 507 505 500 502 493 499 493 501 501 498 509 505 499 504 504 504 508 509 498 505 502 506 511 506 508 511 507 507 494 512 495 489 484 517 509 544 508 494 496 482 482 511 489 521 484 503 501 521 477 491 529 460 501 472 534 504 486 481 514 0 0 0 0 0 0 0 0
0 0 0 0 0 0 0 0 0 0 0 0 0 0 0 0 0 0 0 0 0 466 485 475 491 488 496 488 483 484 487 487 490 491 486 489 488 486 497 487 496 491 493 495 496 494 494 497 506 497 495 498 499 501 503 500 505 505 499 504 502 499 502 498 504 505 503 503 505 504 501 502 505 505 510 510 504 516 527 520 509 515 534 551 562 515 507 525 534 535 535 509 506 536 536 513 527 524 524 524 545 545 544 557 565 555 561 534 533 539 524 540 573 0 0 0 0 0 0 0
0 0 0 0 0 0 0 0 0 0 0 0 0 0 0 0 0 0 0 0 0 437 473 487 481 477 486 480 485 480 488 480 486 486 485 491 484 488 496 488 488 486 488 492 491 488 496 495 496 493 495 494 495 495 499 502 497 500 502 495 505 502 498 504 499 504 502 501 500 497 497 500 495 507 505 498 501 501 513 501 495 499 500 504 484 504 509 516 491 509 506 490 512 487 512 500 470 503 481 507 511 511 525 508 483 492 476 494 516 477 490 478 499 0 0 0 0 0 0 0
0 0 0 0 0 0 0 0 0 0 0 0 0 0 0 0 0 0 0 0 0 487 482 480 486 476 488 481 485 483 479 488 484 487 490 487 490 488 486 492 493 493 493 493 504 495 492 495 496 490 490 498 498 500 499 492 503 500 503 500 493 499 497 506 496 499 497 499 497 506 503 500 505 497 501 506 502 512 505 497 524 509 497 505 506 500 491 507 527 509 539 512 488 502 493 521 471 512 491 533 513 522 490 506 529 511 483 513 499 468 508 489 488 0 0 0 0 0 0 0
0 0 0 0 0 0 0 0 0 0 0 0 0 0 0 0 0 0 0 0 0 473 486 483 488 478 478 485 487 482 488 491 491 489 488 489 486 490 486 490 490 493 491 493 494 494 491 497 493 497 498 501 498 500 497 495 496 500 504 497 502 503 500 502 504 500 504 507 510 505 515 506 495 506 501 503 505 504 527 538 519 514 533 541 510 528 526 529 513 513 544 549 513 519 549 543 525 526 531 544 547 522 564 520 537 508 545 559 517 530 552 540 0 0 0 0 0 0 0 0
0 0 0 0 0 0 0 0 0 0 0 0 0 0 0 0 0 0 0 0 0 440 477 474 476 480 478 476 478 475 486 479 482 482 482 486 480 486 492 491 485 485 491 492 491 487 494 493 493 490 488 494 496 494 497 500 490 499 500 502 496 491 499 499 500 503 498 501 500 497 495 497 496 504 507 499 499 504 495 487 501 497 497 499 490 501 506 480 502 497 484 489 510 484 491 478 505 489 469 488 524 481 468 519 467 480 472 486 492 527 476 482 471 0 0 0 0 0 0 0
0 0 0 0 0 0 0 0 0 0 0 0 0 0 0 0 0 0 0 0 0 482 483 484 482 477 481 481 485 476 483 484 487 481 486 489 481 487 487 490 491 490 494 492 493 491 492 495 492 495 496 498 499 498 492 496 499 502 500 501 499 498 502 498 503 497 497 497 502 502 504 499 500 504 497 505 504 493 512 515 525 503 522 527 515 520 522 509 534 502 533 537 519 515 515 521 553 495 517 530 542 529 561 525 528 532 528 530 526 519 531 514 533 519 0 0 0 0 0 0
0 0 0 0 0 0 0 0 0 0 0 0 0 0 0 0 0 0 0 0 0 442 476 472 477 481 477 474 479 478 480 483 480 485 481 483 483 490 483 489 487 487 488 491 489 489 486 489 490 491 490 493 490 494 499 496 495 500 496 496 501 499 499 497 499 498 502 501 499 499 500 498 495 501 498 496 499 494 497 485 496 486 500 510 492 496 496 515 514 527 511 489 490 488 498 474 492 498 516 522 502 479 493 510 490 493 497 507 529 515 507 535 485 0 0 0 0 0 0 0
0 0 0 0 0 0 0 0 0 0 0 0 0 0 0 0 0 0 0 0 0 470 476 475 469 475 477 475 479 483 480 479 478 484 487 487 480 482 483 487 486 484 486 486 484 494 482 493 491 490 493 489 494 495 495 492 492 494 493 491 494 496 500 500 501 497 493 496 492 495 500 503 499 503 497 501 502 500 480 499 505 503 492 500 493 478 480 500 491 509 498 489 493 492 478 494 472 494 502 476 489 499 498 478 514 495 472 478 459 491 500 472 440 468 0 0 0 0 0 0
0 0 0 0 0 0 0 0 0 0 0 0 0 0 0 0 0 0 0 0 0 465 466 469 472 481 479 478 473 478 480 483 482 483 481 486 486 481 485 483 488 483 490 491 488 486 487 486 490 496 487 493 493 494 501 498 497 498 499 494 495 497 495 503 495 501 498 500 494 497 497 498 499 502 503 498 501 505 499 509 527 507 504 497 515 496 515 500 499 500 506 524 498 521 505 489 544 520 517 526 521 513 504 493 537 510 503 498 520 511 519 535 505 462 0 0 0 0 0 0
0 0 0 0 0 0 0 0 0 0 0 0 0 0 0 0 0 0 0 0 0 468 471 468 473 471 476 473 471 479 480 483 481 477 484 485 482 479 478 489 482 486 489 489 487 488 487 493 491 490 489 488 491 493 495 494 490 494 494 492 499 497 496 499 497 498 495 502 499 494 499 495 497 497 495 497 499 498 496 492 504 492 481 483 478 495 499 515 494 497 493 512 475 468 480 490 470 475 485 513 500 502 504 473 467 522 462 500 522 499 470 449 552 0 0 0 0 0 0 0
0 0 0 0 0 0 0 0 0 0 0 0 0 0 0 0 0 0 0 0 0 0 472 480 476 477 470 476 482 477 479 475 486 481 481 474 484 485 486 489 487 484 487 486 486 491 487 487 492 492 493 497 488 489 496 498 490 498 489 492 501 500 497 497 495 499 496 490 496 491 499 499 497 492 498 495 494 494 495 486 486 493 501 503 481 496 515 487 503 515 499 508 491 486 506 504 487 531 500 497 495 487 526 499 491 470 473 494 490 492 476 470 432 487 488 0 0 0 0 0
0 0 0 0 0 0 0 0 0 0 0 0 0 0 0 0 0 0 0 0 0 0 506 471 473 473 480 477 478 480 482 480 481 486 480 482 482 486 488 480 484 487 489 488 489 492 489 492 495 486 492 492 494 494 494 494 499 491 495 497 496 501 497 497 502 502 498 494 491 498 501 496 500 496 496 498 494 497 498 529 530 525 509 509 532 525 520 525 534 487 526 512 534 539 533 526 507 528 508 509 505 501 507 488 508 546 526 532 535 541 541 514 521 534 0 0 0 0 0 0
0 0 0 0 0 0 0 0 0 0 0 0 0 0 0 0 0 0 0 0 0 0 524 467 469 478 470 476 470 473 477 479 481 482 483 482 480 482 480 484 483 483 486 483 485 488 490 486 489 498 489 490 490 498 492 498 497 486 490 495 495 493 495 496 494 496 498 495 497 493 495 496 495 499 495 492 492 505 492 507 496 494 500 498 504 495 506 507 507 514 522 504 522 497 487 504 501 515 476 509 486 513 476 468 465 487 486 511 485 476 493 507 478 447 463 488 0 0 0 0
0 0 0 0 0 0 0 0 0 0 0 0 0 0 0 0 0 0 0 0 0 0 606 478 474 480 481 479 480 480 479 481 476 478 481 485 487 486 485 486 487 487 487 489 490 489 492 493 495 489 492 495 501 493 493 494 493 495 496 499 496 494 498 502 497 494 495 499 500 491 492 501 494 498 499 488 500 498 513 515 525 507 522 508 524 532 513 534 532 512 526 538 554 533 546 542 538 531 533 529 526 515 507 513 524 526 505 527 525 529 502 526 541 516 549 514 0 0 0 0
0 0 0 0 0 0 0 0 0 0 0 0 0 0 0 0 0 0 0 0 0 0 0 492 469 472 477 471 477 474 472 480 475 484 478 478 476 486 480 486 483 484 485 488 490 486 487 491 490 493 490 493 495 491 494 490 487 494 493 501 493 495 491 495 492 496 495 499 497 498 502 496 500 493 492 493 492 500 487 493 502 492 479 485 490 502 499 502 492 490 493 514 501 520 505 522 486 498 505 520 508 518 498 454 508 509 499 490 503 540 486 530 479 0 0 0 0 0 0 0
0 0 0 0 0 0 0 0 0 0 0 0 0 0 0 0 0 0 0 0 0 0 0 493 475 473 472 472 480 472 479 474 476 479 481 477 476 474 485 479 479 482 487 489 482 482 489 489 491 490 497 493 491 492 496 489 491 494 494 490 492 493 492 492 495 492 497 499 494 492 494 496 494 488 487 489 485 492 489 495 485 481 482 486 483 495 484 498 495 487 468 492 478 494 487 477 475 475 477 491 514 473 459 470 464 456 482 469 471 450 473 447 445 453 0 0 0 0 0 0
0 0 0 0 0 0 0 0 0 0 0 0 0 0 0 0 0 0 0 0 0 0 0 526 475 469 474 473 473 474 476 480 479 476 479 482 480 480 476 481 480 480 488 484 485 489 490 486 487 487 491 496 494 490 492 490 491 492 488 491 495 491 494 496 499 494 496 496 495 494 494 492 494 499 496 496 493 496 505 514 502 507 517 504 514 526 519 499 511 505 495 520 500 495 521 487 516 529 513 508 507 505 535 504 498 474 512 482 467 517 505 554 487 489 0 0 0 0 0 0
0 0 0 0 0 0 0 0 0 0 0 0 0 0 0 0 0 0 0 0 0 0 0 0 471 468 469 473 466 472 472 472 473 480 480 476 480 477 481 475 475 482 480 482 485 484 485 485 494 489 487 493 490 494 493 490 489 493 488 497 493 496 489 491 488 497 494 491 499 496 499 492 491 491 489 486 489 499 489 507 486 491 487 491 494 515 473 491 478 486 512 473 475 479 522 475 461 522 491 499 488 497 491 502 472 473 460 455 450 474 451 439 490 439 442 421 0 0 0 0
0 0 0 0 0 0 0 0 0 0 0 0 0 0 0 0 0 0 0 0 0 0 0 0 492 461 466 477 471 476 475 470 476 476 476 474 482 476 477 483 482 477 480 483 483 487 486 487 488 491 494 492 494 493 487 491 494 485 493 492 492 491 491 491 492 500 496 491 497 492 500 496 496 494 494 490 484 480 489 488 489 504 489 487 491 495 492 503 502 501 506 503 520 506 509 516 509 500 501 493 495 493 484 518 484 483 445 469 471 473 512 491 477 479 515 469 0 0 0 0
0 0 0 0 0 0 0 0 0 0 0 0 0 0 0 0 0 0 0 0 0 0 0 0 0 482 469 467 474 472 474 471 479 474 473 479 478 481 477 480 482 480 483 483 484 481 486 486 488 488 485 489 485 486 485 486 489 484 491 497 491 494 497 493 493 491 494 497 495 494 492 497 492 493 495 489 488 479 495 500 490 481 498 500 491 486 504 492 517 492 510 494 500 495 523 525 505 508 498 506 519 499 498 460 513 511 477 488 467 501 490 449 509 510 0 0 0 0 0 0
0 0 0 0 0 0 0 0 0 0 0 0 0 0 0 0 0 0 0 0 0 0 0 0 0 527 471 469 467 473 469 473 475 474 476 475 476 475 478 476 477 480 479 482 477 481 476 479 486 481 487 481 483 491 489 495 487 482 487 495 493 491 494 486 492 491 492 488 491 492 496 492 495 494 487 487 483 488 476 478 482 493 483 479 483 504 504 477 491 495 500 490 482 482 488 506 502 496 484 508 498 517 483 515 449 450 472 468 493 448 432 465 434 479 0 0 0 0 0 0
0 0 0 0 0 0 0 0 0 0 0 0 0 0 0 0 0 0 0 0 0 0 0 0 0 0 491 473 463 480 468 470 472 470 478 477 478 474 480 478 474 476 478 483 487 480 481 482 487 482 487 490 489 485 485 487 490 488 491 492 491 490 493 494 495 491 494 487 494 488 496 494 488 489 493 502 479 500 496 501 482 486 499 494 479 494 505 488 500 493 495 509 497 512 482 519 490 507 515 497 488 523 534 483 475 512 508 483 503 460 528 509 457 517 0 0 0 0 0 0
0 0 0 0 0 0 0 0 0 0 0 0 0 0 0 0 0 0 0 0 0 0 0 0 0 0 0 472 468 464 464 470 473 469 471 477 477 477 476 475 477 480 474 479 482 480 477 478 486 480 483 482 482 484 483 480 482 482 483 488 488 486 492 491 486 490 492 491 494 492 497 485 487 481 486 486 484 482 495 481 493 489 493 488 484 479 503 481 488 497 485 484 477 478 481 519 474 480 478 504 494 497 489 449 467 439 482 475 471 482 483 449 476 454 0 0 0 0 0 0
0 0 0 0 0 0 0 0 0 0 0 0 0 0 0 0 0 0 0 0 0 0 0 0 0 0 0 470 464 466 467 468 471 474 470 475 477 471 476 475 473 478 479 478 480 480 477 479 480 480 483 481 487 481 479 483 482 481 483 485 489 490 491 488 487 489 489 489 484 486 487 490 481 463 483 497 491 484 478 478 479 477 483 472 472 484 481 469 477 487 480 485 473 476 475 506 490 473 486 469 485 477 491 470 469 477 459 462 467 433 459 433 448 479 458 0 0 0 0 0
0 0 0 0 0 0 0 0 0 0 0 0 0 0 0 0 0 0 0 0 0 0 0 0 0 0 0 0 510 464 466 467 471 468 473 467 475 474 473 478 477 482 477 476 481 481 474 479 478 487 485 482 483 486 484 476 485 487 486 484 487 487 485 487 482 489 489 482 488 487 487 490 479 493 494 477 475 486 481 485 484 493 493 511 484 491 501 493 483 499 509 492 504 480 481 492 479 490 506 489 497 489 513 504 457 463 466 473 487 467 487 526 499 495 525 0 0 0 0 0
0 0 0 0 0 246 232 238 270 0 0 0 0 0 0 0 0 0 0 0 0 0 0 0 0 0 0 0 0 494 456 466 464 466 465 469 470 467 472 470 471 473 477 473 475 475 472 476 483 477 480 486 482 480 477 481 485 486 483 490 484 487 483 483 482 489 487 480 480 481 475 485 479 480 469 476 467 477 485 472 467 472 473 494 475 478 477 474 482 482 476 484 480 492 485 461 445 466 463 510 483 480 489 477 447 460 484 479 471 467 472 459 423 460 453 0 0 0 0 0
0 0 0 0 230 229 233 234 234 300 357 0 0 0 0 0 0 0 0 0 0 0 0 0 0 0 0 0 0 0 466 467 470 463 470 472 475 473 473 470 469 473 471 474 480 476 481 476 481 482 479 485 484 486 482 488 483 484 483 483 480 483 486 486 487 484 481 485 480 487 484 486 478 490 482 477 481 481 479 473 488 481 487 485 481 488 482 485 479 485 478 485 479 475 486 494 488 474 500 493 472 505 512 461 471 443 473 474 492 450 499 459 488 0 0 0 0 0 0 0
0 0 0 249 229 228 222 230 235 239 330 0 0 0 0 0 0 0 0 0 0 0 0 0 0 0 0 0 0 0 0 472 462 469 466 471 473 467 471 471 472 472 471 474 476 478 480 481 477 480 478 478 479 479 484 481 485 481 486 484 482 486 477 487 479 478 486 479 480 489 479 481 483 483 486 491 476 484 496 497 500 481 493 474 498 480 484 489 486 479 490 501 501 480 482 508 508 505 509 530 510 502 527 479 459 511 482 485 498 479 516 469 507 496 501 0 0 0 0 0
199 232 249 281 260 281 304 231 236 241 310 0 388 394 412 393 402 413 436 431 457 458 431 447 439 441 445 446 451 451 439 464 461 468 467 462 467 461 468 465 465 467 472 462 478 474 475 473 476 479 470 472 479 478 481 479 476 474 477 484 473 476 477 477 483 474 479 474 478 480 479 467 469 469 473 452 470 482 480 476 474 454 465 466 473 476 473 466 465 501 467 477 478 483 477 466 467 473 468 481 492 476 470 465 463 433 469 475 437 458 441 455 453 452 469 0 0 0 0 0
229 223 231 265 256 258 282 234 234 269 415 407 422 414 388 405 413 417 418 422 407 429 416 441 438 432 437 439 434 446 455 463 462 462 452 459 460 457 462 457 463 468 460 468 463 471 468 474 477 473 466 470 469 472 467 472 468 475 481 471 479 476 476 478 472 475 475 474 476 478 474 474 473 479 466 463 462 459 464 471 464 460 464 459 468 460 463 463 461 462 477 474 451 458 457 462 454 458 459 468 450 455 456 461 463 475 444 474 442 467 457 454 447 463 526 450 498 486 0 0
175 195 198 210 224 219 237 228 225 328 372 361 369 336 362 344 374 356 363 383 378 389 391 390 407 413 424 414 422 436 436 442 446 438 442 448 438 442 446 448 441 451 447 452 450 450 454 455 452 451 455 453 456 453 457 456 458 453 455 458 460 460 458 458 464 453 458 458 451 462 458 452 449 443 430 438 441 435 428 431 433 426 424 439 420 424 417 429 432 422 415 423 418 420 415 421 420 430 425 432 417 420 413 421 427 403 416 435 429 404 417 407 401 390 421 414 423 443 0 408
266 292 244 228 228 227 232 231 237 318 317 337 334 327 327 341 338 335 340 341 333 347 354 374 370 390 386 396 407 413 412 429 419 433 425 428 431 430 427 425 430 433 431 433 432 433 433 435 438 437 447 442 441 438 440 447 443 440 440 441 438 444 442 441 441 441 441 441 440 440 434 428 432 426 417 419 403 398 412 396 396 394 384 412 402 401 398 394 394 400 397 387 395 391 401 392 387 389 393 393 405 382 391 391 386 385 369 380 380 400 382 376 388 373 389 408 359 401 358 0
301 306 286 250 237 232 234 252 285 319 304 310 309 296 323 328 324 314 318 330 329 315 332 347 366 369 391 388 394 398 405 406 404 407 402 406 407 413 410 418 416 417 416 409 414 414 414 424 420 416 418 415 424 418 422 424 423 424 424 427 420 423 424 417 420 422 425 417 416 419 415 418 409 404 393 393 389 375 370 358 364 362 357 356 365 352 367 364 347 372 370 361 359 367 372 366 365 356 365 365 360 361 362 375 371 369 357 361 359 344 352 383 379 390 362 385 369 356 366 375
267 265 268 260 262 253 248 268 281 273 268 281 263 277 277 274 289 280 286 272 296 300 312 319 325 347 351 364 365 377 376 383 385 388 391 384 388 391 392 396 393 394 395 389 395 393 393 380 393 390 384 392 394 397 397 387 389 397 401 399 389 395 400 397 392 380 393 390 396 393 392 387 386 372 366 350 358 347 335 334 338 326 325 333 320 316 329 326 331 323 326 320 334 331 337 337 335 316 327 329 327 315 325 337 341 330 333 316 329 318 316 329 329 329 323 304 314 302 316 310
254 243 252 251 253 251 252 254 260 267 262 267 262 253 259 260 270 255 267 267 273 281 300 305 306 317 335 354 351 364 358 373 358 366 363 365 372 374 374 366 368 375 377 375 369 372 366 372 363 375 375 371 376 374 384 376 369 378 379 380 384 372 384 385 375 380 373 373 370 373 369 371 366 353 356 347 332 318 315 305 313 308 304 296 300 318 302 302 300 296 307 314 307 314 311 311 311 301 302 293 306 311 311 299 302 297 323 301 305 303 316 295 311 311 300 308 326 332 311 328
238 225 229 232 234 239 242 235 248 234 244 245 249 253 246 244 244 245 251 257 262 271 274 281 292 302 307 333 331 328 336 341 343 338 345 344 347 340 342 343 352 347 346 345 352 345 344 354 352 349 348 352 344 351 349 350 348 350 360 347 347 351 350 346 348 349 350 357 349 348 342 341 348 335 328 319 314 295 296 291 283 285 281 280 288 283 282 284 274 270 281 285 286 284 274 275 275 280 279 283 281 282 273 283 280 284 275 289 282 293 279 291 304 283 291 297 283 272 300 308
207 213 226 221 226 219 223 222 226 221 224 222 226 232 221 225 227 229 234 236 241 247 257 264 270 284 293 297 295 305 310 321 320 319 318 322 319 323 323 327 318 318 321 319 329 326 329 333 327 327 321 326 328 324 328 320 324 319 327 322 327 326 324 328 328 326 329 327 329 320 321 316 318 314 309 306 283 280 272 266 268 262 259 264 266 257 259 262 251 251 258 260 257 253 258 259 265 255 266 260 257 260 258 271 262 250 261 262 258 272 259 245 261 259 258 259 261 268 274 291
204 202 203 215 219 220 215 223 209 220 207 212 212 225 211 216 214 223 218 222 226 224 245 249 256 267 269 281 283 284 294 301 294 294 296 298 295 302 303 306 302 300 296 308 311 299 300 300 310 304 311 306 298 304 301 303 307 304 310 304 303 307 316 309 307 308 304 304 310 306 295 301 300 289 288 278 271 263 254 259 251 247 247 246 245 244 248 240 243 245 250 244 251 248 259 240 239 239 250 243 244 246 241 243 251 251 242 249 249 256 250 265 250 269 261 256 261 255 267 278
200 194 203 197 196 204 202 208 184 184 203 184 205 191 202 208 208 208 211 209 216 224 228 236 239 245 247 261 267 266 269 265 274 271 276 282 278 278 280 285 278 286 283 286 283 286 283 281 285 280 275 279 273 281 278 282 288 285 284 286 284 290 282 287 282 291 286 287 286 282 284 278 281 271 263 261 252 244 244 232 233 226 230 230 226 223 221 226 228 239 234 233 227 230 224 231 227 221 221 229 225 227 232 226 218 216 227 230 237 235 238 221 241 223 258 236 241 220 246 247
173 175 191 173 182 184 199 191 189 179 184 182 181 178 182 180 188 185 189 188 208 196 216 224 224 232 241 240 245 252 258 255 260 257 257 258 257 256 268 269 267 265 265 268 263 263 266 269 263 263 263 268 266 266 265 263 262 266 264 276 269 266 267 271 268 269 269 269 266 269 265 259 254 252 253 243 237 230 225 221 221 217 216 217 219 214 214 211 214 199 213 216 198 209 218 218 211 200 209 210 221 218 218 215 211 214 219 211 222 221 215 228 233 218 215 230 239 221 213 240
172 174 172 177 170 173 178 179 176 173 181 177 179 182 183 187 183 186 184 184 208 193 208 218 217 220 225 222 226 232 235 242 240 242 238 243 242 245 247 245 244 245 250 245 250 254 246 248 244 251 245 253 243 246 245 248 249 250 252 252 250 247 253 244 243 257 249 249 242 247 245 244 240 240 236 229 223 218 215 199 200 192 189 191 192 194 193 194 190 188 187 192 197 187 193 188 189 186 188 193 190 208 192 191 192 186 204 200 203 187 186 207 218 208 211 204 199 195 217 214
169 172 173 172 170 178 173 171 173 175 174 174 176 171 173 176 179 177 179 182 182 191 185 192 208 190 212 214 215 226 228 220 219 221 225 224 231 229 230 230 225 231 232 233 233 233 229 228 230 233 234 232 233 229 234 230 235 234 234 234 229 234 237 235 232 235 233 230 231 229 234 230 224 226 218 216 197 198 198 195 192 195 193 191 189 195 195 193 192 189 191 191 189 191 188 181 187 185 188 181 187 184 178 177 181 177 187 185 176 179 176 185 199 188 199 209 199 199 194 199
168 165 166 169 166 167 170 166 171 161 168 164 170 167 174 172 177 173 177 184 178 184 190 181 188 188 189 190 190 209 196 211 207 212 215 213 216 199 214 214 217 219 220 217 219 221 220 220 219 222 216 220 216 219 221 224 219 221 221 226 220 222 223 217 223 201 217 217 220 221 223 218 218 212 195 192 187 193 193 191 188 185 190 185 185 183 188 186 184 181 185 184 182 178 186 181 176 182 182 181 181 184 185 182 183 179 179 176 173 176 180 174 179 192 203 177 198 196 205 236
151 153 157 156 166 164 161 161 163 164 157 156 160 158 161 161 163 168 165 175 171 175 181 179 183 185 188 185 192 188 193 188 195 183 186 194 189 187 188 190 192 192 187 193 197 198 210 194 195 193 195 197 193 195 193 194 191 196 196 196 198 199 199 193 196 196 192 193 198 194 201 195 197 193 198 196 196 187 183 179 179 178 179 175 177 172 176 175 181 177 172 177 174 173 171 176 166 167 168 171 169 177 177 173 173 166 170 167 173 171 173 175 173 176 177 177 165 170 174 186
145 148 153 148 154 154 157 156 160 158 159 157 153 154 157 152 154 163 156 164 165 168 175 173 178 180 175 181 183 184 190 185 188 192 187 185 189 194 189 191 193 190 194 197 193 188 194 196 197 191 196 196 194 198 196 193 198 196 196 197 198 194 198 199 191 193 195 195 196 192 194 192 194 189 188 187 182 181 175 174 170 172 168 165 167 166 168 163 171 166 166 168 177 167 170 163 164 164 164 171 168 169 171 167 163 162 157 160 166 166 166 167 172 165 168 172 156 168 172 156
147 143 146 146 145 149 150 153 151 153 149 150 152 155 150 149 154 152 157 157 163 164 166 170 173 172 172 174 177 179 176 175 183 178 177 180 183 180 183 185 180 181 186 186 182 184 186 186 187 183 184 187 189 190 187 186 190 189 0 187 188 188 185 186 189 185 192 191 187 186 185 185 184 178 178 178 174 174 171 165 161 158 161 161 160 162 165 164 164 162 159 162 158 164 163 164 157 160 163 163 161 166 162 157 155 156 162 157 161 159 155 159 156 166 159 162 165 173 162 175
136 137 138 140 139 147 150 149 144 145 141 144 140 144 145 146 144 148 146 150 157 161 164 163 167 166 170 165 168 168 171 172 178 174 170 171 174 172 172 177 173 178 176 178 174 177 177 177 176 176 179 173 179 179 178 178 181 0 0 177 179 178 179 181 179 176 179 178 180 172 174 176 174 174 172 168 166 165 161 159 157 155 154 156 161 154 155 154 154 153 149 156 160 152 153 151 152 152 151 153 154 150 154 153 157 146 148 150 157 155 158 147 152 158 150 154 154 152 150 150
139 133 130 135 144 143 148 142 142 142 139 140 140 143 143 138 142 146 146 146 147 154 156 156 161 159 161 161 165 163 162 165 168 168 168 168 163 168 167 170 172 0 172 168 172 171 173 172 172 173 174 173 174 172 173 0 174 172 0 175 173 0 0 174 171 171 175 169 173 170 169 165 169 169 166 163 164 158 156 154 151 152 154 151 148 150 151 146 149 153 145 152 149 148 149 147 150 148 154 147 145 143 150 150 148 144 144 143 146 151 151 147 147 150 152 153 148 154 148 163
128 125 129 126 136 135 142 140 134 122 134 131 134 132 137 137 139 125 137 143 137 142 151 152 149 159 159 155 158 161 159 155 158 161 159 157 163 162 0 0 0 0 0 0 0 0 0 168 167 165 166 162 168 168 0 0 0 168 0 163 0 0 0 0 166 0 165 0 159 163 161 161 160 158 154 157 153 155 148 148 146 149 144 145 144 147 145 143 145 148 148 144 142 144 141 143 142 148 143 144 142 138 141 138 134 137 136 136 136 142 142 146 148 153 145 141 138 145 147 135
115 127 121 124 127 131 134 135 137 130 126 131 126 127 125 128 120 136 137 137 137 142 147 147 146 149 154 154 155 152 155 152 158 156 153 156 154 0 0 0 0 0 0 0 0 0 0 0 0 160 165 161 0 0 0 0 0 0 0 0 0 0 0 0 159 159 0 0 0 0 0 156 159 155 153 149 147 151 149 144 139 131 143 140 141 139 142 137 145 139 126 135 137 141 131 139 138 140 140 127 136 137 139 134 129 129 132 133 137 141 132 145 135 144 143 129 134 129 134 156
110 107 116 124 128 126 127 132 128 129 132 129 118 119 121 128 125 124 131 134 134 125 132 143 140 145 143 145 143 147 150 146 153 151 148 151 0 0 0 0 0 0 0 0 0 0 0 0 152 154 157 0 0 0 0 0 0 0 0 0 0 0 0 0 0 0 0 0 0 0 0 0 150 151 149 149 145 143 142 145 138 140 127 129 127 128 136 140 129 131 137 130 132 129 122 130 140 136 135 134 130 139 135 130 132 130 132 132 132 141 137 136 138 142 150 136 128 133 118 140
103 109 112 111 106 115 127 119 113 123 115 115 117 115 125 122 119 121 128 118 131 122 127 123 136 135 141 140 142 145 145 142 144 142 146 143 0 0 0 0 0 0 0 0 0 0 0 0 0 0 0 0 0 0 0 0 0 0 0 0 0 0 0 0 0 0 0 0 0 0 0 0 142 139 142 140 137 131 129 141 127 121 121 122 126 121 126 123 123 125 127 122 114 128 124 129 128 133 123 120 119 121 132 119 120 121 126 129 133 141 132 136 128 129 123 125 118 112 118 132
111 107 112 114 114 117 113 125 120 117 115 118 114 114 120 123 120 128 122 116 119 114 121 118 128 136 136 137 0 135 128 0 0 136 141 0 0 0 0 0 0 0 0 0 0 0 0 0 0 0 0 0 0 0 0 0 0 0 0 0 0 0 0 0 0 0 0 0 0 0 0 0 0 142 136 125 125 122 119 126 122 115 120 123 115 120 119 119 118 117 119 126 117 118 115 119 119 121 122 117 121 122 129 132 115 113 118 123 125 121 118 110 119 115 136 120 108 127 118 150
101 100 108 111 105 104 103 105 102 103 111 107 106 108 107 109 107 113 116 111 112 116 112 115 120 120 124 122 0 126 0 0 0 0 0 0 0 0 0 0 0 0 0 0 0 0 0 0 0 0 0 0 0 0 0 0 0 0 0 0 0 0 0 0 0 0 0 0 0 0 0 0 132 0 0 126 123 120 125 114 118 114 109 116 112 119 111 114 109 114 114 114 107 108 111 105 112 117 115 112 113 115 112 115 115 117 108 112 110 102 109 116 106 126 118 120 125 134 116 145
96 101 90 95 101 102 104 100 104 104 101 105 104 106 105 104 106 107 114 104 109 111 104 109 113 108 113 121 121 122 0 128 0 0 0 0 0 0 0 0 0 0 0 0 0 0 0 0 0 0 0 0 0 0 0 0 0 0 0 0 0 0 0 0 0 0 0 0 0 0 0 0 0 121 0 115 119 113 115 110 112 113 104 105 110 108 112 117 107 108 112 111 108 112 109 115 106 108 98 117 107 108 109 99 110 118 109 111 114 113 102 100 109 99 105 122 107 111 104 133
95 103 98 102 99 101 102 93 94 96 97 96 103 92 98 93 105 100 114 117 111 108 99 112 111 106 113 112 114 121 118 119 122 0 0 0 0 0 0 0 0 0 0 0 0 0 0 0 0 0 0 0 0 0 0 0 0 0 0 0 0 0 0 0 0 0 0 0 0 0 0 0 124 121 0 122 112 114 119 117 108 111 102 120 109 110 103 102 104 105 104 106 111 92 102 100 105 100 110 106 109 108 110 106 108 111 112 97 103 101 103 99 105 94 106 123 137 125 123 117
75 83 82 85 80 84 80 92 87 83 92 92 95 93 91 89 76 95 89 89 91 85 100 107 101 99 113 106 0 0 107 104 115 0 110 0 0 0 0 0 0 0 0 0 0 0 0 0 0 0 0 0 0 0 0 0 0 0 0 0 0 0 0 0 0 0 0 0 0 0 0 116 111 107 108 110 108 105 105 101 100 102 98 88 102 98 87 103 106 97 91 94 104 85 84 94 95 105 86 97 91 94 91 91 85 96 94 96 95 82 85 90 81 90 101 90 100 90 87 141
95 87 89 87 97 96 94 104 90 94 96 90 93 92 97 94 96 91 101 95 97 103 104 103 100 106 110 106 0 104 109 107 119 112 119 109 0 0 113 0 0 117 0 0 0 0 0 0 0 0 0 0 0 0 0 0 0 0 0 0 116 0 0 0 112 0 0 0 109 0 109 108 120 112 114 107 108 112 99 98 112 104 103 88 92 98 104 103 100 102 108 104 108 99 100 104 95 96 98 109 100 95 95 99 89 104 100 91 81 81 86 92 82 92 95 89 124 92 120 84
86 91 91 92 96 95 89 96 84 94 87 89 88 91 90 84 94 100 95 93 98 95 99 111 87 103 106 101 103 107 96 0 105 100 100 103 0 114 115 0 109 0 0 0 0 0 0 0 0 0 0 0 0 0 0 0 0 110 0 0 0 108 104 112 116 109 107 100 113 106 106 105 103 102 111 109 101 93 104 97 94 96 100 87 92 91 92 102 105 95 95 102 107 85 85 84 89 94 93 89 95 89 87 95 89 91 100 92 101 88 94 88 91 97 104 94 125 131 149 103
83 85 82 86 91 90 102 87 90 81 90 88 83 91 92 90 91 90 87 90 79 94 94 83 86 91 93 91 104 87 94 97 98 97 95 108 99 104 103 104 104 96 98 109 103 90 0 0 95 0 0 107 104 93 104 109 109 104 108 103 102 106 111 104 100 110 104 99 100 107 97 105 105 97 102 92 93 92 99 89 90 91 92 96 97 91 88 88 93 95 99 87 94 92 94 91 84 89 93 83 88 90 92 89 88 83 96 88 79 93 87 97 98 109 77 95 104 106 134 123
84 79 84 84 86 83 100 100 87 83 83 84 82 87 84 90 90 93 91 97 87 99 92 85 90 95 93 90 99 98 94 86 95 97 98 96 100 101 96 108 102 95 96 107 101 95 103 0 105 99 96 104 97 99 101 99 100 107 97 108 104 95 95 106 106 99 98 102 96 105 97 102 100 97 104 85 94 95 94 83 98 95 84 93 95 94 87 86 96 89 85 96 90 91 94 94 94 92 98 85 81 95 83 90 89 104 94 98 91 85 93 83 98 97 110 110 104 84 133 118
82 75 72 71 81 82 88 90 89 79 87 84 86 83 87 84 87 88 87 87 93 85 91 87 85 84 92 93 84 95 93 93 80 94 93 85 97 86 92 86 91 89 85 92 86 93 89 100 96 90 95 98 96 91 89 87 103 90 97 96 95 81 80 77 96 80 96 93 99 95 96 86 93 94 97 95 90 81 90 96 88 93 85 89 85 96 89 89 86 91 92 83 88 81 85 87 84 78 80 91 84 85 83 72 82 83 89 81 76 90 88 85 94 85 104 117 148 89 89 75
71 75 82 86 71 87 89 83 82 81 83 90 81 81 88 88 91 88 80 87 85 91 86 91 88 93 91 86 94 89 85 94 92 94 85 91 85 95 94 95 95 95 93 87 87 96 89 97 99 87 90 85 87 86 104 97 91 98 89 97 98 99 88 94 88 95 87 95 102 93 97 95 85 83 94 95 96 82 94 94 91 89 87 88 80 84 88 80 93 93 77 90 75 81 87 84 92 86 82 81 87 82 80 77 76 81 84 89 81 95 85 77 82 87 94 86 97 86 80 163
