0 0 0 0 0 0 0 0 0 0 0 0 0 0 0 0 0 0 0 0 0 0 0 0 0 0 0 0 0 0 0 0 0 0 0 0 0 0 0 0 0 0 0 0 0 0 0 0 0 0 0 0 0 0 0 0 0 0 0 0 0 0 0 0 0 0 0 0 0 0 0 0 0 0 0 0 0 0 0 0 0 0 0 0 0 0 0 0 0 0 0 0 0 0 0 0 0 0 0 0 0 0 0 0 0 0 0 0 0 0 0 0 0 0 0 0 0 0 0 0
0 0 0 0 0 0 0 0 0 0 0 0 0 0 0 0 0 0 0 0 0 0 0 0 0 0 0 0 0 0 0 0 0 0 0 0 0 0 0 0 0 0 0 0 0 0 0 0 0 0 0 0 0 0 0 0 0 0 0 0 0 0 0 0 0 0 0 0 0 0 0 0 0 0 0 0 0 0 0 0 0 0 0 0 0 0 0 0 0 0 0 0 0 0 0 0 0 0 0 0 0 0 0 0 0 0 0 0 0 0 0 0 0 0 0 0 0 0 0 0
0 0 0 0 0 0 0 0 0 0 0 0 0 0 0 0 0 0 0 0 0 0 0 0 0 0 0 0 0 0 0 0 0 0 0 0 0 0 0 0 0 0 0 0 0 0 0 0 0 0 0 0 0 0 0 0 0 0 0 0 0 0 0 0 0 0 0 0 0 0 0 0 0 0 0 0 0 0 0 0 0 0 0 0 0 0 0 0 0 0 0 0 0 0 0 0 0 0 0 0 0 0 0 0 0 0 0 0 0 0 0 0 0 0 0 0 0 0 0 0
0 0 0 0 0 0 0 0 0 0 0 0 0 0 0 0 0 0 0 0 0 0 0 0 0 0 0 0 0 0 0 0 0 0 0 0 0 0 0 0 0 0 0 0 0 0 0 0 0 0 0 0 0 0 0 0 0 0 0 0 0 0 0 0 0 0 0 0 0 0 0 0 0 0 0 0 0 0 0 0 0 0 0 0 0 0 0 0 0 0 0 0 0 0 0 0 0 0 0 0 0 0 0 0 0 0 0 0 0 0 0 0 0 0 0 0 0 0 0 0
0 0 0 0 0 0 0 0 0 0 0 0 0 0 0 0 0 0 0 0 0 0 0 0 0 0 0 0 0 0 0 0 0 0 0 0 0 0 0 0 0 0 0 0 0 0 0 0 0 0 0 0 0 0 0 0 0 0 0 0 0 0 0 0 0 0 0 0 0 0 0 0 0 0 0 0 0 0 0 0 0 0 0 0 0 0 0 0 0 0 0 0 0 0 0 0 0 0 0 0 0 0 0 0 0 0 0 0 0 0 0 0 0 0 0 0 0 0 0 0
0 0 0 0 0 0 0 0 0 0 0 0 0 0 0 0 0 0 0 0 0 0 0 0 0 0 0 0 0 0 0 0 0 0 0 0 0 0 0 508 526 499 500 519 527 517 513 525 519 502 509 508 528 516 507 0 0 0 0 0 0 0 0 0 0 0 0 0 0 0 0 0 0 0 0 0 0 0 0 0 0 0 0 0 0 0 0 0 0 0 0 0 0 0 0 0 0 0 0 0 0 0 0 0 0 0 0 0 0 0 0 0 0 0 0 0 0 0 0 0
0 0 0 0 0 0 0 0 0 0 0 0 0 0 0 0 0 0 0 0 0 0 0 0 0 0 0 0 0 0 0 0 0 0 0 0 0 491 493 490 486 495 491 489 505 500 490 511 495 501 504 505 505 511 488 503 507 478 520 513 0 0 0 0 0 0 0 0 0 0 0 0 0 0 0 0 0 0 0 0 0 0 0 0 0 0 0 0 0 0 0 0 0 0 0 0 0 0 0 0 0 0 0 0 0 0 0 0 0 0 0 0 0 0 0 0 0 0 0 0
0 0 0 0 0 0 0 0 0 0 0 0 0 0 0 0 0 0 0 0 0 0 0 0 0 0 0 0 0 0 0 0 0 0 0 508 510 512 501 502 518 508 496 507 497 509 503 506 506 505 495 504 503 504 516 531 521 492 516 506 525 520 516 510 561 0 0 0 0 0 0 0 0 0 0 0 0 0 0 0 0 0 0 0 0 0 0 0 0 0 0 0 0 0 0 0 0 0 0 0 0 0 0 0 0 0 0 0 0 0 0 0 0 0 0 0 0 0 0 0
0 0 0 0 0 0 0 0 0 0 0 0 0 0 0 0 0 0 0 0 0 0 0 0 0 0 0 0 0 0 0 0 0 527 511 509 502 506 509 506 512 503 498 506 510 510 505 507 514 507 498 507 518 505 509 509 509 511 521 497 521 510 508 523 524 516 544 544 565 617 560 588 573 0 683 612 602 578 0 565 0 0 0 0 0 0 0 0 0 0 0 0 0 0 0 0 0 0 0 0 0 0 0 0 0 0 0 0 0 0 0 0 0 0 0 0 0 0 0 0
0 0 0 0 0 0 0 0 0 0 0 0 0 0 0 0 0 0 0 0 0 0 0 0 0 0 0 0 0 0 0 500 497 510 497 489 497 507 505 500 514 489 494 505 491 504 504 495 504 505 512 501 508 507 504 512 500 505 499 513 510 504 505 517 506 505 518 516 502 574 512 560 581 553 581 557 504 573 566 556 545 550 594 491 0 569 551 615 578 568 561 574 513 590 562 608 583 587 560 519 587 573 564 543 0 0 0 0 0 0 0 0 0 0 0 0 0 0 0 0
0 0 0 0 0 0 0 0 0 0 0 0 0 0 0 0 0 0 0 0 0 0 0 0 0 0 0 0 0 0 536 507 506 507 498 510 507 501 508 514 505 501 504 503 510 526 513 494 507 509 505 513 514 516 519 519 515 519 508 515 513 507 520 521 512 500 508 518 507 525 535 562 585 593 600 586 620 608 611 611 596 602 641 609 608 644 599 608 593 587 607 574 603 633 639 598 598 638 605 583 608 569 624 576 635 578 596 583 550 0 0 0 0 0 0 0 0 0 0 0
0 0 0 0 0 0 0 0 0 0 0 0 0 0 0 0 0 0 0 0 0 0 0 0 0 0 0 0 547 501 507 499 490 506 509 503 503 489 503 499 509 516 502 488 504 497 504 500 498 508 499 507 507 508 504 505 503 503 497 506 513 501 509 509 516 510 504 506 510 525 507 563 564 545 607 603 583 535 574 556 574 565 567 592 573 578 584 556 542 602 578 551 566 582 569 540 544 568 567 555 559 561 558 578 606 615 600 575 566 0 0 0 0 0 0 0 0 0 0 0
0 0 0 0 0 0 0 0 0 0 0 0 0 0 0 0 0 0 0 0 0 0 0 0 0 0 0 475 499 495 495 484 494 494 489 500 491 490 497 493 501 500 502 502 487 503 508 495 499 507 498 502 494 506 504 505 493 505 505 506 512 507 502 507 507 506 514 509 511 497 513 520 525 527 549 523 555 548 544 528 501 532 528 521 514 563 524 594 553 543 517 522 544 544 527 551 535 563 509 540 559 532 533 539 555 575 489 501 516 0 0 0 0 0 0 0 0 0 0 0
0 0 0 0 0 0 0 0 0 0 0 0 0 0 0 0 0 0 0 0 0 0 0 0 0 0 482 498 506 499 497 500 498 497 494 503 497 500 509 493 499 499 492 500 495 511 499 499 500 489 509 503 504 506 505 503 506 510 513 514 509 511 516 512 521 512 509 505 517 506 509 520 543 532 561 576 552 542 529 557 555 568 595 530 559 560 567 562 558 517 564 549 591 559 538 552 539 555 507 569 568 578 579 530 526 538 585 580 558 0 0 0 0 0 0 0 0 0 0 0
0 0 0 0 0 0 0 0 0 0 0 0 0 0 0 0 0 0 0 0 0 0 0 0 0 436 486 477 496 498 493 490 493 488 488 486 491 500 501 493 494 506 498 502 501 486 498 501 495 496 494 500 493 500 501 493 498 496 502 502 502 496 506 502 506 504 497 496 500 514 511 493 513 501 500 523 504 479 539 512 498 537 487 495 515 496 527 510 515 522 529 524 536 533 541 531 502 539 511 512 511 530 519 518 495 522 516 520 460 0 0 0 0 0 0 0 0 0 0 0
0 0 0 0 0 0 0 0 0 0 0 0 0 0 0 0 0 0 0 0 0 0 0 0 0 489 497 491 503 503 494 497 494 505 497 492 492 495 505 501 498 501 504 497 500 499 506 505 493 502 504 503 505 506 504 504 512 501 501 503 508 500 511 505 513 507 515 508 500 504 512 505 515 519 540 534 523 544 554 531 553 552 523 535 538 565 568 563 548 563 543 568 564 562 538 541 537 558 536 549 536 590 526 549 532 547 546 564 572 610 575 0 556 552 0 0 0 0 0 0
0 0 0 0 0 0 0 0 0 0 0 0 0 0 0 0 0 0 0 0 0 0 0 0 518 494 494 495 492 499 499 494 494 499 491 503 504 490 503 509 506 499 503 510 497 506 503 508 497 508 498 504 506 510 503 507 499 502 505 509 513 504 505 516 510 514 500 504 509 506 511 511 519 510 523 539 536 551 565 554 560 564 540 520 554 566 548 557 548 554 531 575 521 570 575 549 586 570 550 562 583 565 623 551 565 547 579 564 549 600 580 0 0 0 0 0 0 0 0 0
0 0 0 0 0 0 0 0 0 0 0 0 0 0 0 0 0 0 0 0 0 0 0 0 476 494 491 489 498 490 483 487 492 490 497 490 495 498 491 501 500 505 497 496 489 498 505 493 502 499 506 505 500 501 501 505 497 502 499 505 505 504 507 504 500 506 507 507 504 508 503 505 505 504 510 528 526 540 539 520 528 547 533 529 498 536 529 555 537 532 541 532 555 523 534 542 522 568 518 542 514 544 526 549 518 524 534 532 503 537 0 0 0 0 0 0 0 0 0 0
0 0 0 0 0 0 0 0 0 0 0 0 0 0 0 0 0 0 0 0 0 0 0 517 501 503 498 491 488 496 500 495 497 502 502 493 507 496 492 500 504 503 498 502 503 501 502 497 504 509 501 502 503 511 510 504 513 506 508 503 513 499 500 498 509 507 519 507 513 505 511 505 515 509 511 517 546 537 556 571 560 551 564 555 575 577 539 569 556 548 554 578 556 567 558 568 541 547 583 578 553 565 562 581 582 559 544 547 543 597 533 0 0 0 0 0 0 0 0 0
0 0 0 0 0 0 0 0 0 0 0 0 0 0 0 0 0 0 0 0 0 0 0 508 491 502 491 492 492 495 497 495 498 500 493 494 487 484 492 496 502 505 501 500 504 502 499 504 498 508 500 501 499 502 499 498 502 511 501 508 499 505 500 494 503 497 506 507 495 508 506 505 509 512 499 512 514 511 530 534 523 526 529 522 509 541 527 538 543 504 541 514 525 532 525 556 502 560 549 539 563 552 506 552 529 557 537 527 529 558 544 0 0 0 0 0 0 0 0 0
0 0 0 0 0 0 0 0 0 0 0 0 0 0 0 0 0 0 0 0 0 0 433 477 492 489 490 490 494 486 492 502 501 491 479 494 489 492 489 496 496 503 490 500 495 491 500 496 501 500 505 495 496 500 505 506 501 497 501 498 506 510 501 509 500 507 501 505 500 504 503 505 508 508 509 498 506 528 541 507 508 503 503 535 525 500 480 474 500 530 538 507 512 520 520 501 530 509 530 534 495 499 497 524 519 537 529 479 464 509 481 520 484 0 0 0 0 0 0 0
0 0 0 0 0 0 0 0 0 0 0 0 0 0 0 0 0 0 0 0 0 0 481 493 487 490 502 496 495 496 487 485 489 488 500 495 492 492 498 500 504 501 492 503 493 500 503 502 500 496 495 504 499 510 510 507 502 503 505 503 514 509 504 512 510 510 508 507 511 502 508 508 503 508 508 514 526 538 543 567 530 548 517 516 528 544 498 542 551 514 530 516 544 533 542 511 536 522 520 528 539 529 538 544 538 538 547 533 524 516 504 546 0 0 0 0 0 0 0 0
0 0 0 0 0 0 0 0 0 0 0 0 0 0 0 0 0 0 0 0 0 0 470 472 484 482 483 481 491 480 484 477 481 481 484 477 487 492 487 487 489 496 499 494 488 498 494 493 493 494 497 495 501 496 496 502 502 500 511 504 501 503 504 501 500 509 504 503 502 499 500 503 512 502 509 507 507 512 526 520 502 504 520 504 494 500 504 498 486 505 537 511 475 483 496 512 501 472 507 519 512 495 503 484 493 518 498 503 462 485 479 518 532 0 0 0 0 0 0 0
0 0 0 0 0 0 0 0 0 0 0 0 0 0 0 0 0 0 0 0 0 0 511 493 496 492 482 496 491 496 485 491 486 493 488 487 484 498 495 497 501 492 492 499 497 493 498 500 501 499 499 503 503 503 503 502 501 502 502 506 501 507 505 508 506 502 509 506 505 509 515 502 510 505 513 509 509 516 526 522 508 511 518 521 487 531 525 508 518 551 521 530 496 552 529 505 528 550 486 526 537 538 512 553 542 521 546 502 535 513 483 533 542 556 0 0 0 0 0 0
0 0 0 0 0 0 0 0 0 0 0 0 0 0 0 0 0 0 0 0 0 0 491 481 486 490 501 493 498 500 498 484 499 489 485 486 485 484 495 494 496 484 502 503 500 504 492 499 500 501 505 500 498 499 506 503 506 496 499 504 503 509 505 505 513 505 496 506 499 510 509 503 503 504 508 501 512 511 500 553 517 553 518 543 548 518 551 539 524 545 535 516 536 537 545 549 539 517 539 507 538 541 521 520 503 550 566 542 568 530 549 560 541 0 0 0 0 0 0 0
0 0 0 0 0 0 0 0 0 0 0 0 0 0 0 0 0 0 0 0 0 0 476 473 478 486 485 487 480 484 497 491 484 487 494 487 488 489 496 493 493 491 489 495 491 494 492 491 496 493 501 502 498 504 500 498 498 503 497 502 498 497 497 503 501 502 504 502 493 499 505 504 499 500 506 501 510 497 521 493 530 508 518 517 525 520 518 525 510 536 552 514 504 493 515 533 493 526 482 495 531 507 516 511 510 505 491 498 490 502 467 482 508 574 0 0 0 0 0 0
0 0 0 0 0 0 0 0 0 0 0 0 0 0 0 0 0 0 0 0 0 509 494 486 488 484 483 497 489 491 497 490 493 504 496 490 496 490 496 498 496 498 495 495 494 497 499 496 498 497 499 499 495 505 505 505 496 502 510 502 511 503 508 499 504 506 509 509 504 511 505 503 505 509 508 508 502 509 520 512 527 508 512 548 519 552 543 534 513 541 522 549 559 536 537 511 541 553 560 588 538 557 541 538 544 547 529 516 545 523 519 0 522 0 0 0 0 0 0 0
0 0 0 0 0 0 0 0 0 0 0 0 0 0 0 0 0 0 0 0 0 438 475 477 492 480 486 490 483 479 480 480 486 484 489 484 493 486 488 487 494 492 493 496 494 489 491 497 492 495 498 501 496 502 499 499 503 496 502 504 500 496 505 499 504 499 504 502 496 503 503 504 508 509 506 505 503 504 495 505 525 496 513 504 514 497 516 519 512 497 485 498 508 491 528 494 527 506 492 529 509 531 498 482 504 517 509 512 505 474 541 450 0 0 0 0 0 0 0 0
0 0 0 0 0 0 0 0 0 0 0 0 0 0 0 0 0 0 0 0 0 451 485 474 487 476 485 484 483 479 483 479 492 492 488 487 484 487 483 491 496 494 489 495 496 491 497 494 496 495 493 497 499 492 496 506 493 503 503 497 500 503 500 500 500 504 506 505 504 496 502 499 503 502 507 497 498 495 500 523 519 512 505 507 506 510 494 515 501 516 510 503 496 489 497 482 482 495 507 508 487 515 490 488 485 478 495 498 508 477 480 495 466 0 417 0 0 0 0 0
0 0 0 0 0 0 0 0 0 0 0 0 0 0 0 0 0 0 0 0 0 455 474 473 480 482 485 477 489 492 484 484 491 484 486 488 484 487 488 492 490 491 493 492 497 491 490 492 497 494 494 500 498 502 503 497 499 495 500 496 496 501 499 499 506 496 505 501 500 501 499 497 507 502 496 506 494 497 509 492 500 506 504 521 489 514 496 524 520 508 518 513 518 483 491 547 496 478 487 495 517 514 526 487 553 521 477 504 494 503 485 532 522 0 0 0 0 0 0 0
0 0 0 0 0 0 0 0 0 0 0 0 0 0 0 0 0 0 0 0 0 416 485 480 477 478 474 486 479 480 480 478 484 483 482 486 483 488 486 488 489 486 489 493 490 493 494 491 495 494 498 499 497 495 495 493 496 496 500 498 498 497 496 498 499 498 499 504 498 500 502 503 496 497 492 496 499 505 504 499 492 491 488 515 507 490 491 482 484 490 464 474 517 477 506 497 479 474 493 490 501 514 477 495 482 499 485 502 476 538 489 422 0 0 0 0 0 0 0 0
0 0 0 0 0 0 0 0 0 0 0 0 0 0 0 0 0 0 0 0 0 442 482 477 481 477 476 478 481 480 485 483 483 483 488 488 484 491 491 490 488 491 486 489 493 491 497 493 493 496 495 494 494 495 493 499 496 502 503 498 494 497 497 502 498 504 498 500 504 499 501 498 499 507 499 496 499 492 501 518 510 532 507 502 521 509 498 511 536 511 523 517 491 502 517 500 494 527 512 516 513 509 516 515 548 508 526 475 524 516 520 525 513 483 0 0 0 0 0 0
0 0 0 0 0 0 0 0 0 0 0 0 0 0 0 0 0 0 0 0 0 465 477 481 479 480 475 485 486 481 481 483 482 489 486 489 487 489 489 489 494 487 488 492 492 493 492 489 494 497 497 495 494 496 496 501 494 500 500 494 497 499 502 502 498 498 500 501 502 511 503 498 508 503 502 500 507 507 507 511 502 506 523 520 510 513 531 529 521 511 530 529 519 531 522 525 522 528 548 531 509 544 524 549 538 512 525 551 544 530 556 555 540 520 0 0 0 0 0 0
0 0 0 0 0 0 0 0 0 0 0 0 0 0 0 0 0 0 0 0 0 453 480 474 476 474 479 476 472 477 483 479 481 487 482 482 482 483 493 492 489 489 486 491 493 488 487 492 489 493 488 493 493 490 498 490 499 495 495 497 499 498 497 500 495 498 498 498 494 500 499 493 492 498 495 497 496 506 495 489 502 501 506 498 500 502 502 495 513 492 504 516 493 469 498 502 494 501 499 516 525 492 495 499 522 498 464 510 488 456 491 474 463 0 0 0 0 0 0 0
0 0 0 0 0 0 0 0 0 0 0 0 0 0 0 0 0 0 0 0 0 473 476 472 480 474 480 483 483 483 479 486 486 484 485 485 486 490 485 490 485 487 489 491 491 496 490 493 492 494 493 493 497 497 495 495 499 501 496 500 497 501 506 497 503 501 498 497 494 501 505 503 500 500 498 495 507 510 495 507 500 520 526 525 523 532 525 518 535 522 517 506 536 513 521 519 528 518 528 540 528 493 535 526 527 544 529 543 507 535 542 506 562 524 0 0 0 0 0 0
0 0 0 0 0 0 0 0 0 0 0 0 0 0 0 0 0 0 0 0 0 433 472 474 480 478 476 478 479 489 478 481 476 480 478 475 489 485 481 485 485 492 490 491 487 483 485 487 490 497 493 494 490 494 493 492 492 494 494 495 493 491 497 496 498 503 499 494 496 497 495 497 495 498 495 499 498 494 505 504 496 497 508 521 530 516 517 491 492 502 479 502 504 538 514 510 558 486 498 494 506 502 495 501 502 505 522 503 482 522 473 521 476 504 0 0 0 0 0 0
0 0 0 0 0 0 0 0 0 0 0 0 0 0 0 0 0 0 0 0 0 466 475 468 477 471 475 472 476 476 472 483 476 485 476 481 482 484 482 488 484 486 488 486 484 486 487 492 489 489 491 495 487 491 490 489 496 494 494 495 496 498 497 498 495 492 498 498 493 495 496 489 493 497 496 495 492 506 497 486 483 489 482 487 492 483 479 470 476 475 484 497 477 486 495 471 458 522 489 500 467 489 498 478 492 501 501 444 444 484 487 488 447 495 412 0 0 0 0 0
0 0 0 0 0 0 0 0 0 0 0 0 0 0 0 0 0 0 0 0 0 0 473 477 479 479 470 477 481 481 476 481 481 479 485 475 484 486 479 486 490 485 488 490 484 485 490 485 499 493 491 498 494 489 493 492 491 492 494 502 496 502 501 496 502 502 493 496 496 496 498 497 498 495 495 492 495 493 496 493 499 494 494 484 504 492 494 518 510 507 514 523 478 499 502 509 519 523 468 485 481 475 497 523 534 498 483 503 506 473 473 476 462 545 0 0 0 0 0 0
0 0 0 0 0 0 0 0 0 0 0 0 0 0 0 0 0 0 0 0 0 0 491 467 468 475 478 472 467 481 478 481 473 478 475 479 476 483 486 480 483 478 480 480 486 483 486 485 491 489 485 492 491 493 487 494 494 493 495 493 495 496 495 494 496 498 499 495 494 493 503 492 495 493 490 496 494 498 480 487 497 519 487 488 493 493 502 484 502 479 508 501 502 495 500 476 474 495 491 492 464 484 477 493 461 466 497 515 460 477 499 466 445 0 0 0 0 0 0 0
0 0 0 0 0 0 0 0 0 0 0 0 0 0 0 0 0 0 0 0 0 0 509 481 470 470 478 479 479 470 484 479 480 485 481 482 484 482 475 484 481 484 487 485 487 484 488 485 495 491 489 492 485 496 491 497 495 489 490 495 499 495 499 493 501 497 496 497 494 491 497 496 496 490 490 494 492 498 486 493 492 506 505 522 499 503 504 501 520 498 519 517 511 552 514 512 498 525 501 514 506 499 510 518 512 476 514 506 523 490 506 514 461 481 478 467 0 0 0 0
0 0 0 0 0 0 0 0 0 0 0 0 0 0 0 0 0 0 0 0 0 0 608 468 473 478 479 482 476 473 482 479 480 480 479 481 483 483 488 487 487 489 484 492 487 489 490 485 492 488 489 493 495 493 494 499 489 495 497 490 496 494 503 498 499 496 498 498 491 494 496 492 496 497 498 496 498 494 498 516 502 521 491 530 508 527 501 505 487 541 520 515 516 541 514 533 522 560 504 528 528 515 494 516 524 509 497 487 531 492 523 517 516 487 514 0 0 0 0 0
0 0 0 0 0 0 0 0 0 0 0 0 0 0 0 0 0 0 0 0 0 0 0 480 466 469 473 473 472 473 475 482 482 481 477 474 481 481 480 481 484 481 487 482 487 483 491 491 488 488 492 490 491 488 489 488 490 495 498 500 495 494 495 493 491 496 491 496 495 495 502 495 494 489 490 497 490 489 494 484 488 483 481 503 482 497 488 494 497 487 484 504 491 509 487 498 497 507 498 510 500 497 498 467 512 514 493 491 477 463 494 465 477 0 0 0 0 0 0 0
0 0 0 0 0 0 0 0 0 0 0 0 0 0 0 0 0 0 0 0 0 0 0 500 475 467 481 475 480 481 476 478 477 480 481 480 481 479 486 485 484 481 490 487 486 489 495 490 490 493 489 495 488 492 491 495 495 491 495 493 493 495 494 494 494 499 495 499 496 494 501 495 492 494 495 492 486 491 504 508 514 525 530 509 508 506 501 504 496 509 505 518 532 523 508 517 542 510 534 512 536 516 516 484 513 519 480 509 513 534 501 483 539 518 0 0 0 0 0 0
0 0 0 0 0 0 0 0 0 0 0 0 0 0 0 0 0 0 0 0 0 0 0 494 470 473 474 474 472 475 472 476 479 476 476 479 477 481 478 482 481 482 486 485 490 485 489 488 493 489 492 495 486 486 494 489 493 494 487 493 496 496 492 494 494 493 491 494 493 490 493 494 497 500 492 496 489 496 491 515 507 511 492 504 519 515 505 506 513 515 505 509 500 504 506 491 503 498 495 508 524 508 510 463 466 489 466 476 471 491 489 493 476 447 0 0 0 0 0 0
0 0 0 0 0 0 0 0 0 0 0 0 0 0 0 0 0 0 0 0 0 0 0 0 469 466 466 466 466 469 471 471 474 479 476 478 476 480 479 482 479 479 480 479 485 485 486 483 491 490 488 493 488 489 488 491 492 494 492 493 490 493 492 491 495 494 492 490 492 490 498 493 495 496 492 487 498 485 494 490 488 497 503 497 495 493 485 483 487 484 474 483 507 476 506 480 464 465 485 478 491 477 470 428 457 468 456 468 501 461 477 451 450 510 407 461 0 0 0 0
0 0 0 0 0 0 0 0 0 0 0 0 0 0 0 0 0 0 0 0 0 0 0 0 511 467 470 478 474 476 478 479 476 474 481 475 479 477 481 482 481 484 483 485 484 487 490 486 486 490 486 492 492 489 496 487 494 493 491 489 494 494 489 490 494 495 498 494 493 493 495 494 495 494 495 491 501 487 492 499 487 499 493 493 495 502 497 516 507 511 524 511 490 530 529 493 525 482 514 495 495 529 481 496 468 486 485 468 507 507 496 506 488 463 533 0 0 0 0 0
0 0 0 0 0 0 0 0 0 0 0 0 0 0 0 0 0 0 0 0 0 0 0 0 0 469 459 470 471 470 468 470 476 477 467 474 477 473 474 479 476 475 479 480 482 482 486 480 481 488 486 480 486 489 483 490 490 484 488 486 492 490 492 493 492 490 488 490 484 490 492 489 496 486 488 481 474 488 485 480 483 483 470 481 483 489 488 482 477 488 478 460 495 476 474 470 490 476 458 500 490 506 505 464 470 456 444 447 451 428 456 449 413 450 0 0 0 0 0 0
0 0 0 0 0 0 0 0 0 0 0 0 0 0 0 0 0 0 0 0 0 0 0 0 0 573 475 461 472 477 469 466 477 474 476 474 478 476 477 479 479 483 483 482 483 479 480 482 481 484 485 487 485 484 489 490 489 484 490 492 491 490 491 491 487 494 496 490 490 491 496 490 493 488 487 486 487 494 486 488 495 503 507 486 490 509 492 486 485 477 491 508 498 503 499 507 492 510 483 497 541 517 519 521 514 481 502 480 500 501 505 489 514 431 411 0 0 0 0 0
0 0 0 0 0 0 0 0 0 0 0 0 0 0 0 0 0 0 0 0 0 0 0 0 0 0 485 465 463 471 468 474 471 474 476 476 475 478 478 477 477 481 479 479 487 488 484 483 481 486 489 481 484 486 486 485 485 491 496 494 491 492 491 494 493 488 491 492 498 489 498 496 491 490 487 501 481 482 501 495 483 507 512 490 477 510 516 494 492 492 492 504 506 513 500 505 487 493 506 497 504 524 551 499 491 497 501 518 493 503 475 527 537 476 0 0 0 0 0 0
0 0 0 0 0 0 0 0 0 0 0 0 0 0 0 0 0 0 0 0 0 0 0 0 0 0 0 468 469 460 467 472 475 476 472 471 472 479 475 476 480 478 475 476 475 481 477 478 482 484 484 483 480 482 484 482 483 485 482 486 487 486 489 483 487 487 488 488 489 491 493 488 484 482 477 477 486 486 485 469 485 484 488 486 494 486 482 485 484 477 491 487 499 494 472 493 471 486 491 470 508 491 469 501 471 475 483 478 457 440 482 493 445 446 0 0 0 0 0 0
0 0 0 0 0 0 0 0 0 0 0 0 0 0 0 0 0 0 0 0 0 0 0 0 0 0 0 519 466 467 471 471 466 472 475 472 473 475 472 476 476 479 477 479 481 476 481 482 484 488 480 487 490 482 479 483 486 481 484 488 490 490 491 489 489 490 491 489 490 490 489 489 486 476 483 511 491 492 489 484 509 514 504 499 477 506 503 494 500 495 527 478 501 505 507 510 497 540 513 490 507 506 515 496 518 493 504 504 495 538 478 487 456 512 531 0 0 0 0 0
0 0 0 0 0 0 0 0 0 0 0 0 0 0 0 0 0 0 0 0 0 0 0 0 0 0 0 0 507 466 466 465 468 468 473 469 471 476 476 476 474 479 474 478 476 478 474 478 482 481 485 481 481 481 482 480 480 483 487 483 485 488 485 489 483 484 487 483 491 486 485 485 479 491 489 484 476 484 477 478 473 482 486 492 482 480 501 490 483 488 481 487 480 500 482 481 477 486 484 475 477 506 494 477 460 432 500 462 467 459 457 460 465 464 420 0 0 0 0 0
0 0 0 0 0 232 234 252 273 0 0 0 0 0 0 0 0 0 0 0 0 0 0 0 0 0 0 0 0 513 461 467 469 466 467 471 468 470 469 470 471 477 479 475 473 482 477 480 473 478 477 478 480 478 486 480 480 483 487 483 484 483 484 487 483 484 482 480 482 486 480 486 483 478 476 473 477 477 462 482 482 482 473 479 474 492 471 474 470 479 473 484 466 497 440 474 460 469 489 471 480 463 451 452 466 464 454 434 452 441 430 479 429 444 449 0 0 0 0 0
0 0 0 0 243 231 230 235 234 285 345 0 0 0 0 0 0 0 0 0 0 2321 0 0 0 0 0 0 0 0 447 465 464 472 468 472 471 470 473 471 474 476 471 473 480 470 474 474 476 477 479 478 483 483 482 486 482 484 483 477 480 482 480 485 485 482 482 486 482 480 473 486 474 477 481 487 488 476 470 468 482 469 485 476 488 499 480 488 473 486 492 481 473 472 472 496 481 510 474 497 484 483 487 494 468 462 469 471 466 489 482 464 448 474 0 0 0 0 0 0
0 0 0 241 211 218 226 218 233 232 318 0 0 0 0 0 0 0 0 0 0 0 0 0 0 0 0 0 0 0 0 473 461 466 460 470 468 466 462 473 467 464 470 468 472 471 475 472 477 475 476 475 476 475 481 475 482 479 477 480 479 480 478 478 479 473 479 477 474 466 464 471 472 463 475 471 481 472 476 469 479 464 470 479 470 462 484 473 468 466 472 478 468 450 466 457 486 461 476 474 466 467 454 445 463 437 452 451 455 428 441 432 411 438 420 0 0 0 0 0
234 247 273 291 264 318 272 232 238 238 340 0 396 452 452 408 417 429 414 435 464 471 445 433 453 453 467 459 456 458 455 461 470 468 460 462 466 467 460 467 463 472 470 466 476 472 470 474 471 479 478 478 473 482 480 481 476 476 478 482 473 483 478 480 480 480 477 484 480 481 473 467 477 463 475 462 471 478 473 480 480 477 478 466 473 491 480 490 479 475 481 468 461 484 477 480 471 482 455 495 487 470 482 488 458 496 482 478 470 483 492 500 466 516 473 0 0 0 0 0
210 207 212 208 248 234 260 232 234 275 349 404 398 399 392 412 400 405 408 409 418 405 423 443 432 444 441 437 446 451 448 466 460 457 453 453 464 461 466 459 459 463 460 464 460 466 468 472 473 480 475 472 472 471 475 474 467 476 467 477 473 470 472 469 471 475 476 480 472 469 478 477 469 463 463 464 454 471 461 469 473 458 454 470 461 451 444 446 469 453 474 473 445 448 466 458 459 462 458 467 459 456 460 462 452 463 451 446 476 453 446 458 459 445 474 477 0 0 0 0
196 225 210 209 204 233 232 224 233 301 386 350 370 358 366 377 376 376 366 372 372 375 380 390 396 392 412 421 436 439 442 442 447 444 444 440 438 443 443 447 442 450 449 443 448 447 447 448 457 457 450 455 458 455 452 463 453 458 460 464 461 465 455 464 459 457 455 453 459 457 456 455 444 446 440 436 428 430 417 423 429 425 422 432 417 423 429 423 422 435 425 426 412 417 426 419 414 441 418 414 423 412 424 411 418 406 401 414 415 405 420 414 404 401 397 411 351 463 393 0
315 294 256 236 238 228 234 234 269 372 356 359 357 358 356 348 347 348 361 360 359 364 367 386 384 404 398 414 426 422 420 425 427 432 428 433 433 436 432 429 432 433 432 437 432 439 431 439 444 442 440 443 434 443 445 446 446 448 444 445 446 446 446 446 446 447 452 438 437 438 435 441 429 428 415 417 412 411 407 391 403 401 412 402 409 409 401 395 402 401 408 411 399 411 410 411 404 424 393 407 400 399 399 392 398 402 390 397 392 400 395 411 407 408 412 415 421 411 446 459
291 284 267 234 237 232 231 242 278 310 316 294 299 292 314 312 313 296 314 314 315 327 331 347 343 359 384 377 392 394 398 405 406 412 407 404 412 415 409 413 414 411 411 407 415 415 419 417 416 414 415 425 421 420 420 424 418 423 419 420 421 421 415 418 418 415 420 416 420 417 408 409 405 404 401 395 379 374 366 361 364 366 355 362 365 348 358 362 372 366 353 362 362 368 363 366 352 360 363 373 366 357 364 368 358 365 355 364 349 357 368 373 362 337 354 334 364 376 350 363
285 269 269 254 277 243 245 260 267 289 284 269 275 299 284 293 285 294 294 283 288 307 305 309 331 345 360 365 365 378 384 389 390 390 386 376 393 392 394 395 387 386 394 394 387 396 395 389 398 389 392 400 392 396 387 401 401 400 400 403 398 394 397 390 396 388 395 392 390 388 388 397 389 390 369 362 357 351 346 337 341 320 315 335 335 327 325 335 326 320 327 316 319 325 345 332 322 316 330 332 333 324 328 320 332 341 331 338 323 323 305 337 329 294 329 336 284 306 311 340
254 248 251 254 261 247 260 255 263 263 262 253 264 252 264 259 264 265 266 264 272 287 297 305 312 321 333 336 355 362 358 360 367 361 360 365 365 365 371 372 374 372 374 374 363 371 370 372 366 369 373 368 371 374 377 374 379 378 375 378 375 378 377 376 369 377 373 381 374 373 370 367 368 361 348 338 326 319 316 318 309 301 316 305 304 320 309 311 302 290 295 303 314 307 312 316 294 299 292 318 311 316 296 309 309 308 307 306 312 317 319 309 327 317 303 276 313 325 310 312
202 228 223 226 228 232 230 234 228 237 240 250 240 247 241 237 230 242 247 242 250 264 269 276 288 295 306 314 325 333 330 335 342 343 335 339 339 338 337 340 344 339 346 348 347 343 340 344 344 338 337 341 345 343 345 350 344 349 348 350 351 353 349 337 348 347 349 353 347 343 342 339 339 327 325 320 303 289 287 288 277 274 271 270 281 269 276 271 271 274 269 277 274 274 268 269 268 275 271 276 281 272 278 274 273 276 273 273 270 279 266 265 261 278 258 265 254 262 256 244
213 229 222 222 231 221 224 219 223 229 234 227 221 235 227 229 234 229 235 243 243 247 261 261 276 288 297 292 297 306 313 314 315 324 318 324 319 315 328 327 319 320 317 326 329 320 322 331 330 321 326 327 331 328 327 327 329 323 331 328 333 326 328 330 329 326 329 328 318 322 324 318 320 313 302 303 282 280 275 275 269 267 268 263 260 257 256 258 253 256 250 258 261 259 261 261 263 249 255 261 257 258 260 259 260 262 260 261 263 263 278 255 263 261 266 250 266 273 301 269
200 215 217 220 214 208 212 218 211 208 207 211 212 219 210 220 221 222 217 221 224 233 238 253 252 265 269 279 284 286 287 291 291 295 296 292 296 302 306 307 300 301 301 298 304 301 306 302 306 307 303 299 299 306 297 302 305 308 303 309 313 305 311 307 308 308 303 303 305 303 296 302 301 286 290 282 269 259 256 251 243 245 252 242 248 248 248 239 239 238 245 251 244 243 239 242 241 238 251 240 236 245 250 245 244 246 238 238 248 249 251 258 249 273 253 242 250 266 242 256
181 194 201 200 201 203 204 206 207 207 202 182 203 191 185 193 191 204 211 216 218 219 230 234 239 243 253 256 264 266 272 269 272 270 276 277 280 280 282 280 281 279 285 285 283 286 277 282 281 283 281 277 276 280 279 283 282 283 283 284 289 285 284 286 284 285 284 288 284 283 282 289 280 272 265 258 249 247 237 239 228 234 227 226 228 232 229 224 227 230 221 230 227 233 227 220 218 224 219 214 226 231 226 234 228 222 231 230 230 242 247 241 242 234 233 238 233 232 233 239
181 180 191 191 188 194 186 189 185 187 186 181 183 185 187 187 192 181 184 189 213 195 221 227 230 234 240 246 247 250 257 262 260 258 263 256 268 257 266 271 264 262 266 271 267 266 267 273 267 263 267 268 268 270 265 272 264 269 268 276 267 270 268 272 268 267 273 270 271 266 268 262 259 261 252 241 237 233 228 225 224 223 224 224 215 223 221 212 208 220 217 226 221 217 219 220 213 212 216 221 219 220 217 215 211 210 215 216 218 229 227 228 245 225 221 244 240 244 229 248
172 171 170 177 171 178 180 178 177 180 179 177 181 175 183 182 182 184 189 183 190 189 192 209 216 220 223 225 229 233 234 240 240 238 241 237 239 245 243 248 243 245 247 251 251 246 244 249 244 252 245 248 246 245 242 245 247 250 246 252 248 244 249 248 240 249 254 245 246 246 242 245 240 237 237 223 224 216 215 200 196 196 188 185 187 186 186 196 184 190 193 189 193 183 191 188 186 183 187 207 191 186 205 184 188 191 178 185 183 201 204 210 207 199 185 211 215 204 183 201
168 172 176 171 177 174 172 173 170 176 174 176 177 169 178 172 176 183 181 184 187 187 188 190 206 209 214 220 215 224 226 226 222 227 228 226 233 231 231 229 228 228 234 234 233 235 230 227 235 234 237 234 236 232 238 234 237 235 232 235 235 239 231 235 234 235 237 230 231 234 232 230 230 224 215 214 197 194 189 189 195 195 194 191 195 195 194 187 183 190 191 182 189 179 189 184 190 187 186 181 186 179 178 180 177 177 186 176 176 177 177 186 194 188 197 198 199 194 177 205
163 164 166 172 170 168 166 164 173 167 170 167 170 168 171 170 178 179 178 180 178 181 188 190 188 182 187 190 207 209 209 200 211 212 214 214 216 213 212 199 214 222 219 218 219 221 221 218 221 219 217 222 219 219 215 222 222 224 219 222 216 224 224 220 217 221 218 220 224 219 222 216 216 197 194 190 198 192 192 190 187 184 186 183 185 184 185 186 185 186 181 181 186 181 183 182 179 180 183 183 187 185 186 179 174 180 177 178 178 175 179 174 171 171 199 196 183 177 179 178
151 154 162 159 162 164 154 162 161 161 160 161 155 155 160 161 163 168 165 172 171 171 177 181 182 182 186 185 191 186 183 182 183 184 195 194 187 185 184 188 192 188 191 192 195 196 195 195 190 193 192 192 193 197 194 190 192 194 196 195 202 198 213 192 193 196 194 190 193 195 193 192 194 189 190 198 197 188 184 176 179 176 176 177 175 176 177 173 170 175 173 173 170 169 174 169 168 165 169 172 170 171 169 172 169 172 170 169 165 172 169 171 166 171 170 164 174 169 163 174
145 149 155 153 156 156 157 156 154 155 158 156 156 155 155 154 158 162 155 167 167 166 178 173 178 182 182 185 182 188 191 187 188 192 191 187 189 190 189 192 194 193 193 195 196 195 198 195 200 192 194 188 194 197 198 195 199 199 196 198 196 195 198 199 192 194 194 198 196 196 196 193 192 192 189 184 185 186 179 171 173 172 168 168 168 170 169 168 171 164 170 169 173 166 170 168 167 169 164 165 171 167 171 167 167 164 159 161 166 163 163 165 177 167 173 171 163 163 175 163
145 143 146 148 145 149 148 151 152 152 146 150 149 151 152 149 153 151 154 158 164 169 163 172 173 172 174 171 176 179 179 175 183 182 179 183 184 178 183 184 185 184 186 186 183 183 184 188 187 186 185 187 182 187 188 185 189 190 0 189 190 189 186 188 188 189 189 187 186 186 186 182 183 181 177 172 173 173 170 163 160 159 168 160 160 160 166 161 165 161 163 160 161 160 160 159 154 160 161 165 157 160 161 159 158 162 154 164 155 157 156 161 164 164 161 163 172 163 170 198
133 138 138 136 140 150 146 148 148 147 144 145 141 146 143 146 141 146 147 155 155 160 162 162 166 167 169 166 169 170 171 170 177 174 171 173 175 174 174 175 179 181 177 175 176 177 176 178 177 175 178 174 176 180 178 179 180 0 0 180 177 176 181 183 177 177 179 178 179 172 175 175 173 174 171 171 169 164 163 160 161 155 154 155 160 159 157 153 154 157 148 151 156 153 152 157 153 152 155 154 154 152 151 155 155 145 147 149 155 158 152 153 154 148 151 159 158 145 162 160
138 135 132 139 143 146 150 141 143 139 140 142 141 147 142 141 143 148 147 150 152 153 155 157 160 160 161 167 166 166 160 166 169 171 165 168 164 168 169 170 174 0 172 0 172 176 172 172 171 171 176 172 174 175 174 0 177 173 0 177 175 0 174 174 174 172 175 169 173 171 169 165 170 170 168 164 163 160 157 151 150 157 148 152 155 151 152 146 150 157 145 154 154 152 150 147 152 150 155 147 153 146 149 150 146 146 145 143 151 150 147 146 156 150 156 158 148 164 164 173
128 125 129 123 133 132 143 137 135 121 132 132 135 126 136 134 136 136 136 139 139 144 150 150 147 157 154 159 158 161 160 157 158 160 157 155 163 161 0 0 0 0 0 0 0 0 0 166 166 165 167 161 166 166 0 0 167 168 0 0 0 0 0 0 164 166 167 0 160 163 163 162 162 159 155 155 154 158 149 150 149 143 149 144 141 149 142 147 148 145 144 145 145 146 141 138 139 145 140 140 141 139 142 138 134 136 136 138 135 137 137 142 146 154 147 137 143 138 144 134
115 127 124 123 127 131 136 131 137 128 127 134 131 128 132 126 120 137 133 138 141 140 147 144 146 151 153 154 153 154 154 152 154 155 153 153 156 0 0 0 0 0 0 0 0 0 0 0 0 160 164 161 0 0 0 0 0 0 0 0 0 0 0 0 160 0 0 0 0 0 0 159 158 153 153 152 151 150 149 145 139 131 145 140 140 142 143 139 146 142 135 138 141 140 138 138 141 143 138 135 140 134 139 133 129 129 135 140 134 138 133 145 142 140 137 131 134 135 135 152
116 106 117 123 131 125 128 129 130 127 132 130 121 119 120 129 134 123 132 133 126 127 134 143 144 142 144 145 146 151 152 149 154 150 152 149 0 0 0 0 0 0 0 0 0 0 0 0 151 155 153 0 0 0 0 0 0 0 0 0 0 0 0 0 0 0 0 0 0 0 0 0 150 151 148 147 146 140 141 146 130 139 137 129 130 126 136 139 128 131 139 138 129 127 118 127 140 136 134 135 130 134 135 133 132 135 133 124 129 137 134 134 137 135 138 133 133 137 118 146
106 110 114 110 104 110 119 116 115 119 116 112 118 113 125 123 120 129 116 119 122 121 127 120 135 140 138 140 144 144 142 144 142 142 146 142 0 0 0 0 0 0 0 0 0 0 0 0 0 0 0 0 0 0 0 0 0 0 0 0 0 0 0 0 0 0 0 0 0 0 0 0 143 139 141 141 137 132 126 129 125 121 119 116 124 121 120 123 124 122 120 121 114 124 123 135 124 134 121 118 121 120 132 114 119 119 126 119 128 123 117 126 111 121 106 123 115 106 105 106
110 106 114 116 115 115 116 115 118 117 115 119 115 118 118 121 118 127 125 119 116 119 120 117 136 135 136 137 0 141 0 0 0 137 142 0 0 0 0 0 0 0 0 0 0 0 0 0 0 0 0 0 0 0 0 0 0 0 0 0 0 0 0 0 0 0 0 0 0 0 0 0 0 142 136 126 127 123 119 127 120 121 123 126 116 118 118 120 115 118 122 127 119 114 112 120 117 120 119 122 123 124 129 120 131 116 127 119 110 130 131 113 132 130 133 118 108 133 138 147
100 98 107 111 105 103 107 103 103 104 107 107 106 109 106 109 108 118 116 111 111 112 111 119 119 119 125 120 118 126 0 0 0 0 0 0 0 0 0 0 0 0 0 0 0 0 0 0 0 0 0 0 0 0 0 0 0 0 0 0 0 0 0 0 0 0 0 0 0 0 0 0 131 0 0 125 120 119 121 116 114 114 108 117 111 117 111 113 113 116 112 116 110 109 109 108 107 114 115 107 115 111 112 116 114 117 108 109 124 104 111 108 107 119 115 104 112 131 121 130
96 100 90 96 101 100 103 99 102 101 100 98 101 104 106 103 105 108 117 104 106 112 104 104 115 109 115 118 121 119 0 127 0 0 0 0 0 0 0 0 0 0 0 0 0 0 0 0 0 0 0 0 0 0 0 0 0 0 0 0 0 0 0 0 0 0 0 0 0 0 0 0 0 122 0 118 119 117 113 110 112 111 104 102 112 108 109 113 104 107 114 110 110 113 110 116 108 107 96 119 109 106 109 102 104 120 106 103 110 112 103 109 117 101 102 117 109 98 108 119
95 102 100 103 97 98 102 94 95 102 102 100 102 98 98 94 106 103 113 116 111 106 98 107 113 109 114 118 114 121 120 121 124 0 0 0 0 0 0 0 0 0 0 0 0 0 0 0 0 0 0 0 0 0 0 0 0 0 0 0 0 0 0 0 0 0 0 0 0 0 0 0 123 121 109 124 113 115 121 120 106 110 100 119 110 108 102 101 102 102 106 108 115 98 99 100 108 103 116 103 105 115 114 108 110 110 106 95 104 98 102 110 111 102 122 104 146 140 130 137
86 83 81 84 79 87 83 92 91 85 87 93 96 97 92 86 76 93 89 87 92 88 97 104 99 103 114 107 0 0 107 104 116 0 0 0 0 0 0 0 0 0 0 0 0 0 0 0 0 0 0 0 0 0 0 0 0 0 0 0 0 0 0 0 0 0 0 0 0 0 0 114 111 111 104 112 107 105 102 100 101 101 96 91 101 98 90 97 104 101 91 93 105 84 87 97 92 103 86 93 87 99 90 92 81 94 96 91 87 87 88 90 78 93 90 89 100 86 100 106
93 89 89 88 97 98 96 105 92 94 96 92 92 93 94 95 100 90 101 96 91 103 109 102 102 104 111 108 0 105 111 108 118 111 122 107 0 0 0 0 0 117 0 0 0 0 0 0 0 0 0 0 0 0 0 0 0 0 0 0 115 0 0 111 112 0 0 0 111 0 108 109 113 113 113 107 108 111 102 99 110 101 105 86 97 104 105 102 102 102 106 106 106 97 102 103 100 93 101 109 100 97 95 102 96 102 92 91 89 80 95 89 92 90 94 93 95 103 107 99
86 89 91 86 95 95 89 94 85 98 85 90 87 92 89 84 94 96 97 95 97 92 98 109 90 100 104 99 104 106 94 0 105 103 100 103 0 116 114 0 0 0 0 0 0 0 0 0 0 0 0 0 0 0 0 0 0 109 0 0 109 107 103 109 112 110 102 100 110 104 110 100 102 101 111 107 100 95 103 96 97 94 101 88 94 89 93 103 104 92 96 104 108 96 94 85 91 90 97 89 92 82 91 96 89 88 98 97 99 86 91 90 86 90 88 84 134 113 129 113
84 84 83 88 89 93 102 88 90 79 88 87 84 91 87 90 88 87 91 86 78 88 96 83 84 89 91 89 104 87 97 99 95 94 91 108 99 102 99 102 101 99 100 106 106 92 0 0 95 0 0 104 102 95 103 108 105 102 111 101 97 105 109 98 100 109 99 97 99 107 95 104 104 98 104 90 93 96 98 90 94 90 98 94 95 94 88 96 93 92 98 87 95 94 92 87 86 91 91 81 85 87 86 91 87 80 95 88 82 89 84 93 88 93 82 87 72 60 84 82
85 81 87 84 86 88 101 101 87 91 85 82 84 87 82 90 90 94 93 97 83 99 95 91 92 94 95 92 94 98 95 86 97 93 97 97 95 100 88 105 102 97 98 106 101 92 104 0 104 103 97 108 98 99 101 102 102 105 98 110 104 96 95 104 101 99 96 101 98 106 99 102 101 94 104 85 94 94 98 96 98 96 84 93 97 96 86 86 94 90 84 99 90 92 91 93 90 97 102 88 87 98 81 90 87 101 93 92 91 84 88 100 98 108 106 116 127 105 107 110
82 76 71 67 79 81 89 88 89 79 88 82 87 78 90 85 84 86 83 86 85 84 91 90 86 83 88 95 86 92 92 93 95 93 94 86 94 84 91 94 92 89 83 91 97 94 89 101 95 90 96 85 95 94 89 86 102 89 101 97 97 98 81 99 97 97 96 91 96 97 94 87 91 94 86 94 93 97 90 96 85 93 83 86 85 94 89 88 85 90 93 79 88 81 85 86 84 79 80 86 83 87 83 72 85 81 88 83 83 78 75 90 80 91 86 111 128 109 130 71
71 74 83 88 72 86 80 87 84 79 83 90 79 80 85 86 86 89 83 89 85 91 83 93 89 94 92 85 93 90 83 97 93 95 87 90 86 93 95 96 95 94 93 88 86 98 92 97 100 89 91 96 97 85 99 95 88 98 92 98 95 86 91 97 87 96 91 96 107 93 95 95 86 86 96 96 94 83 97 92 86 86 85 87 78 88 87 80 94 92 77 94 74 79 89 78 92 89 79 84 86 83 79 77 79 80 83 84 81 86 80 89 86 100 86 141 110 64 87 210
