0 0 0 0 0 0 0 0 0 0 0 0 0 0 0 0 0 0 0 0 0 0 0 0 0 0 0 0 0 0 0 0 0 0 0 0 0 0 0 0 0 0 0 0 0 0 0 0 0 0 0 0 0 0 0 0 0 0 0 0 0 0 0 0 0 0 0 0 0 0 0 0 0 0 0 0 0 0 0 0 0 0 0 0 0 0 0 0 0 0 0 0 0 0 0 0 0 0 0 0 0 0 0 0 0 0 0 0 0 0 0 0 0 0 0 0 0 0 0 0
0 0 0 0 0 0 0 0 0 0 0 0 0 0 0 0 0 0 0 0 0 0 0 0 0 0 0 0 0 0 0 0 0 0 0 0 0 0 0 0 0 0 0 0 0 0 0 0 0 0 0 0 0 0 0 0 0 0 0 0 0 0 0 0 0 0 0 0 0 0 0 0 0 0 0 0 0 0 0 0 0 0 0 0 0 0 0 0 0 0 0 0 0 0 0 0 0 0 0 0 0 0 0 0 0 0 0 0 0 0 0 0 0 0 0 0 0 0 0 0
0 0 0 0 0 0 0 0 0 0 0 0 0 0 0 0 0 0 0 0 0 0 0 0 0 0 0 0 0 0 0 0 0 0 0 0 0 0 0 0 0 0 0 0 0 0 0 0 0 0 0 0 0 0 0 0 0 0 0 0 0 0 0 0 0 0 0 0 0 0 0 0 0 0 0 0 0 0 0 0 0 0 0 0 0 0 0 0 0 0 0 0 0 0 0 0 0 0 0 0 0 0 0 0 0 0 0 0 0 0 0 0 0 0 0 0 0 0 0 0
0 0 0 0 0 0 0 0 0 0 0 0 0 0 0 0 0 0 0 0 0 0 0 0 0 0 0 0 0 0 0 0 0 0 0 0 0 0 0 0 0 0 0 0 0 0 0 0 0 0 0 0 0 0 0 0 0 0 0 0 0 0 0 0 0 0 0 0 0 0 0 0 0 0 0 0 0 0 0 0 0 0 0 0 0 0 0 0 0 0 0 0 0 0 0 0 0 0 0 0 0 0 0 0 0 0 0 0 0 0 0 0 0 0 0 0 0 0 0 0
0 0 0 0 0 0 0 0 0 0 0 0 0 0 0 0 0 0 0 0 0 0 0 0 0 0 0 0 0 0 0 0 0 0 0 0 0 0 0 0 0 0 0 0 0 0 0 0 0 0 0 0 0 0 0 0 0 0 0 0 0 0 0 0 0 0 0 0 0 0 0 0 0 0 0 0 0 0 0 0 0 0 0 0 0 0 0 0 0 0 0 0 0 0 0 0 0 0 0 0 0 0 0 0 0 0 0 0 0 0 0 0 0 0 0 0 0 0 0 0
0 0 0 0 0 0 0 0 0 0 0 0 0 0 0 0 0 0 0 0 0 0 0 0 0 0 0 0 0 0 0 0 0 0 0 0 0 0 0 586 508 519 500 499 526 494 522 534 520 508 515 523 533 515 495 555 0 0 0 0 0 0 0 0 0 0 0 0 0 0 0 0 0 0 0 0 0 0 0 0 0 0 0 0 0 0 0 0 0 0 0 0 0 0 0 0 0 0 0 0 0 0 0 0 0 0 0 0 0 0 0 0 0 0 0 0 0 0 0 0
0 0 0 0 0 0 0 0 0 0 0 0 0 0 0 0 0 0 0 0 0 0 0 0 0 0 0 0 0 0 0 0 0 0 0 0 0 532 487 484 494 501 501 488 505 498 514 502 521 522 502 506 488 485 506 495 488 475 522 539 0 0 0 0 0 0 0 0 0 0 0 0 0 0 0 0 0 0 0 0 0 0 0 0 0 0 0 0 0 0 0 0 0 0 0 0 0 0 0 0 0 0 0 0 0 0 0 0 0 0 0 0 0 0 0 0 0 0 0 0
0 0 0 0 0 0 0 0 0 0 0 0 0 0 0 0 0 0 0 0 0 0 0 0 0 0 0 0 0 0 0 0 0 0 0 511 506 522 496 502 514 492 499 515 502 500 498 501 517 507 508 508 516 508 529 514 518 497 502 520 499 514 517 534 492 0 0 0 0 0 0 0 0 0 0 0 0 0 0 0 0 0 0 0 0 0 0 0 0 0 0 0 0 0 0 0 0 0 0 0 0 0 0 0 0 0 0 0 0 0 0 0 0 0 0 0 0 0 0 0
0 0 0 0 0 0 0 0 0 0 0 0 0 0 0 0 0 0 0 0 0 0 0 0 0 0 0 0 0 0 0 0 0 513 499 497 515 509 500 503 508 510 508 515 502 505 514 501 498 508 508 512 513 504 510 505 516 508 514 510 500 510 521 521 520 516 509 577 606 606 636 592 614 0 678 607 633 617 0 609 0 0 0 0 0 0 0 0 0 0 0 0 0 0 0 0 0 0 0 0 0 0 0 0 0 0 0 0 0 0 0 0 0 0 0 0 0 0 0 0
0 0 0 0 0 0 0 0 0 0 0 0 0 0 0 0 0 0 0 0 0 0 0 0 0 0 0 0 0 0 0 509 494 491 497 497 492 491 491 485 503 489 501 499 490 503 506 498 504 497 514 509 507 501 503 507 501 502 499 499 500 498 500 510 491 504 500 516 520 512 557 537 553 527 556 566 529 536 525 557 555 536 561 558 0 0 0 532 546 596 524 529 570 599 538 562 579 576 556 519 567 580 549 593 0 0 0 0 0 0 0 0 0 0 0 0 0 0 0 0
0 0 0 0 0 0 0 0 0 0 0 0 0 0 0 0 0 0 0 0 0 0 0 0 0 0 0 0 0 0 531 524 511 497 501 506 508 501 501 512 506 503 508 512 511 514 519 513 507 510 502 514 514 515 514 519 509 509 505 514 521 507 517 519 514 513 527 517 519 525 572 581 581 585 587 598 602 616 613 564 603 579 658 612 664 634 610 608 554 604 593 572 608 588 600 613 647 601 575 621 561 605 599 621 583 651 618 597 591 0 0 0 0 0 0 0 0 0 0 0
0 0 0 0 0 0 0 0 0 0 0 0 0 0 0 0 0 0 0 0 0 0 0 0 0 0 0 0 462 494 494 508 504 501 509 493 490 491 497 497 496 505 502 493 507 503 503 500 497 505 494 502 498 496 504 491 503 504 501 514 510 501 512 513 512 496 502 503 508 505 502 526 565 501 543 581 566 521 527 582 548 533 573 549 530 546 518 554 546 595 541 553 580 530 585 561 525 514 560 559 542 544 536 562 526 563 524 520 549 0 0 0 0 0 0 0 0 0 0 0
0 0 0 0 0 0 0 0 0 0 0 0 0 0 0 0 0 0 0 0 0 0 0 0 0 0 0 487 507 503 499 491 509 496 500 510 500 503 509 509 505 508 500 509 504 502 498 511 502 509 499 510 510 506 507 515 511 505 503 501 506 506 506 513 501 501 513 520 511 507 518 502 540 565 553 552 568 555 536 535 547 572 496 576 542 527 552 518 489 526 545 531 549 552 551 554 529 531 524 522 540 543 517 539 516 572 551 522 0 0 0 0 0 0 0 0 0 0 0 0
0 0 0 0 0 0 0 0 0 0 0 0 0 0 0 0 0 0 0 0 0 0 0 0 0 0 489 503 486 499 496 496 505 484 498 498 494 492 494 502 502 507 510 514 506 498 504 506 508 502 507 505 511 506 511 503 505 509 517 513 512 517 505 507 506 507 509 498 513 502 513 520 532 568 540 570 571 574 568 574 581 541 567 576 589 558 548 552 507 583 544 581 546 544 577 582 575 552 573 563 612 551 599 584 578 544 558 574 511 565 0 0 0 0 0 0 0 0 0 0
0 0 0 0 0 0 0 0 0 0 0 0 0 0 0 0 0 0 0 0 0 0 0 0 0 483 489 496 494 497 497 501 500 487 496 494 500 493 499 496 504 506 497 498 500 503 508 501 502 499 503 504 497 503 499 510 510 506 502 506 508 502 510 516 514 507 505 499 507 500 512 512 489 528 520 519 535 529 529 526 551 521 556 537 501 507 538 560 522 522 552 535 531 516 521 545 552 570 515 540 503 535 561 537 548 492 514 531 526 0 546 0 0 0 0 0 0 0 0 0
0 0 0 0 0 0 0 0 0 0 0 0 0 0 0 0 0 0 0 0 0 0 0 0 0 487 494 496 500 490 493 491 494 513 483 505 497 499 504 496 508 498 504 500 508 496 503 502 499 501 490 505 503 499 498 505 506 505 504 505 506 499 504 506 509 510 507 511 511 504 519 507 506 513 543 552 528 518 567 563 535 535 548 529 566 559 555 558 557 536 551 553 532 546 525 554 541 557 516 540 526 563 544 548 543 529 594 501 558 567 0 0 530 560 0 0 0 0 0 0
0 0 0 0 0 0 0 0 0 0 0 0 0 0 0 0 0 0 0 0 0 0 0 0 500 488 499 488 487 497 508 500 493 508 495 504 498 500 497 502 501 499 493 503 503 506 498 503 499 502 498 505 511 511 509 513 498 509 503 501 507 503 506 506 502 514 512 506 509 523 514 513 506 507 516 526 535 539 547 539 559 560 566 557 578 516 556 546 541 551 547 559 540 560 541 592 543 544 586 556 563 556 544 532 568 586 544 530 562 594 0 0 0 0 0 0 0 0 0 0
0 0 0 0 0 0 0 0 0 0 0 0 0 0 0 0 0 0 0 0 0 0 0 0 478 487 487 493 492 494 493 492 486 484 494 488 490 495 492 488 497 488 506 501 499 500 499 496 500 505 504 501 501 506 501 499 502 504 502 504 498 507 503 506 502 509 504 499 498 508 498 516 509 519 506 510 519 531 514 506 534 512 526 511 502 509 497 524 501 537 513 494 551 553 524 512 530 528 536 548 537 543 502 558 525 549 546 528 512 530 0 0 0 0 0 0 0 0 0 0
0 0 0 0 0 0 0 0 0 0 0 0 0 0 0 0 0 0 0 0 0 0 0 488 497 498 497 492 494 491 498 503 500 497 504 492 506 499 507 500 505 499 498 500 498 513 500 507 507 506 503 503 507 510 511 508 505 511 504 506 512 498 510 505 509 505 510 506 513 504 512 520 501 507 511 514 560 545 540 535 568 568 536 556 559 555 543 553 532 565 560 561 556 567 526 575 568 556 572 554 538 547 560 559 573 608 549 565 598 567 566 527 0 0 0 0 0 0 0 0
0 0 0 0 0 0 0 0 0 0 0 0 0 0 0 0 0 0 0 0 0 0 0 487 489 482 491 488 489 496 501 494 496 491 488 496 481 486 490 502 490 499 504 499 501 496 499 495 500 505 500 495 502 503 499 505 502 511 500 500 501 501 504 502 501 504 500 506 504 510 515 503 514 504 513 508 510 534 524 511 537 498 532 526 524 549 532 519 541 544 536 513 551 551 530 534 548 542 526 536 521 535 520 565 542 528 552 508 520 512 513 0 0 0 0 0 0 0 0 0
0 0 0 0 0 0 0 0 0 0 0 0 0 0 0 0 0 0 0 0 0 0 424 486 493 490 487 490 488 485 492 499 492 491 495 494 493 492 487 494 495 502 490 495 493 496 500 499 498 504 504 499 498 499 502 506 500 498 507 502 507 498 500 502 503 506 497 509 496 501 507 508 506 504 499 502 508 527 527 504 511 536 495 512 508 521 477 486 523 500 530 541 508 527 505 532 519 526 517 517 507 546 482 509 514 512 508 489 510 471 507 497 479 0 0 0 0 0 0 0
0 0 0 0 0 0 0 0 0 0 0 0 0 0 0 0 0 0 0 0 0 0 470 483 494 488 490 502 500 499 495 486 499 492 499 496 490 494 500 498 506 499 500 500 503 504 499 499 499 495 505 505 501 498 503 507 503 505 505 509 507 508 501 512 510 506 512 516 513 509 506 509 509 505 513 502 520 537 540 527 544 534 542 521 540 527 543 531 519 545 524 538 549 559 521 536 545 557 549 519 533 508 532 545 552 517 521 561 528 509 570 568 0 0 0 0 0 0 0 0
0 0 0 0 0 0 0 0 0 0 0 0 0 0 0 0 0 0 0 0 0 0 480 483 489 489 493 489 485 488 482 493 494 484 489 484 491 494 491 496 499 498 495 501 497 504 497 491 496 498 502 501 497 495 496 501 504 508 508 497 507 501 511 501 502 507 504 501 510 509 506 501 507 503 510 508 508 532 522 524 512 489 494 517 538 513 511 477 482 524 528 511 505 517 517 515 506 487 524 502 506 490 540 503 524 509 532 477 525 532 556 551 572 0 0 0 0 0 0 0
0 0 0 0 0 0 0 0 0 0 0 0 0 0 0 0 0 0 0 0 0 0 495 499 497 490 487 492 489 494 491 490 486 491 491 485 483 493 499 496 495 500 503 501 507 492 500 502 499 498 495 508 502 505 505 505 506 500 506 514 509 512 506 507 502 497 510 504 497 501 514 510 501 505 500 505 507 517 509 528 516 520 538 524 529 535 520 520 513 512 530 547 520 495 559 549 530 535 532 543 553 521 536 544 506 509 518 528 553 529 544 495 527 0 0 0 0 0 0 0
0 0 0 0 0 0 0 0 0 0 0 0 0 0 0 0 0 0 0 0 0 0 491 489 492 493 497 493 493 501 499 497 494 492 489 490 494 490 490 493 494 492 503 495 504 502 498 500 500 501 502 500 497 502 499 508 503 499 505 493 510 508 504 511 504 506 505 497 504 509 501 506 503 504 512 504 510 520 522 550 535 529 517 516 541 586 534 535 528 522 548 534 536 555 535 500 512 526 530 554 547 504 517 552 516 521 553 549 562 542 566 481 565 0 0 0 0 0 0 0
0 0 0 0 0 0 0 0 0 0 0 0 0 0 0 0 0 0 0 0 0 0 477 476 491 485 480 485 486 487 493 482 491 483 494 489 495 490 495 492 490 487 489 492 492 490 493 504 495 497 493 493 498 497 501 498 502 501 496 500 498 499 501 507 505 498 497 502 497 503 498 497 507 498 499 498 498 509 510 519 509 515 521 517 489 515 491 534 509 496 512 498 521 488 486 510 515 500 520 525 480 501 491 479 497 503 496 472 0 0 432 504 503 0 0 0 0 0 0 0
0 0 0 0 0 0 0 0 0 0 0 0 0 0 0 0 0 0 0 0 0 475 485 485 487 489 501 490 493 493 486 495 485 504 489 487 496 492 491 495 495 499 498 497 494 494 501 496 496 502 498 505 499 507 503 499 497 501 505 508 506 500 507 510 504 497 504 505 504 510 510 501 503 511 508 510 503 512 507 525 539 508 525 522 521 536 530 530 538 551 527 516 543 546 524 536 524 552 528 543 577 519 522 549 560 541 531 525 559 530 484 0 0 0 0 0 0 0 0 0
0 0 0 0 0 0 0 0 0 0 0 0 0 0 0 0 0 0 0 0 0 407 471 479 486 481 489 478 476 481 482 481 491 489 482 494 488 488 486 485 496 497 492 492 494 488 496 498 496 499 498 501 496 497 499 502 506 501 500 503 500 505 496 502 500 503 499 506 502 500 501 498 497 497 504 507 504 505 508 500 516 507 499 501 528 488 523 497 476 497 485 487 492 499 507 515 489 507 477 486 494 498 502 498 472 500 502 491 485 497 504 465 0 0 0 0 0 0 0 0
0 0 0 0 0 0 0 0 0 0 0 0 0 0 0 0 0 0 0 0 0 467 474 485 493 485 487 486 478 488 481 493 486 486 484 483 483 489 483 488 491 493 491 493 495 494 496 494 497 491 490 498 497 495 494 499 500 500 507 499 508 498 500 505 503 504 504 508 505 498 497 497 504 507 510 503 500 501 519 493 496 518 503 507 501 512 494 504 500 520 479 491 530 507 498 487 502 534 533 510 538 514 495 527 523 519 509 497 498 512 502 449 462 522 525 0 0 0 0 0
0 0 0 0 0 0 0 0 0 0 0 0 0 0 0 0 0 0 0 0 0 455 486 474 488 485 485 482 486 486 483 491 484 486 495 486 487 488 490 492 496 490 493 496 491 495 493 496 497 496 492 495 499 494 499 504 501 498 505 507 497 498 503 504 503 504 509 511 502 508 508 504 504 509 506 503 508 517 510 525 508 519 502 486 521 519 503 519 515 513 546 505 502 513 486 525 536 505 511 508 534 527 519 541 535 520 516 516 482 508 525 537 570 0 0 0 0 0 0 0
0 0 0 0 0 0 0 0 0 0 0 0 0 0 0 0 0 0 0 0 0 447 484 481 483 480 478 477 480 487 482 483 485 491 484 488 484 489 487 491 492 490 490 494 491 491 492 492 491 488 496 495 494 500 497 498 499 498 499 496 502 494 503 498 498 507 501 503 499 506 503 501 498 498 495 496 498 500 500 499 487 486 505 479 496 498 503 503 503 497 493 490 492 496 506 493 491 499 506 507 501 482 532 502 507 522 501 512 456 487 506 453 531 0 0 0 0 0 0 0
0 0 0 0 0 0 0 0 0 0 0 0 0 0 0 0 0 0 0 0 0 470 476 487 477 491 487 474 478 482 485 484 482 487 496 482 485 483 489 489 491 488 492 495 491 491 500 497 497 493 498 496 494 499 500 496 497 496 498 498 496 498 498 502 500 502 502 500 503 500 501 501 502 508 502 504 503 503 514 507 512 528 493 488 487 500 516 511 511 503 524 516 525 518 512 509 520 486 508 534 521 513 507 520 516 526 510 544 538 507 531 511 514 498 0 0 0 0 0 0
0 0 0 0 0 0 0 0 0 0 0 0 0 0 0 0 0 0 0 0 0 457 478 478 479 479 481 480 482 478 487 486 487 483 487 492 484 489 488 490 499 491 490 493 491 496 496 492 492 495 495 498 495 499 494 497 497 501 506 501 500 496 505 502 498 498 503 500 499 505 500 493 506 498 504 501 493 503 509 498 507 503 511 509 486 486 520 507 516 514 516 521 512 519 539 499 522 486 561 490 532 512 503 525 507 522 505 518 511 508 530 485 536 0 0 0 0 0 0 0
0 0 0 0 0 0 0 0 0 0 0 0 0 0 0 0 0 0 0 0 0 465 478 480 479 474 477 480 476 480 479 484 486 489 487 483 486 488 486 490 492 488 486 497 491 495 485 493 491 489 490 493 495 495 498 498 490 492 498 497 497 498 500 502 499 502 503 499 496 501 499 497 493 499 498 498 501 500 501 498 497 517 503 480 508 500 499 513 519 510 490 480 488 484 495 502 501 536 510 508 502 507 514 509 483 537 507 505 488 497 485 515 512 0 0 0 0 0 0 0
0 0 0 0 0 0 0 0 0 0 0 0 0 0 0 0 0 0 0 0 0 436 484 483 472 481 477 475 481 484 482 488 478 486 488 484 487 491 494 492 490 487 487 491 490 497 497 494 495 497 494 491 497 494 499 499 497 498 497 500 496 499 502 498 504 502 503 497 501 497 502 500 498 499 496 499 506 497 509 533 536 498 532 516 527 495 537 520 517 535 513 510 508 510 521 514 545 487 517 529 513 494 505 536 511 535 535 547 535 532 479 535 527 486 0 0 0 0 0 0
0 0 0 0 0 0 0 0 0 0 0 0 0 0 0 0 0 0 0 0 0 434 472 477 472 481 480 482 478 482 480 481 476 482 481 480 488 485 480 483 485 488 491 490 491 492 488 489 486 496 495 491 494 495 498 497 492 499 502 493 495 498 498 497 498 503 500 501 497 505 498 496 498 503 500 500 500 495 494 498 507 509 505 490 495 510 482 487 500 482 503 492 516 511 481 487 527 482 523 491 479 482 486 499 489 455 501 517 489 502 475 487 458 473 0 0 0 0 0 0
0 0 0 0 0 0 0 0 0 0 0 0 0 0 0 0 0 0 0 0 0 458 475 474 475 475 480 478 480 481 481 479 483 485 482 482 481 481 485 485 489 491 493 488 483 494 492 490 492 494 493 493 490 496 496 495 490 498 494 494 498 502 499 499 498 501 497 497 499 497 495 496 501 499 500 497 498 490 502 482 499 511 497 483 485 498 489 484 491 495 498 503 483 507 502 505 470 490 501 487 511 487 487 497 491 488 472 489 515 518 544 473 470 460 442 0 0 0 0 0
0 0 0 0 0 0 0 0 0 0 0 0 0 0 0 0 0 0 0 0 0 0 476 474 479 475 479 481 478 485 485 483 483 478 482 479 484 484 488 493 486 487 488 490 491 491 490 492 491 494 496 496 498 495 498 494 491 496 496 496 504 501 499 500 498 498 499 497 499 498 501 494 503 499 497 501 492 499 492 492 502 499 506 514 501 514 497 495 508 497 497 508 515 515 505 504 491 506 501 505 516 515 500 505 505 504 518 491 480 496 557 565 459 471 0 0 0 0 0 0
0 0 0 0 0 0 0 0 0 0 0 0 0 0 0 0 0 0 0 0 0 0 496 475 466 470 477 481 476 480 477 477 477 482 482 479 481 484 486 478 489 488 489 486 486 491 484 488 491 488 487 491 492 492 492 493 494 491 498 496 495 491 493 496 496 493 499 501 490 493 501 493 494 495 499 496 498 497 494 492 495 482 490 500 507 501 505 469 504 489 499 498 504 513 516 511 487 504 497 486 476 478 482 486 495 457 468 491 488 503 467 488 460 0 0 0 0 0 0 0
0 0 0 0 0 0 0 0 0 0 0 0 0 0 0 0 0 0 0 0 0 0 522 469 473 475 479 480 475 477 480 477 482 483 485 487 485 481 486 488 485 485 489 492 488 487 496 484 492 498 493 496 488 495 497 494 495 494 496 498 494 499 498 494 501 497 495 499 497 494 499 493 500 496 493 499 497 503 504 501 502 505 509 514 516 516 510 505 501 517 530 519 515 508 535 528 524 526 515 523 519 513 520 506 504 543 498 462 515 544 508 466 531 515 517 486 0 0 0 0
0 0 0 0 0 0 0 0 0 0 0 0 0 0 0 0 0 0 0 0 0 0 610 472 479 479 480 475 473 474 474 480 472 477 479 488 485 484 487 481 484 490 485 491 490 486 491 486 489 487 491 493 493 496 492 497 492 495 493 495 490 496 505 496 494 493 495 494 498 495 495 492 500 494 492 495 495 491 494 505 502 502 536 509 509 508 521 510 511 498 528 524 503 550 522 539 519 520 501 522 495 518 478 491 511 491 495 509 466 520 523 518 502 483 538 0 0 0 0 0
0 0 0 0 0 0 0 0 0 0 0 0 0 0 0 0 0 0 0 0 0 0 0 483 464 474 477 473 478 473 471 484 481 482 477 476 480 480 483 484 487 490 486 490 486 482 482 484 494 487 488 490 493 493 495 497 494 496 493 495 491 501 493 493 493 494 494 501 493 495 497 496 496 497 487 494 489 497 496 500 498 492 487 511 511 492 507 517 489 501 487 513 492 523 512 510 491 496 494 484 487 507 491 498 480 479 469 499 483 489 509 534 455 0 0 0 0 0 0 0
0 0 0 0 0 0 0 0 0 0 0 0 0 0 0 0 0 0 0 0 0 0 0 486 475 468 475 475 481 479 485 483 477 481 484 482 479 486 485 482 486 488 489 487 486 486 494 495 489 491 489 489 488 495 495 492 495 490 495 491 496 494 495 492 498 492 497 498 496 495 499 492 495 492 493 489 497 492 505 503 509 503 507 496 517 501 494 512 499 510 509 509 517 511 527 524 519 501 507 540 515 494 534 494 528 517 501 489 520 487 548 489 521 556 0 0 0 0 0 0
0 0 0 0 0 0 0 0 0 0 0 0 0 0 0 0 0 0 0 0 0 0 0 496 476 475 479 471 474 472 479 479 481 482 475 482 480 484 485 485 481 482 490 489 483 483 489 488 489 484 493 490 491 487 493 490 495 497 494 494 493 493 497 499 498 495 496 493 497 497 494 497 494 496 491 496 493 503 490 497 518 497 495 509 522 520 499 510 519 503 518 537 493 501 518 510 508 510 503 499 544 527 480 490 481 485 478 481 475 503 501 493 438 541 488 0 0 0 0 0
0 0 0 0 0 0 0 0 0 0 0 0 0 0 0 0 0 0 0 0 0 0 0 0 474 471 474 468 467 476 477 477 479 478 478 478 479 480 479 480 479 487 481 488 483 488 490 487 491 490 486 490 493 491 489 495 494 492 490 494 493 493 494 490 497 491 496 492 495 491 495 490 494 496 488 487 497 494 497 506 507 483 497 502 499 503 481 498 499 501 497 495 484 505 515 496 486 490 504 507 490 532 471 484 473 473 476 476 463 475 484 523 459 472 459 469 0 0 0 0
0 0 0 0 0 0 0 0 0 0 0 0 0 0 0 0 0 0 0 0 0 0 0 0 530 469 471 477 468 476 478 471 475 473 482 476 475 478 485 485 485 487 483 485 483 488 490 486 486 492 491 486 493 492 496 487 495 497 494 491 493 492 494 499 496 496 494 496 491 493 496 493 498 494 490 486 488 503 503 485 493 515 507 503 527 524 520 529 490 521 511 514 490 515 558 505 533 517 520 518 499 508 522 503 469 506 507 478 474 509 488 513 485 476 517 0 0 0 0 0
0 0 0 0 0 0 0 0 0 0 0 0 0 0 0 0 0 0 0 0 0 0 0 0 0 462 463 476 470 465 466 473 472 474 477 472 476 475 475 482 480 481 480 481 485 484 488 485 483 489 488 485 486 489 486 487 495 489 487 493 489 492 492 494 494 492 490 493 493 499 489 492 492 491 494 487 473 486 489 481 482 479 483 495 492 491 476 485 492 490 492 494 497 508 498 500 505 499 462 509 486 477 492 482 462 462 482 493 463 473 450 469 438 465 0 0 0 0 0 0
0 0 0 0 0 0 0 0 0 0 0 0 0 0 0 0 0 0 0 0 0 0 0 0 0 524 470 473 475 474 467 473 471 477 475 478 478 474 481 481 482 482 486 479 483 484 483 486 486 484 488 486 488 493 494 493 494 492 489 494 488 488 493 493 489 495 492 490 494 491 493 499 495 492 494 488 491 488 491 481 491 504 494 489 488 491 485 496 502 486 484 501 488 498 513 517 520 482 488 499 521 512 498 526 519 471 481 494 489 474 482 466 441 526 449 0 0 0 0 0
0 0 0 0 0 0 0 0 0 0 0 0 0 0 0 0 0 0 0 0 0 0 0 0 0 0 485 468 466 473 470 477 472 474 472 475 477 477 479 482 475 478 480 483 485 486 484 487 481 488 487 489 491 488 486 489 493 491 489 486 490 486 491 491 494 492 498 488 496 491 496 493 490 488 483 499 481 484 487 487 474 483 487 491 497 502 488 496 487 491 496 474 492 482 494 500 480 492 507 494 515 530 524 493 491 492 497 492 475 483 462 520 514 479 0 0 0 0 0 0
0 0 0 0 0 0 0 0 0 0 0 0 0 0 0 0 0 0 0 0 0 0 0 0 0 0 0 476 462 466 468 471 474 470 468 471 475 478 475 478 476 482 476 476 475 487 487 482 487 483 486 489 488 490 482 484 491 488 486 494 485 485 490 488 486 494 486 491 492 486 485 483 491 481 479 490 489 488 481 483 486 485 488 479 487 479 488 491 483 487 490 493 504 470 489 476 516 486 487 476 471 470 486 473 462 491 451 491 453 447 458 454 497 461 495 0 0 0 0 0
0 0 0 0 0 0 0 0 0 0 0 0 0 0 0 0 0 0 0 0 0 0 0 0 0 0 0 499 469 470 471 475 471 473 473 473 475 473 478 474 480 473 476 482 485 480 481 486 482 488 484 486 494 490 488 482 486 482 488 491 489 489 489 490 490 490 488 491 489 490 485 486 483 486 489 491 487 493 495 498 488 495 500 507 498 491 494 496 482 489 524 498 517 508 487 519 491 513 498 504 503 501 501 483 464 489 491 509 496 496 484 461 489 479 443 0 0 0 0 0
0 0 0 0 0 0 0 0 0 0 0 0 0 0 0 0 0 0 0 0 0 0 0 0 0 0 0 0 507 467 469 469 467 463 472 473 475 472 474 471 476 481 476 479 480 480 478 479 487 483 483 483 485 485 488 485 483 484 486 483 486 485 483 492 486 489 491 490 495 485 490 486 478 491 478 487 488 487 481 472 484 469 486 472 489 475 492 500 483 513 485 476 483 488 496 511 489 484 493 490 484 492 501 495 479 494 463 470 474 460 443 495 490 506 498 0 0 0 0 0
0 0 0 0 0 245 237 274 308 0 0 0 0 0 0 0 0 0 0 0 0 0 0 0 0 0 0 0 0 508 458 466 465 470 466 472 472 475 472 474 473 478 480 473 478 481 477 484 474 477 478 479 482 483 487 481 488 486 486 480 483 485 490 488 483 487 490 488 486 486 476 490 483 482 483 478 491 495 470 479 484 484 479 493 504 488 490 489 469 491 475 500 514 494 499 490 475 476 473 499 487 516 497 488 451 490 469 458 480 453 436 484 489 434 471 0 0 0 0 0
0 0 0 0 242 229 237 236 235 306 384 0 0 0 0 0 0 0 0 0 0 0 0 0 0 0 0 0 0 0 463 474 470 467 464 475 474 472 478 474 472 481 475 477 485 479 479 476 480 481 477 486 481 487 485 484 482 481 489 483 486 484 484 489 485 489 482 489 485 478 483 486 484 476 479 483 494 476 482 480 503 483 482 481 487 499 479 492 480 470 493 496 494 491 492 500 480 493 482 514 478 495 499 475 480 458 494 490 480 481 510 463 461 445 0 0 0 0 0 0
0 0 0 232 220 223 224 224 239 242 293 0 0 0 0 0 0 0 0 0 0 0 0 0 0 0 0 0 0 0 0 470 456 467 463 470 461 467 468 470 471 472 471 467 467 478 468 477 476 475 478 475 480 478 483 479 482 480 478 478 482 485 476 483 483 479 476 476 469 475 477 475 475 480 486 476 475 454 478 478 469 470 485 467 470 456 463 461 471 467 469 473 485 454 479 465 467 463 495 465 462 462 473 438 500 434 453 450 460 458 448 475 472 421 418 0 0 0 0 0
245 248 303 262 284 303 276 239 241 243 314 0 399 423 427 425 432 427 425 439 460 472 466 455 458 477 446 456 451 459 455 463 464 468 468 466 464 470 463 466 467 472 480 470 472 472 478 476 476 477 473 474 479 478 485 479 481 480 476 486 478 482 471 476 481 487 478 487 481 485 487 478 486 473 472 472 476 491 480 463 482 474 484 458 476 494 472 478 491 489 475 480 474 510 481 485 467 486 461 467 484 492 480 491 487 472 456 463 480 472 454 422 501 506 479 462 0 0 0 0
232 195 221 207 239 236 246 237 228 249 403 369 389 399 387 406 398 398 413 423 408 413 419 417 419 437 433 429 440 445 445 456 456 456 456 461 458 463 458 461 465 465 468 467 461 467 474 469 474 476 471 466 475 477 474 471 473 474 469 477 475 475 476 474 477 479 478 475 478 474 471 467 469 462 466 458 461 463 453 454 462 450 465 467 459 460 456 458 463 466 464 460 450 450 460 449 463 468 463 464 450 442 449 439 452 457 444 455 437 459 443 471 440 440 465 426 466 0 0 0
182 193 174 216 223 238 235 227 231 308 382 346 369 365 374 364 376 366 365 372 373 376 372 405 398 406 422 413 431 426 439 443 451 441 443 445 441 443 435 446 444 450 442 449 446 450 454 451 458 461 454 457 459 456 450 455 454 456 456 460 461 466 456 464 459 452 463 459 454 452 458 456 453 442 442 434 430 442 413 426 423 430 429 432 427 439 423 423 416 425 413 431 421 417 420 413 423 414 425 426 420 413 419 424 415 421 415 414 419 389 410 415 427 412 402 401 393 428 0 0
292 279 260 226 232 225 231 234 276 342 331 348 357 348 343 348 355 344 349 355 348 360 385 385 383 392 400 406 420 422 419 429 425 432 431 437 439 433 430 434 433 431 433 439 442 443 435 443 443 442 443 439 437 447 445 443 448 448 447 447 446 449 447 444 441 443 437 441 446 436 441 435 434 427 428 424 421 417 407 401 403 403 410 414 391 403 401 394 410 399 399 389 397 400 411 400 409 399 407 384 400 411 405 396 394 396 388 395 394 411 409 417 389 405 404 413 407 378 418 403
299 288 286 250 232 230 234 246 281 311 304 295 305 303 294 313 309 314 316 328 336 333 330 345 351 371 380 386 397 390 398 407 401 412 416 407 408 410 410 416 411 411 412 416 416 422 413 426 421 416 412 414 423 428 426 422 418 427 416 423 424 425 412 429 418 419 423 421 419 416 413 414 400 404 395 391 384 374 371 368 359 357 359 361 353 361 362 367 358 365 367 368 353 360 369 373 365 351 364 366 373 361 359 356 351 369 342 352 368 361 342 374 385 370 375 356 350 359 358 353
281 275 262 255 253 256 265 277 275 285 288 284 289 274 289 287 291 287 288 284 290 309 311 320 326 346 356 374 369 378 376 383 396 389 381 387 395 398 396 397 399 388 395 385 393 394 400 397 388 397 388 395 404 397 402 389 394 402 402 397 397 392 404 392 396 387 397 395 394 392 387 394 394 384 374 368 359 349 342 332 330 327 329 340 335 334 339 334 331 330 321 316 325 325 331 327 323 321 334 330 329 319 330 337 333 341 335 326 335 313 327 346 326 343 339 333 314 304 310 341
274 254 252 252 247 253 252 266 260 268 266 257 255 265 261 272 269 268 279 279 270 286 297 303 311 321 338 338 353 358 363 370 365 364 369 361 374 373 371 372 370 370 376 375 374 375 371 367 368 380 380 377 374 379 382 381 385 382 378 381 378 373 377 377 370 373 371 372 370 375 365 370 359 361 350 344 329 334 314 310 308 306 311 307 307 303 307 306 306 305 311 312 315 303 302 299 309 298 289 296 300 309 311 313 309 308 314 299 320 312 330 310 320 320 301 320 295 334 302 319
222 225 222 232 226 229 243 234 239 235 236 242 248 244 236 258 251 240 249 250 255 267 274 281 288 301 320 329 320 324 333 333 340 338 338 344 345 339 342 344 348 343 353 356 344 345 346 345 344 344 347 348 350 353 350 349 348 352 357 347 352 353 355 341 348 349 343 354 350 344 348 344 343 333 323 325 315 297 288 285 285 275 277 275 284 273 276 277 279 278 276 283 284 277 272 269 270 277 274 287 292 281 273 279 276 276 289 265 275 274 264 304 289 273 263 258 293 281 264 245
213 226 235 234 236 221 221 225 218 226 240 236 225 243 232 237 234 238 237 242 249 245 259 262 276 282 295 303 308 307 312 316 319 329 324 322 322 323 329 335 331 327 318 318 328 328 328 332 327 320 326 327 337 330 331 333 333 325 337 326 327 326 327 328 324 322 331 324 326 322 326 321 324 313 312 297 287 284 271 276 270 265 261 264 260 265 260 260 259 259 263 264 261 260 262 261 264 255 259 265 267 266 272 279 260 260 261 266 278 263 271 289 265 270 264 282 264 291 272 301
205 201 195 222 209 212 214 216 216 217 204 212 207 215 213 213 213 222 215 225 228 226 241 250 259 263 268 274 285 285 288 294 296 295 298 296 298 303 302 305 298 299 294 300 300 299 306 304 307 305 308 301 300 298 296 306 306 307 306 307 301 307 307 303 306 306 305 305 303 310 299 304 298 287 293 277 268 261 256 252 248 249 245 248 240 239 242 241 252 250 246 247 248 253 236 239 236 239 242 244 241 241 245 245 243 246 244 236 241 249 255 251 251 261 243 248 266 249 242 259
184 202 202 195 196 202 211 206 182 203 205 203 190 186 200 192 204 193 211 217 213 222 233 234 241 244 250 265 271 267 270 274 273 271 276 276 278 278 284 281 281 284 286 286 286 282 283 284 282 283 285 283 286 284 281 282 284 280 284 286 286 290 286 285 287 289 287 285 283 279 287 277 277 271 268 262 252 247 247 236 233 227 229 230 233 224 227 221 228 227 233 229 227 220 221 226 222 220 225 223 231 231 224 241 228 217 227 229 235 228 230 233 241 236 227 242 232 226 246 236
176 177 192 191 188 186 189 203 185 202 184 184 187 182 183 184 189 188 185 211 216 211 220 226 229 230 238 242 248 248 257 262 260 257 261 263 261 261 269 267 265 264 267 269 263 266 268 267 266 270 265 269 269 264 268 270 272 267 270 277 271 266 270 275 265 271 272 266 270 269 268 259 262 259 253 249 242 231 230 224 226 223 224 220 223 226 218 213 221 217 220 226 223 215 218 221 216 217 212 225 225 220 220 215 213 215 220 221 225 225 224 242 230 227 237 222 219 243 240 231
174 166 170 175 177 171 180 183 181 179 181 184 178 180 187 184 183 187 181 192 185 184 191 213 198 222 220 220 226 233 233 244 239 245 243 238 241 243 250 246 242 246 249 241 252 249 246 249 247 246 249 252 246 250 245 248 245 250 250 252 249 244 253 248 247 254 249 251 247 246 249 249 235 240 235 226 216 218 214 216 192 191 191 188 190 194 188 199 196 188 189 193 191 184 190 193 185 187 192 185 188 191 208 188 190 188 187 202 200 203 204 204 207 196 203 195 206 214 203 211
170 179 174 176 175 182 168 176 176 181 181 178 173 173 182 178 178 176 185 184 185 189 189 198 209 194 212 218 216 220 228 226 224 221 226 229 230 229 234 231 232 230 235 230 235 239 230 228 233 236 237 234 233 232 237 234 235 238 236 236 237 235 239 237 232 232 233 230 233 232 235 233 230 222 221 216 195 194 199 187 194 198 192 191 194 186 185 193 193 184 192 193 188 190 191 183 190 182 188 191 189 179 180 186 180 183 186 181 182 179 178 187 199 199 207 200 175 213 201 202
167 166 171 172 175 168 169 168 169 164 169 167 169 169 168 172 173 174 176 181 178 184 190 189 189 188 190 191 208 211 212 212 211 211 211 215 214 213 213 198 215 221 220 218 221 223 219 219 223 223 217 227 222 222 226 221 220 225 222 224 219 227 225 221 220 218 218 218 222 220 224 219 216 198 197 194 187 195 191 188 187 186 187 187 188 188 187 187 187 181 182 183 190 181 184 186 183 181 183 181 188 182 179 187 180 182 182 180 182 175 183 183 178 171 186 189 183 200 205 209
152 155 161 160 159 160 157 165 162 164 159 161 161 161 159 159 167 171 172 173 171 171 180 180 184 185 184 184 193 193 182 194 185 194 196 192 186 185 197 188 191 188 193 189 194 196 194 196 192 194 194 193 195 198 195 191 195 195 196 193 203 200 197 195 193 189 194 192 194 193 197 198 195 192 189 194 196 189 187 180 179 178 177 175 173 167 178 180 177 175 173 175 173 173 173 170 170 170 166 169 168 173 173 173 177 167 168 168 169 173 174 176 170 170 169 173 168 173 163 167
147 155 154 155 157 156 158 159 160 157 160 157 156 158 156 157 159 164 157 168 167 167 177 173 180 181 180 182 181 186 190 188 188 192 190 191 193 196 191 192 196 194 192 188 191 198 196 200 195 193 192 197 198 198 198 198 200 201 197 201 200 197 199 200 197 194 196 200 199 196 198 194 193 194 190 187 187 185 177 175 177 172 164 163 169 173 171 172 167 171 169 169 172 170 172 166 165 166 165 170 170 173 173 166 165 162 165 166 168 167 169 166 170 173 179 164 161 178 176 177
147 143 147 148 148 150 149 148 151 149 150 152 150 152 152 149 155 148 158 157 162 168 169 172 173 170 176 175 175 181 179 183 183 182 178 182 182 178 182 184 183 182 186 185 184 185 185 183 188 188 189 189 187 186 188 186 188 191 0 190 190 189 186 186 188 184 190 187 189 189 186 185 183 180 177 177 174 176 171 167 163 161 162 162 159 161 165 161 165 163 161 164 160 162 166 163 156 160 161 163 159 159 163 158 156 156 159 156 154 160 157 162 159 164 160 169 159 167 166 163
136 138 137 140 140 150 150 148 142 145 149 143 141 146 144 148 143 145 148 151 157 157 163 162 166 169 169 170 169 172 169 175 175 174 172 173 177 175 176 178 170 179 177 177 176 177 181 179 177 180 181 175 179 181 181 180 181 0 0 179 178 178 180 180 181 176 178 179 181 175 173 175 175 176 169 172 172 166 163 159 164 159 153 155 160 158 156 152 153 155 150 154 158 156 155 150 155 154 155 154 154 155 153 156 155 147 146 151 159 156 157 153 148 155 159 150 157 158 141 163
140 133 133 138 146 143 151 143 146 143 140 143 145 144 142 145 145 150 148 147 153 155 156 159 163 158 165 160 167 166 161 167 169 168 165 168 169 172 167 169 173 0 173 169 174 177 172 171 171 174 178 174 174 176 175 0 174 174 0 0 174 0 175 171 173 171 175 171 175 172 170 168 169 168 165 166 168 158 157 153 150 154 152 150 157 153 151 151 151 159 148 153 149 150 151 150 149 148 156 149 150 150 147 150 149 144 142 141 153 152 147 146 150 156 152 162 145 156 165 161
129 125 127 128 134 137 141 139 133 119 133 133 127 133 138 134 134 139 135 146 142 145 149 151 147 158 157 155 156 162 162 156 160 160 158 157 166 164 0 0 0 0 0 0 0 0 0 164 165 168 165 164 167 166 0 0 172 166 0 0 0 0 0 0 168 0 167 0 161 163 164 162 162 159 157 160 151 155 148 151 150 145 147 148 144 149 143 148 144 144 148 144 145 145 142 138 141 145 143 145 136 140 141 142 140 136 135 135 137 138 138 144 146 144 146 148 126 137 146 123
124 127 125 124 130 131 136 134 139 132 134 132 127 128 133 127 131 139 137 135 140 143 148 148 151 148 155 151 155 158 151 156 155 158 153 155 158 0 0 0 0 0 0 0 0 0 0 0 0 163 164 161 0 0 0 0 0 0 0 0 0 0 0 0 0 0 0 0 0 0 0 158 163 154 155 150 150 153 148 142 139 144 146 141 141 141 143 141 143 131 138 140 139 141 130 139 145 141 138 141 138 133 136 135 129 136 132 135 140 145 140 145 142 140 137 138 142 131 134 151
116 110 119 124 127 125 128 129 130 127 124 122 122 121 120 131 132 132 130 138 135 127 136 141 143 141 145 144 147 150 151 149 152 153 150 151 0 0 0 0 0 0 0 0 0 0 0 0 152 153 156 0 0 0 0 0 0 0 0 0 0 0 0 0 0 0 0 0 0 0 0 0 153 148 150 147 145 144 143 146 131 141 138 130 128 127 136 141 137 132 139 140 130 128 120 131 142 138 135 136 135 138 134 132 126 130 133 126 137 140 138 141 142 140 141 140 130 128 117 133
106 108 112 114 111 114 121 117 115 119 115 112 114 116 128 123 123 119 117 117 123 123 129 123 136 140 139 140 143 144 141 143 141 144 146 144 0 0 0 0 0 0 0 0 0 0 0 0 0 0 0 0 0 0 0 0 0 0 0 0 0 0 0 0 0 0 0 0 0 0 0 0 144 139 143 140 141 131 127 139 128 125 123 120 127 122 124 124 122 125 124 124 115 125 125 127 125 133 122 125 120 130 131 118 120 119 116 119 128 130 121 119 118 128 115 125 105 106 108 108
109 111 118 118 115 119 117 116 120 119 113 122 118 120 118 126 119 120 120 118 116 114 120 117 137 129 136 137 0 137 0 0 0 139 140 0 0 0 0 0 0 0 0 0 0 0 0 0 0 0 0 0 0 0 0 0 0 0 0 0 0 0 0 0 0 0 0 0 0 0 0 0 0 135 127 127 123 126 117 128 123 118 123 124 117 122 118 121 120 122 119 125 118 115 113 122 119 121 124 120 121 127 119 118 118 110 116 120 112 125 135 111 134 116 127 122 113 133 153 160
103 100 111 110 104 103 106 108 102 102 115 108 105 108 105 109 109 119 118 113 116 120 111 119 120 123 124 121 122 126 0 0 0 0 128 0 0 0 0 0 0 0 0 0 0 0 0 0 0 0 0 0 0 0 0 0 0 0 0 0 0 0 0 0 0 0 0 0 0 0 0 0 133 0 0 127 120 122 123 118 114 116 111 114 112 117 114 116 109 115 111 118 111 112 109 108 113 115 115 112 115 115 110 116 111 117 107 109 110 107 109 111 100 130 124 104 108 110 116 131
99 100 92 94 103 104 103 101 102 106 102 100 106 107 110 106 108 108 116 107 111 111 111 108 116 110 119 119 118 122 0 126 0 0 0 0 0 0 0 0 0 0 0 0 0 0 0 0 0 0 0 0 0 0 0 0 0 0 0 0 0 0 0 0 0 0 0 0 0 0 0 0 0 122 0 115 121 116 114 113 115 114 105 102 110 109 110 117 107 108 114 114 112 112 107 114 109 111 98 122 109 110 114 104 108 117 107 107 113 117 105 109 115 100 105 141 123 101 100 137
101 107 99 105 99 101 103 91 95 99 100 101 102 98 102 96 106 105 114 117 113 107 98 110 112 108 115 117 114 121 122 120 124 0 0 0 0 0 0 0 0 0 0 0 0 0 0 0 0 0 0 0 0 0 0 0 0 0 0 0 0 0 0 0 0 0 0 0 0 0 0 0 123 122 110 119 114 119 118 117 105 112 102 121 111 105 102 104 101 107 109 111 111 96 101 103 110 103 113 105 105 111 110 105 109 108 116 98 109 101 99 101 104 100 126 107 139 142 129 132
89 83 77 86 83 83 85 92 90 82 92 93 96 97 93 89 79 93 92 87 92 84 100 104 101 101 115 107 0 114 107 105 117 0 0 0 0 0 0 0 0 0 0 0 0 0 0 0 0 0 0 0 0 0 0 0 0 0 0 0 0 0 0 0 0 0 0 0 0 0 0 117 110 112 108 112 107 103 102 99 102 104 98 91 100 97 90 101 108 101 93 96 105 85 87 98 95 107 84 95 92 95 95 94 84 92 94 93 93 84 90 91 89 94 96 100 96 83 103 137
93 86 91 90 97 98 97 103 92 97 96 95 93 94 96 97 100 92 102 96 98 107 104 104 105 106 111 106 0 108 113 109 114 115 123 107 112 0 113 0 0 119 0 0 0 0 0 0 0 0 0 0 0 0 0 0 0 0 0 0 0 0 0 0 113 0 0 0 111 0 109 111 114 114 113 107 108 113 103 99 110 103 105 91 96 101 106 103 102 103 106 107 110 98 104 104 101 96 102 108 103 95 96 103 98 104 96 85 89 85 93 92 97 108 102 87 106 99 141 140
85 92 93 90 94 96 93 94 83 99 87 90 89 94 89 86 97 98 99 94 102 94 97 113 88 102 106 106 105 108 95 0 105 101 98 105 0 115 116 0 110 0 0 0 0 0 0 0 0 0 0 0 0 0 0 0 0 107 0 0 111 105 105 108 114 110 104 0 113 106 111 102 106 100 112 110 101 91 100 99 93 98 101 86 96 90 93 104 106 96 99 106 109 88 85 87 91 96 92 88 94 86 90 98 92 90 105 99 95 88 96 88 86 93 103 104 135 117 114 124
84 87 82 86 91 89 101 86 90 83 88 87 88 91 92 88 87 90 93 88 84 94 93 83 87 93 92 91 104 90 97 99 98 96 93 110 100 100 103 101 103 95 101 108 109 92 0 0 94 100 0 106 103 92 101 110 107 101 107 103 101 104 112 102 99 110 102 95 101 107 99 106 106 101 106 94 93 95 99 92 95 93 91 97 92 95 88 97 95 96 101 87 92 93 94 90 87 94 94 83 88 88 93 88 90 80 95 84 80 93 88 92 92 105 82 87 90 77 80 77
84 82 87 89 87 89 101 106 89 83 87 81 86 88 85 92 92 96 91 101 87 98 94 95 92 99 94 92 99 103 96 86 96 98 99 101 100 98 96 109 102 99 99 105 103 97 105 0 103 102 97 105 99 100 103 105 103 105 100 108 106 93 96 105 104 99 99 104 98 106 101 106 100 96 105 89 96 96 99 85 97 98 94 94 95 99 90 89 91 88 88 100 87 92 94 94 96 92 100 88 86 101 82 89 92 101 98 100 90 91 93 94 100 124 95 134 150 96 157 133
82 74 70 70 79 86 92 89 87 80 84 85 87 81 88 85 87 87 87 87 87 87 93 87 88 86 89 92 86 94 93 93 81 94 95 96 94 84 90 97 92 90 85 91 95 96 93 104 95 91 96 98 99 89 94 85 106 90 100 99 100 98 82 79 97 83 98 92 95 98 95 85 98 94 98 96 95 95 97 96 90 93 82 87 88 95 93 92 86 89 94 79 89 84 89 86 88 81 77 91 82 86 82 70 84 82 86 85 80 89 71 90 82 95 94 112 110 116 120 52
75 77 81 86 72 85 82 88 84 80 83 89 80 83 83 86 87 90 85 87 85 94 83 93 89 85 94 84 87 90 88 94 93 97 96 93 96 93 88 96 96 97 96 93 87 99 92 98 97 88 97 87 96 88 102 97 91 87 90 97 101 86 87 95 89 97 90 97 106 94 98 95 86 96 94 85 95 84 96 93 90 90 89 90 81 86 91 83 98 92 77 88 77 83 93 84 89 86 79 84 85 82 78 77 77 87 80 90 82 85 85 86 80 100 82 103 97 82 118 209
