0 0 0 0 0 0 0 0 0 0 0 0 0 0 0 0 0 0 0 0 0 0 0 0 0 0 0 0 0 0 0 0 0 0 0 0 0 0 0 0 0 0 0 0 0 0 0 0 0 0 0 0 0 0 0 0 0 0 0 0 0 0 0 0 0 0 0 0 0 0 0 0 0 0 0 0 0 0 0 0 0 0 0 0 0 0 0 0 0 0 0 0 0 0 0 0 0 0 0 0 0 0 0 0 0 0 0 0 0 0 0 0 0 0 0 0 0 0 0 0
0 0 0 0 0 0 0 0 0 0 0 0 0 0 0 0 0 0 0 0 0 0 0 0 0 0 0 0 0 0 0 0 0 0 0 0 0 0 0 0 0 0 0 0 0 0 0 0 0 0 0 0 0 0 0 0 0 0 0 0 0 0 0 0 0 0 0 0 0 0 0 0 0 0 0 0 0 0 0 0 0 0 0 0 0 0 0 0 0 0 0 0 0 0 0 0 0 0 0 0 0 0 0 0 0 0 0 0 0 0 0 0 0 0 0 0 0 0 0 0
0 0 0 0 0 0 0 0 0 0 0 0 0 0 0 0 0 0 0 0 0 0 0 0 0 0 0 0 0 0 0 0 0 0 0 0 0 0 0 0 0 0 0 0 0 0 0 0 0 0 0 0 0 0 0 0 0 0 0 0 0 0 0 0 0 0 0 0 0 0 0 0 0 0 0 0 0 0 0 0 0 0 0 0 0 0 0 0 0 0 0 0 0 0 0 0 0 0 0 0 0 0 0 0 0 0 0 0 0 0 0 0 0 0 0 0 0 0 0 0
0 0 0 0 0 0 0 0 0 0 0 0 0 0 0 0 0 0 0 0 0 0 0 0 0 0 0 0 0 0 0 0 0 0 0 0 0 0 0 0 0 0 0 0 0 0 0 0 0 0 0 0 0 0 0 0 0 0 0 0 0 0 0 0 0 0 0 0 0 0 0 0 0 0 0 0 0 0 0 0 0 0 0 0 0 0 0 0 0 0 0 0 0 0 0 0 0 0 0 0 0 0 0 0 0 0 0 0 0 0 0 0 0 0 0 0 0 0 0 0
0 0 0 0 0 0 0 0 0 0 0 0 0 0 0 0 0 0 0 0 0 0 0 0 0 0 0 0 0 0 0 0 0 0 0 0 0 0 0 0 0 0 0 0 0 0 0 0 0 0 0 0 0 0 0 0 0 0 0 0 0 0 0 0 0 0 0 0 0 0 0 0 0 0 0 0 0 0 0 0 0 0 0 0 0 0 0 0 0 0 0 0 0 0 0 0 0 0 0 0 0 0 0 0 0 0 0 0 0 0 0 0 0 0 0 0 0 0 0 0
0 0 0 0 0 0 0 0 0 0 0 0 0 0 0 0 0 0 0 0 0 0 0 0 0 0 0 0 0 0 0 0 0 0 0 0 0 0 0 576 524 537 494 526 521 520 528 526 522 525 512 538 544 528 524 0 0 0 0 0 0 0 0 0 0 0 0 0 0 0 0 0 0 0 0 0 0 0 0 0 0 0 0 0 0 0 0 0 0 0 0 0 0 0 0 0 0 0 0 0 0 0 0 0 0 0 0 0 0 0 0 0 0 0 0 0 0 0 0 0
0 0 0 0 0 0 0 0 0 0 0 0 0 0 0 0 0 0 0 0 0 0 0 0 0 0 0 0 0 0 0 0 0 0 0 0 0 513 525 490 495 498 479 495 505 505 504 514 513 521 503 518 501 514 530 506 505 489 493 502 0 0 0 0 0 0 0 0 0 0 0 0 0 0 0 0 0 0 0 0 0 0 0 0 0 0 0 0 0 0 0 0 0 0 0 0 0 0 0 0 0 0 0 0 0 0 0 0 0 0 0 0 0 0 0 0 0 0 0 0
0 0 0 0 0 0 0 0 0 0 0 0 0 0 0 0 0 0 0 0 0 0 0 0 0 0 0 0 0 0 0 0 0 0 0 464 503 502 511 503 499 508 485 503 489 498 490 521 505 510 509 495 511 503 526 500 505 504 490 501 498 502 481 486 487 0 0 0 0 0 0 0 0 0 0 0 0 0 0 0 0 0 0 0 0 0 0 0 0 0 0 0 0 0 0 0 0 0 0 0 0 0 0 0 0 0 0 0 0 0 0 0 0 0 0 0 0 0 0 0
0 0 0 0 0 0 0 0 0 0 0 0 0 0 0 0 0 0 0 0 0 0 0 0 0 0 0 0 0 0 0 0 0 503 508 498 512 513 514 498 505 510 507 515 514 502 506 504 504 517 514 503 507 504 506 518 519 512 519 510 509 505 515 516 518 510 520 539 566 608 626 588 589 0 598 588 619 591 556 562 0 0 0 0 0 0 0 0 0 0 0 0 0 0 0 0 0 0 0 0 0 0 0 0 0 0 0 0 0 0 0 0 0 0 0 0 0 0 0 0
0 0 0 0 0 0 0 0 0 0 0 0 0 0 0 0 0 0 0 0 0 0 0 0 0 0 0 0 0 0 0 481 496 500 492 497 489 496 516 494 504 491 494 511 490 487 501 501 505 493 509 507 504 509 506 495 510 502 497 516 507 501 496 509 500 515 502 512 511 509 546 583 535 585 537 537 612 542 527 581 522 573 607 453 0 562 0 527 577 524 565 517 554 572 587 542 576 571 542 598 584 532 507 537 0 0 0 0 0 0 0 0 0 0 0 0 0 0 0 0
0 0 0 0 0 0 0 0 0 0 0 0 0 0 0 0 0 0 0 0 0 0 0 0 0 0 0 0 0 0 485 490 504 493 501 495 495 504 498 516 502 496 506 497 506 512 503 512 507 508 501 509 497 506 508 516 505 505 508 505 508 507 501 503 513 508 502 507 512 516 543 552 532 550 565 533 503 563 573 546 545 536 545 588 537 589 597 563 545 562 592 565 531 603 548 561 562 562 520 514 572 565 535 544 529 538 576 544 559 0 0 0 0 0 0 0 0 0 0 0
0 0 0 0 0 0 0 0 0 0 0 0 0 0 0 0 0 0 0 0 0 0 0 0 0 0 0 0 494 499 495 499 493 511 526 501 497 497 508 505 507 507 498 501 512 502 516 502 502 515 508 504 500 504 500 509 511 499 508 513 499 500 507 510 506 503 506 514 516 514 515 562 555 568 569 578 590 598 602 552 617 580 624 587 590 558 548 588 531 562 549 584 549 554 608 584 572 577 613 593 614 568 581 580 575 562 609 0 595 0 0 0 0 0 0 0 0 0 0 0
0 0 0 0 0 0 0 0 0 0 0 0 0 0 0 0 0 0 0 0 0 0 0 0 0 0 0 488 491 495 496 499 509 499 488 501 503 509 500 499 503 507 505 500 502 506 503 503 502 483 508 500 508 501 516 502 505 504 506 504 514 503 511 507 511 500 502 510 501 514 514 507 518 552 565 535 535 543 546 559 570 548 555 555 554 546 565 565 528 534 547 529 566 597 599 542 555 547 556 552 595 558 556 569 523 591 506 559 0 0 0 0 0 0 0 0 0 0 0 0
0 0 0 0 0 0 0 0 0 0 0 0 0 0 0 0 0 0 0 0 0 0 0 0 0 0 489 503 495 503 507 500 495 496 503 502 500 499 503 492 504 502 510 507 503 504 503 505 502 501 512 496 508 514 512 507 507 509 512 515 506 510 516 503 507 509 509 502 509 512 513 509 543 529 588 590 568 593 565 584 590 602 581 562 579 571 563 574 586 586 570 582 576 550 562 539 572 562 508 558 552 599 594 572 533 593 595 554 574 0 0 0 0 0 0 0 0 0 0 0
0 0 0 0 0 0 0 0 0 0 0 0 0 0 0 0 0 0 0 0 0 0 0 0 0 436 481 493 498 510 493 492 493 486 490 490 499 492 496 503 507 505 505 503 497 503 503 503 504 505 504 510 509 501 501 504 499 515 506 506 504 511 511 513 505 511 506 499 503 521 505 506 509 488 542 564 560 545 523 523 565 522 537 543 553 576 556 570 541 539 549 536 557 546 523 530 544 547 553 519 568 553 533 539 500 539 502 513 531 0 563 0 0 0 0 0 0 0 0 0
0 0 0 0 0 0 0 0 0 0 0 0 0 0 0 0 0 0 0 0 0 0 0 0 0 489 488 491 493 490 475 491 498 488 490 491 491 499 497 494 503 498 499 502 498 498 502 492 495 508 494 508 506 503 505 501 500 508 509 506 501 501 510 511 503 500 506 500 511 507 510 515 508 510 502 508 490 511 490 519 528 536 528 565 499 539 525 524 533 517 532 534 536 511 524 537 510 574 526 529 527 513 544 501 537 511 531 493 489 539 508 0 472 508 0 0 0 0 0 0
0 0 0 0 0 0 0 0 0 0 0 0 0 0 0 0 0 0 0 0 0 0 0 0 528 492 501 486 487 490 494 502 497 499 498 491 505 496 494 494 504 493 499 499 493 494 498 502 496 506 499 498 498 503 507 510 499 505 505 503 504 506 504 504 501 511 503 507 505 514 512 519 500 514 509 528 532 545 557 550 544 541 522 551 563 548 552 547 563 554 538 549 552 541 557 551 509 526 548 552 542 549 596 539 551 515 572 552 554 576 478 0 0 0 0 0 0 0 0 0
0 0 0 0 0 0 0 0 0 0 0 0 0 0 0 0 0 0 0 0 0 0 0 0 472 479 482 493 496 493 492 497 491 494 488 498 506 495 494 497 485 492 501 494 482 500 490 496 496 492 511 508 502 501 494 502 504 503 497 500 499 505 506 501 499 507 505 508 506 500 498 507 500 505 486 508 525 523 516 480 509 533 505 514 482 522 505 544 515 519 523 517 508 486 513 539 505 529 528 511 525 544 542 507 534 546 503 494 514 476 0 0 0 0 0 0 0 0 0 0
0 0 0 0 0 0 0 0 0 0 0 0 0 0 0 0 0 0 0 0 0 0 0 496 499 490 482 495 490 491 505 503 502 484 490 496 496 485 491 496 500 498 497 488 504 506 494 499 507 508 504 504 506 510 507 502 504 509 502 497 507 499 503 499 501 509 509 503 507 512 509 504 502 507 517 507 509 535 536 514 544 552 532 529 535 530 565 517 550 516 555 565 543 537 551 531 547 551 537 509 532 551 545 558 548 554 554 586 539 599 524 0 0 0 0 0 0 0 0 0
0 0 0 0 0 0 0 0 0 0 0 0 0 0 0 0 0 0 0 0 0 0 0 516 490 497 487 489 500 498 500 496 504 495 488 498 490 488 497 499 500 499 501 496 505 497 508 504 496 506 502 504 497 504 505 502 502 507 505 506 502 505 508 510 505 504 509 503 504 509 509 505 507 509 512 513 539 540 547 526 558 533 545 548 535 547 547 569 573 543 560 544 562 574 548 577 571 534 567 588 533 550 579 566 556 548 580 561 557 536 531 0 0 0 0 0 0 0 0 0
0 0 0 0 0 0 0 0 0 0 0 0 0 0 0 0 0 0 0 0 0 0 459 483 488 485 485 491 492 484 494 491 493 497 489 498 487 488 492 493 501 495 494 500 496 498 498 499 501 504 496 501 502 496 507 502 511 502 504 498 508 500 501 510 496 504 504 508 501 506 509 507 511 505 510 507 531 521 536 533 552 526 543 540 553 544 553 523 485 540 544 515 529 513 529 547 519 522 568 492 488 530 484 532 519 497 533 523 487 529 505 0 523 0 0 0 0 0 0 0
0 0 0 0 0 0 0 0 0 0 0 0 0 0 0 0 0 0 0 0 0 0 495 499 493 493 492 490 503 501 492 488 492 480 494 506 491 495 493 494 500 499 499 502 502 502 506 499 503 496 501 502 499 507 502 503 507 502 506 506 516 501 499 512 502 510 503 521 514 492 508 511 505 505 511 509 518 522 529 521 548 579 560 555 532 550 532 564 551 557 522 545 518 557 499 540 551 553 582 514 544 529 545 554 552 544 534 529 570 538 556 516 0 0 0 0 0 0 0 0
0 0 0 0 0 0 0 0 0 0 0 0 0 0 0 0 0 0 0 0 0 0 469 482 492 482 488 492 493 488 490 485 487 489 491 495 489 500 492 487 494 494 500 490 492 492 497 504 499 498 502 499 499 497 496 493 499 501 504 503 503 505 503 505 497 504 506 507 502 500 511 497 515 500 506 503 511 518 523 515 523 504 529 514 519 554 497 514 530 527 501 527 530 517 504 504 521 507 532 512 512 490 471 504 505 540 505 562 536 493 554 518 519 0 0 0 0 0 0 0
0 0 0 0 0 0 0 0 0 0 0 0 0 0 0 0 0 0 0 0 0 0 495 483 486 486 483 488 479 493 489 488 485 494 487 491 491 498 496 490 489 493 494 497 492 488 499 496 493 502 498 500 502 500 494 501 499 507 499 507 508 505 502 500 506 501 504 501 505 500 514 506 507 499 502 509 498 507 496 512 501 497 514 501 490 517 502 537 498 505 526 500 492 511 506 523 487 521 551 533 502 510 490 475 477 487 493 498 485 513 480 500 507 479 0 0 0 0 0 0
0 0 0 0 0 0 0 0 0 0 0 0 0 0 0 0 0 0 0 0 0 0 481 484 477 490 478 489 491 488 490 494 492 488 490 488 487 487 488 490 488 488 501 499 499 499 494 502 495 498 498 501 498 495 506 497 503 505 505 499 506 504 505 499 504 497 503 498 506 501 510 505 508 508 500 507 502 530 523 523 510 509 497 512 527 523 545 506 547 508 505 517 538 544 523 508 531 519 530 531 528 526 533 521 515 528 540 526 519 514 511 546 559 0 0 0 0 0 0 0
0 0 0 0 0 0 0 0 0 0 0 0 0 0 0 0 0 0 0 0 0 0 476 471 489 482 482 485 481 487 485 483 488 485 496 484 492 494 499 494 489 490 492 492 493 490 490 502 497 497 495 499 499 501 497 498 502 502 497 498 507 495 498 498 497 494 505 499 500 501 500 501 502 495 498 501 503 505 496 498 503 524 497 504 512 483 494 497 524 495 493 486 480 519 493 520 485 526 486 501 498 493 483 462 480 455 483 469 492 511 455 519 497 0 0 0 0 0 0 0
0 0 0 0 0 0 0 0 0 0 0 0 0 0 0 0 0 0 0 0 0 443 490 496 488 493 496 491 500 490 490 496 485 495 490 484 503 497 493 500 494 499 491 493 494 493 496 501 492 497 502 503 495 498 497 501 498 505 503 506 503 504 505 503 512 501 503 501 505 507 505 500 507 511 511 504 504 502 495 521 513 520 509 511 517 534 529 511 524 529 525 504 536 506 534 533 524 568 528 529 523 528 552 548 513 560 513 535 509 508 554 523 531 0 0 0 0 0 0 0
0 0 0 0 0 0 0 0 0 0 0 0 0 0 0 0 0 0 0 0 0 475 489 485 482 487 490 486 483 475 475 493 491 487 495 492 491 493 491 497 494 497 492 492 494 496 493 498 497 499 497 502 501 498 504 500 504 504 500 499 499 504 500 500 504 507 509 501 505 503 504 498 502 502 509 507 499 520 529 529 535 529 539 536 520 535 510 511 539 519 517 542 552 534 546 549 525 514 532 514 528 505 552 575 522 538 561 521 545 567 533 529 0 0 0 0 0 0 0 0
0 0 0 0 0 0 0 0 0 0 0 0 0 0 0 0 0 0 0 0 0 467 475 483 482 480 483 489 484 478 483 481 484 485 481 490 486 487 489 488 488 489 492 495 490 495 494 494 491 495 495 494 496 496 498 505 500 497 497 497 507 499 503 500 499 502 511 506 506 502 496 509 499 506 504 496 502 510 519 528 513 509 519 505 522 523 506 501 525 510 524 517 521 515 545 505 492 525 516 499 490 527 509 526 503 473 489 506 534 504 486 465 512 0 0 0 0 0 0 0
0 0 0 0 0 0 0 0 0 0 0 0 0 0 0 0 0 0 0 0 0 479 473 480 487 488 487 485 491 492 480 484 486 491 490 488 484 491 488 495 494 492 495 498 492 492 491 495 501 491 498 496 494 503 498 506 500 497 503 502 499 499 495 497 500 500 504 502 502 509 508 504 503 496 507 503 505 511 510 524 510 545 524 512 512 502 510 512 527 512 545 538 505 517 511 537 524 510 520 540 551 533 532 539 561 514 536 544 505 552 552 558 541 569 497 0 0 0 0 0
0 0 0 0 0 0 0 0 0 0 0 0 0 0 0 0 0 0 0 0 0 435 477 480 476 473 487 481 485 482 483 478 485 487 484 484 483 487 485 492 486 494 487 492 493 490 490 495 490 489 498 502 501 496 495 497 497 498 500 496 505 498 499 497 496 496 498 500 495 505 499 505 498 506 505 503 500 507 506 512 475 507 527 518 526 514 496 502 515 486 504 494 493 503 494 493 506 500 498 483 490 496 502 518 537 523 498 513 517 482 476 488 0 0 0 0 0 0 0 0
0 0 0 0 0 0 0 0 0 0 0 0 0 0 0 0 0 0 0 0 0 467 478 480 483 479 481 474 483 481 480 486 483 486 487 486 485 484 488 492 488 489 490 490 491 494 494 496 494 497 492 494 494 492 491 497 494 499 499 495 497 496 499 502 502 504 501 503 500 498 496 496 502 500 504 499 499 494 487 500 482 503 504 473 507 498 501 496 507 508 486 488 509 490 493 480 503 492 512 492 506 476 511 512 507 455 503 499 482 500 478 520 491 464 0 0 0 0 0 0
0 0 0 0 0 0 0 0 0 0 0 0 0 0 0 0 0 0 0 0 0 465 473 483 477 481 482 477 485 484 487 481 482 480 484 485 485 486 489 489 492 492 490 493 494 494 494 487 493 496 495 498 490 496 494 497 495 496 498 497 497 496 501 497 498 495 496 502 500 505 495 499 498 496 498 496 499 505 507 507 518 494 504 492 509 509 485 506 501 506 518 517 504 535 504 547 512 513 517 523 542 538 531 520 495 464 508 529 501 485 505 510 510 517 0 0 0 0 0 0
0 0 0 0 0 0 0 0 0 0 0 0 0 0 0 0 0 0 0 0 0 425 475 474 472 473 474 476 476 475 475 484 476 481 480 482 481 485 485 484 487 482 490 490 491 488 487 493 490 486 489 493 492 493 496 496 495 496 499 491 499 498 499 498 498 500 500 498 494 496 503 494 491 497 498 500 492 492 496 497 488 489 479 487 492 487 493 466 486 477 483 474 489 471 475 485 497 497 488 475 465 468 474 476 461 456 492 462 475 512 490 466 449 0 0 0 0 0 0 0
0 0 0 0 0 0 0 0 0 0 0 0 0 0 0 0 0 0 0 0 0 456 482 475 476 476 479 476 480 482 481 481 482 487 482 485 484 482 489 488 485 486 491 490 490 492 493 491 493 495 494 495 493 499 494 492 501 493 494 499 500 499 502 491 501 504 503 496 502 502 501 504 494 502 490 492 499 497 498 507 511 497 497 498 504 502 513 500 520 502 489 517 510 495 493 494 501 497 519 506 535 524 507 537 498 519 547 551 526 510 501 499 530 514 0 0 0 0 0 0
0 0 0 0 0 0 0 0 0 0 0 0 0 0 0 0 0 0 0 0 0 463 470 471 478 480 479 480 475 480 479 481 478 488 483 479 489 485 491 486 488 492 483 491 489 491 491 491 493 494 494 496 499 494 501 498 492 495 494 498 496 499 495 499 500 500 501 499 494 503 498 496 498 501 496 497 502 497 522 517 510 496 520 484 506 509 513 509 540 516 522 521 525 525 535 486 531 491 512 501 519 528 505 517 539 523 513 517 516 560 530 516 528 529 0 0 0 0 0 0
0 0 0 0 0 0 0 0 0 0 0 0 0 0 0 0 0 0 0 0 0 484 474 469 475 472 479 471 473 475 483 483 480 484 487 487 486 481 482 487 481 486 488 484 486 496 492 495 492 492 493 496 492 496 496 489 498 494 492 495 493 495 501 500 502 496 499 499 496 499 495 490 497 499 498 497 498 488 495 503 497 496 489 487 493 491 484 490 481 488 502 487 497 484 494 472 464 499 503 503 511 495 495 488 502 503 500 489 498 515 487 542 496 515 0 0 0 0 0 0
0 0 0 0 0 0 0 0 0 0 0 0 0 0 0 0 0 0 0 0 0 0 483 476 478 478 476 475 483 485 484 484 485 487 486 483 488 478 488 488 488 485 492 488 490 489 491 492 492 495 493 498 498 497 497 497 495 497 496 492 498 499 499 500 499 503 497 495 498 496 495 500 499 498 496 503 499 500 514 497 511 501 518 510 516 505 512 516 514 518 520 533 499 501 523 540 540 525 536 516 509 525 492 528 511 529 502 548 528 507 468 522 506 510 0 0 0 0 0 0
0 0 0 0 0 0 0 0 0 0 0 0 0 0 0 0 0 0 0 0 0 0 498 469 471 473 476 477 475 485 477 473 481 481 481 481 488 487 488 484 488 486 486 481 485 488 485 488 492 489 488 489 494 495 489 488 496 494 495 495 497 498 493 499 497 493 500 495 498 493 501 494 499 497 502 496 500 503 500 519 522 510 512 502 521 508 516 522 513 499 540 514 515 481 526 508 519 535 491 496 506 509 527 499 498 481 538 512 498 519 507 510 519 484 0 0 0 0 0 0
0 0 0 0 0 0 0 0 0 0 0 0 0 0 0 0 0 0 0 0 0 0 526 472 469 477 479 478 479 482 477 479 481 483 476 485 483 484 480 481 487 486 486 491 485 492 488 488 492 491 489 492 492 493 495 489 492 494 493 500 495 490 495 493 497 491 494 498 495 499 493 494 494 494 492 491 496 498 486 504 490 491 498 515 503 507 498 526 500 510 497 510 497 516 482 518 488 486 529 500 503 476 489 495 434 489 486 498 478 464 497 496 517 500 443 458 0 0 0 0
0 0 0 0 0 0 0 0 0 0 0 0 0 0 0 0 0 0 0 0 0 0 590 473 475 481 477 473 470 478 479 477 480 480 480 480 483 486 486 484 486 489 487 488 485 490 492 493 496 486 490 495 496 493 492 500 495 491 497 494 491 495 501 498 499 495 499 495 496 495 492 494 490 498 501 497 496 502 500 501 493 530 503 500 511 503 513 502 529 513 516 523 503 512 549 484 487 518 502 523 509 536 481 512 501 495 504 486 472 479 503 489 486 493 525 446 0 0 0 0
0 0 0 0 0 0 0 0 0 0 0 0 0 0 0 0 0 0 0 0 0 0 0 473 470 467 473 472 476 471 472 477 475 478 479 477 480 478 481 483 486 481 483 486 484 486 484 483 490 493 489 488 494 492 490 493 489 494 489 497 493 491 491 490 492 493 491 500 492 493 496 491 499 491 488 494 488 498 491 488 493 488 482 491 481 483 487 480 486 511 473 507 492 506 496 472 509 499 471 491 465 483 484 486 477 451 488 489 462 496 478 454 447 0 0 0 0 0 0 0
0 0 0 0 0 0 0 0 0 0 0 0 0 0 0 0 0 0 0 0 0 0 0 490 478 470 472 469 476 478 478 478 478 483 481 476 479 476 486 480 482 478 489 486 487 486 489 488 491 488 492 490 487 490 493 490 493 486 492 492 496 493 497 497 492 493 492 493 496 499 490 495 492 489 492 488 497 496 487 508 498 497 494 493 492 495 514 512 499 491 499 498 510 514 500 518 492 493 521 505 506 511 508 527 461 498 482 496 507 513 481 494 484 479 0 0 0 0 0 0
0 0 0 0 0 0 0 0 0 0 0 0 0 0 0 0 0 0 0 0 0 0 0 533 469 475 473 476 469 471 476 480 480 480 478 480 479 484 475 487 480 484 489 489 484 488 495 489 492 485 492 492 487 490 498 487 494 495 493 491 496 496 494 499 499 494 493 497 498 494 496 495 491 501 492 490 494 505 505 496 511 495 496 508 522 521 505 513 497 516 513 520 534 500 514 514 548 517 496 497 542 529 479 493 514 528 501 502 508 496 515 583 517 0 0 0 0 0 0 0
0 0 0 0 0 0 0 0 0 0 0 0 0 0 0 0 0 0 0 0 0 0 0 0 470 466 460 468 474 470 477 474 476 481 478 476 476 480 480 479 479 481 481 488 484 484 486 488 492 491 487 486 489 490 489 488 491 493 491 495 495 498 496 492 498 496 494 496 495 492 496 490 494 494 492 485 493 500 497 501 479 498 498 502 515 506 509 519 513 499 484 492 515 491 530 510 504 491 499 501 485 532 501 482 469 443 485 529 453 503 512 501 478 471 508 459 0 0 0 0
0 0 0 0 0 0 0 0 0 0 0 0 0 0 0 0 0 0 0 0 0 0 0 0 516 483 466 477 479 478 474 477 475 473 481 479 481 480 481 478 482 481 484 488 482 484 491 487 486 490 495 491 492 492 495 492 500 489 494 490 493 492 492 493 493 493 500 490 494 491 493 496 495 492 495 493 495 508 503 513 517 505 500 526 533 539 518 532 525 518 521 517 569 524 547 561 525 543 529 508 511 498 535 525 515 502 470 506 522 512 543 523 517 475 510 0 0 0 0 0
0 0 0 0 0 0 0 0 0 0 0 0 0 0 0 0 0 0 0 0 0 0 0 0 0 475 469 470 469 470 470 476 479 476 470 475 478 473 478 478 477 478 478 488 486 483 489 488 484 489 492 485 487 490 490 490 488 485 488 488 490 488 493 489 490 491 489 493 492 494 487 485 492 488 490 489 486 484 485 486 496 495 489 502 487 489 488 501 501 498 493 512 470 486 488 482 485 514 487 507 490 505 467 462 474 508 487 487 455 466 478 478 467 502 0 0 0 0 0 0
0 0 0 0 0 0 0 0 0 0 0 0 0 0 0 0 0 0 0 0 0 0 0 0 0 514 466 472 468 471 464 471 478 472 471 474 476 477 479 477 479 472 480 481 482 480 482 485 484 486 482 483 487 490 490 492 486 489 493 487 488 492 488 492 489 488 494 488 490 490 496 488 493 498 485 475 480 492 480 463 487 494 482 477 499 478 482 495 484 485 496 492 479 498 490 502 510 484 475 470 470 488 473 439 464 470 473 466 479 465 468 499 454 441 420 0 0 0 0 0
0 0 0 0 0 0 0 0 0 0 0 0 0 0 0 0 0 0 0 0 0 0 0 0 0 0 491 468 464 470 469 474 472 474 471 475 474 474 478 477 474 478 480 483 484 481 482 481 484 486 488 487 491 492 490 488 490 486 492 490 489 489 490 492 493 492 493 483 495 492 493 492 494 488 487 499 480 491 504 497 488 478 486 491 484 490 494 490 482 503 486 496 498 506 484 495 495 496 502 503 512 498 516 499 497 493 477 490 488 497 523 530 483 528 0 0 0 0 0 0
0 0 0 0 0 0 0 0 0 0 0 0 0 0 0 0 0 0 0 0 0 0 0 0 0 0 0 464 464 466 465 466 470 471 470 468 470 473 473 472 477 477 473 476 480 483 480 478 484 485 484 485 479 486 485 481 484 489 479 482 486 486 483 485 490 488 485 487 488 487 486 488 486 481 479 469 477 481 478 480 467 473 475 469 493 485 485 475 463 474 487 490 471 475 461 461 471 490 486 476 494 468 478 457 483 472 449 450 439 454 452 434 434 439 0 0 0 0 0 0
0 0 0 0 0 0 0 0 0 0 0 0 0 0 0 0 0 0 0 0 0 0 0 0 0 0 0 500 470 466 462 467 470 473 472 468 472 473 476 474 476 475 477 481 479 477 477 481 483 484 484 483 484 483 488 486 490 480 481 486 485 485 492 488 491 490 492 490 488 490 490 490 484 476 494 491 489 481 491 492 492 488 484 502 494 484 490 483 486 510 506 489 498 482 505 506 477 488 487 487 500 497 516 484 475 485 455 522 485 462 491 455 484 465 520 0 0 0 0 0
0 0 0 0 0 0 0 0 0 0 0 0 0 0 0 0 0 0 0 0 0 0 0 0 0 0 0 0 508 468 467 465 466 464 470 472 471 475 474 476 476 477 477 480 478 484 479 480 484 482 486 483 485 488 483 481 485 485 482 488 489 487 488 489 492 484 489 486 488 485 489 492 485 493 496 494 497 486 486 498 481 502 489 475 493 505 509 510 490 502 480 492 508 522 495 517 474 506 501 502 505 508 491 477 482 505 511 516 486 505 485 555 514 529 541 0 0 0 0 0
0 0 0 0 0 243 240 248 286 0 0 0 0 0 0 0 0 0 0 0 0 2379 0 0 0 0 0 0 0 485 460 468 467 465 465 467 473 468 469 473 468 473 476 472 479 478 479 475 470 477 479 482 481 481 481 480 484 487 485 479 485 482 487 485 484 485 486 481 480 484 478 473 467 478 488 479 489 473 483 490 492 474 500 491 490 487 487 482 462 498 478 477 455 489 476 477 481 460 456 459 466 470 458 483 470 452 457 485 448 470 451 439 428 436 416 0 0 0 0 0
0 0 0 0 258 230 235 238 237 302 383 0 0 0 0 0 0 0 0 0 0 0 0 0 0 0 0 0 0 0 467 465 466 471 469 471 474 472 475 472 477 476 474 474 478 476 481 478 479 478 480 483 485 479 479 484 481 483 485 488 484 485 483 486 486 489 483 484 486 480 491 484 489 477 489 491 492 478 489 490 503 474 488 470 495 496 502 496 487 495 483 492 508 489 500 488 507 486 488 522 494 511 487 508 511 490 496 500 499 474 486 511 537 468 0 0 0 0 0 0
0 0 0 230 214 230 222 231 233 232 321 0 0 0 0 0 0 0 0 0 0 0 0 0 0 0 0 0 0 0 0 477 460 470 461 464 470 466 467 471 470 469 475 469 473 473 474 472 477 476 478 476 476 474 474 473 480 470 477 485 479 481 479 484 478 480 480 475 469 477 476 485 471 473 486 481 480 480 471 471 486 480 480 471 472 480 461 486 484 473 471 480 473 487 469 446 486 480 487 482 462 484 470 454 452 495 457 456 469 461 454 489 446 430 434 0 0 0 0 0
181 208 246 248 258 264 263 230 241 242 306 0 419 407 413 412 393 409 408 416 460 444 416 428 442 427 448 438 428 456 445 464 467 458 465 465 463 460 460 465 464 471 470 464 472 471 472 470 475 473 467 473 473 474 484 475 473 476 485 477 480 481 473 476 480 477 474 488 476 474 472 474 469 465 479 469 471 474 471 488 454 465 456 462 458 458 480 462 463 466 465 478 463 467 469 461 448 456 455 487 462 455 459 460 451 442 416 429 443 454 454 452 479 426 441 0 0 0 0 0
172 203 230 244 277 253 255 236 227 267 409 380 406 378 402 399 396 419 402 402 435 413 411 432 425 431 421 432 444 455 447 460 452 462 454 458 454 463 461 461 465 464 456 469 465 471 469 469 470 473 465 466 469 466 471 469 469 473 473 472 471 466 473 470 472 473 471 474 481 469 466 471 466 469 467 454 467 463 459 458 469 467 457 462 461 454 447 443 455 455 458 448 438 457 450 449 453 463 439 469 441 452 451 433 448 464 455 465 434 438 454 446 473 441 414 436 429 0 0 0
166 174 182 219 199 222 235 226 223 312 351 356 373 371 360 356 363 366 366 380 371 372 393 382 401 400 406 413 422 438 438 439 434 443 440 435 438 440 438 440 443 449 450 450 445 447 447 452 448 462 453 449 453 456 451 453 457 455 452 458 460 457 456 457 455 450 456 453 458 454 453 455 440 441 432 432 428 425 420 427 433 417 417 420 419 429 432 417 429 417 415 428 429 410 424 400 410 417 404 423 398 418 413 396 404 396 407 413 396 402 416 400 377 416 379 402 360 400 373 0
303 297 253 221 236 228 235 234 265 363 338 341 341 344 345 332 351 344 353 355 348 349 359 379 379 401 399 403 415 419 414 426 416 433 425 429 433 424 431 429 429 431 428 432 432 437 434 439 444 440 443 434 435 447 449 452 442 448 443 445 445 448 446 445 438 438 444 441 442 433 429 436 431 421 422 425 410 408 407 402 397 397 395 392 398 403 388 404 396 391 396 393 404 405 410 399 396 403 394 400 396 387 397 400 406 394 402 382 380 394 397 383 423 415 394 406 420 398 422 408
311 290 279 242 237 233 229 250 304 293 324 304 321 315 313 335 320 317 317 319 325 326 327 344 351 368 383 388 398 400 395 402 405 417 410 408 416 410 417 414 414 419 413 414 418 416 412 423 420 421 417 420 423 421 424 424 423 423 422 426 428 425 418 422 418 418 426 421 421 414 419 410 406 408 397 400 380 367 372 363 372 367 361 355 363 348 369 366 363 371 367 366 369 366 380 366 367 378 361 366 360 364 371 370 357 356 365 354 364 369 354 358 356 372 370 389 362 407 361 393
276 264 280 270 252 248 256 291 282 284 285 273 266 302 274 282 286 285 292 285 295 304 309 314 335 351 356 370 364 374 380 389 393 392 380 382 391 395 399 390 395 395 394 394 396 393 397 392 392 395 399 400 399 400 395 400 393 394 402 404 398 392 395 394 390 393 398 392 398 393 391 392 384 381 365 353 355 333 342 337 331 326 328 327 336 333 327 335 331 326 320 322 335 327 346 340 324 330 326 330 333 345 335 331 338 333 344 339 342 343 324 330 318 331 325 344 301 327 343 308
247 247 254 260 253 244 253 255 262 266 269 265 267 261 261 269 277 272 270 273 266 287 296 300 307 324 342 353 347 361 363 370 361 367 363 360 370 372 368 370 373 373 377 377 372 370 369 375 366 371 378 378 372 375 386 377 374 381 375 380 382 376 375 370 373 371 371 374 373 377 375 369 359 362 344 344 328 323 318 310 309 300 311 306 304 312 301 316 299 305 309 303 313 294 321 305 306 298 287 308 304 314 306 307 311 308 317 310 314 302 316 302 342 331 305 322 334 324 328 329
208 220 222 235 232 240 240 234 247 232 232 233 247 246 237 244 242 241 255 248 258 260 270 277 287 297 312 325 326 333 325 340 348 340 344 344 347 343 338 341 351 350 347 344 346 348 347 350 346 341 339 348 349 351 350 352 352 345 353 343 350 355 345 345 345 345 348 348 348 346 343 339 340 338 324 321 308 296 291 287 285 276 275 273 282 283 278 277 277 275 273 278 277 269 273 277 270 272 278 276 280 279 272 273 273 269 277 276 279 281 273 281 261 284 266 267 299 278 252 294
209 213 223 230 232 216 222 215 219 229 230 228 222 236 224 235 230 229 224 242 246 244 249 261 273 284 296 296 303 300 309 316 310 320 315 318 315 321 325 324 326 318 315 321 326 326 329 334 323 326 325 323 326 332 331 329 328 321 335 332 328 328 328 322 327 324 326 326 325 325 320 320 318 308 305 293 281 277 270 272 265 266 259 270 257 263 253 256 256 256 249 264 257 257 254 253 251 252 258 253 258 261 262 270 249 261 262 248 263 264 265 256 248 256 255 268 234 263 260 258
201 208 199 212 207 206 212 218 211 219 212 209 212 213 217 210 212 219 216 228 227 229 243 257 253 259 269 279 277 276 289 299 292 287 295 294 293 294 305 298 301 297 298 299 299 302 309 300 303 309 308 300 299 308 301 305 306 302 303 306 301 307 308 306 308 303 300 301 303 300 296 301 301 291 289 276 270 263 256 250 247 244 243 251 246 242 243 238 240 253 241 247 246 244 241 235 243 244 243 233 243 244 241 237 240 236 237 245 248 257 250 250 245 268 252 259 246 255 281 243
183 199 195 203 179 199 203 209 202 187 201 182 190 187 200 186 203 189 205 208 215 224 228 234 236 249 250 259 262 265 267 269 272 273 276 279 277 284 283 278 282 279 287 286 283 286 281 281 282 288 282 282 276 284 277 288 286 288 286 285 282 285 286 289 286 290 282 282 284 279 284 276 275 271 267 255 250 247 237 236 228 232 234 230 230 222 225 222 225 218 223 233 223 228 224 233 227 221 228 220 229 224 227 222 225 220 222 230 226 227 226 226 237 240 230 221 232 221 222 227
177 176 176 191 188 197 198 191 186 181 184 186 187 184 191 182 185 186 187 189 211 213 221 227 224 230 238 244 243 248 254 255 260 256 259 256 261 262 265 267 264 262 265 266 264 265 266 271 262 268 268 266 269 269 269 267 266 266 262 275 267 267 269 273 270 274 273 265 272 264 267 255 258 254 250 243 242 235 222 220 218 218 220 218 217 222 222 210 215 224 220 220 219 213 213 217 214 208 207 216 223 221 219 215 208 208 213 215 216 216 216 234 227 222 222 209 240 232 232 243
168 169 176 177 178 177 176 174 182 177 175 178 178 180 184 186 181 187 180 180 188 192 204 216 215 222 225 225 224 231 232 242 244 242 245 237 237 244 249 248 246 246 248 248 251 256 251 245 249 250 245 249 249 252 244 247 251 247 248 254 249 246 254 245 240 252 246 247 244 245 244 246 240 243 237 230 223 217 213 195 196 197 186 186 192 188 190 199 198 193 194 186 198 191 206 186 191 187 192 193 189 206 208 186 185 193 201 202 202 213 215 208 226 207 220 198 208 217 204 216
168 170 172 169 175 177 172 174 175 176 177 172 179 169 179 177 177 175 183 183 187 187 185 196 210 190 210 214 217 221 224 226 222 221 229 231 226 231 231 230 225 231 230 234 235 235 227 227 238 237 234 237 236 229 235 234 236 237 236 235 234 239 236 237 233 230 234 227 232 231 234 231 229 223 216 217 196 200 187 186 196 193 192 193 190 192 191 191 190 189 182 190 191 180 182 182 179 187 182 182 187 175 178 176 182 175 178 180 174 179 183 172 180 188 196 198 200 204 193 195
169 161 170 170 174 165 169 171 165 161 171 164 169 174 170 171 170 174 176 180 176 185 191 180 188 189 187 192 206 192 196 218 215 214 215 213 216 214 211 212 218 218 217 218 221 223 219 223 219 225 217 222 223 223 224 225 222 224 219 227 223 224 224 222 220 221 218 219 222 221 225 217 216 211 191 190 187 195 192 191 190 185 191 186 185 184 185 181 186 185 182 186 184 179 184 184 183 181 177 182 185 182 182 177 176 182 178 179 176 181 173 177 176 171 197 178 180 208 198 231
144 151 157 155 158 163 157 163 161 158 162 156 160 163 160 162 162 168 171 175 170 174 179 179 184 183 184 191 191 193 194 183 180 184 183 189 186 189 186 189 191 193 194 189 193 196 196 193 191 193 195 196 196 196 197 193 196 196 194 194 203 200 198 193 194 193 194 193 195 196 200 195 193 191 197 194 193 189 180 179 175 177 174 172 173 173 173 177 173 177 176 176 172 173 172 172 167 169 169 169 175 170 172 170 171 172 166 169 168 168 169 168 167 177 177 166 170 167 172 167
143 150 152 153 155 155 157 158 161 159 157 154 155 155 161 153 156 164 153 166 167 169 175 173 177 176 178 179 181 188 188 187 187 191 192 186 194 195 189 191 195 192 190 196 195 197 194 195 197 194 194 189 196 197 186 195 199 199 198 200 197 195 197 199 194 194 194 197 197 199 196 194 192 192 189 182 184 186 179 169 175 170 165 162 168 170 168 167 172 166 172 169 169 170 168 164 164 165 164 170 164 168 172 170 167 163 161 162 168 168 164 161 164 172 172 156 164 178 168 164
147 141 141 144 146 147 147 150 151 152 151 152 148 156 153 148 154 151 156 156 160 164 167 174 169 170 174 174 177 179 178 178 180 181 178 182 182 183 183 185 186 180 186 185 184 187 187 184 189 185 183 188 187 185 188 186 188 189 0 189 190 186 187 187 187 186 189 187 186 186 187 182 182 181 175 176 173 175 170 166 160 161 162 158 159 161 163 163 166 161 161 163 166 161 160 160 158 156 161 159 161 163 161 158 160 158 154 161 153 166 161 162 158 157 163 173 157 160 171 193
135 136 135 139 143 149 148 145 144 143 142 143 139 143 144 143 144 145 148 150 154 159 159 162 168 166 168 168 166 170 169 170 175 174 171 173 174 174 173 177 173 178 176 178 175 177 175 177 175 176 182 177 180 180 179 180 181 0 0 178 176 177 177 178 180 175 179 179 178 168 175 175 172 174 173 170 168 164 163 161 159 155 156 153 158 157 159 153 157 153 147 153 156 151 154 150 150 156 153 153 154 152 153 153 148 148 141 149 160 149 147 143 139 148 144 141 137 145 142 142
138 133 130 141 143 144 150 142 143 142 139 139 142 143 146 138 144 145 144 146 152 154 154 155 162 159 163 160 167 163 163 165 168 167 164 166 167 166 167 170 169 0 172 169 173 175 172 171 172 170 173 174 173 175 176 0 171 174 0 175 174 0 0 174 172 172 173 167 175 171 166 165 169 168 161 164 166 157 156 152 151 152 152 150 153 149 150 148 151 156 145 152 149 151 151 147 152 150 154 148 147 146 146 156 149 143 142 145 149 150 152 148 153 158 155 154 146 155 150 167
129 122 126 123 136 131 142 137 134 123 135 129 134 133 136 138 135 135 139 143 142 145 147 153 149 158 155 154 156 160 156 154 159 159 160 158 163 164 0 0 0 0 0 0 0 0 0 163 165 165 167 164 169 166 0 0 169 169 168 0 0 0 0 0 166 166 167 0 162 163 162 159 159 160 157 154 155 157 149 150 154 146 144 147 142 151 143 143 147 143 141 144 141 145 137 139 144 146 141 142 139 137 141 138 134 139 138 134 144 141 141 145 147 157 157 145 142 142 143 150
114 119 123 124 130 131 136 130 137 131 123 131 127 126 125 127 123 140 134 135 138 143 145 144 149 147 153 151 152 153 150 156 157 157 152 155 153 0 0 0 0 0 0 0 0 0 0 0 0 162 164 160 0 0 0 0 0 0 0 0 0 0 0 0 163 159 0 0 0 0 0 154 160 156 154 149 150 149 147 146 143 141 144 139 141 142 143 139 141 141 136 137 138 140 129 136 143 146 139 137 138 135 135 133 130 130 138 134 138 136 134 143 134 141 138 133 139 130 135 155
111 105 119 122 126 127 128 129 120 128 130 123 122 119 122 131 131 132 132 135 135 128 136 145 140 144 145 145 145 151 151 149 152 153 150 152 0 0 0 0 0 0 0 0 0 0 0 0 150 153 156 0 0 0 0 0 0 0 0 0 0 0 0 0 0 0 0 0 0 0 0 0 151 151 150 147 146 141 143 143 139 141 137 130 126 136 129 137 129 138 138 129 133 128 120 136 142 136 134 136 128 139 135 130 135 133 135 126 137 143 137 137 144 144 143 134 133 135 114 159
106 108 112 112 109 114 120 118 113 119 112 112 118 115 128 122 122 120 117 115 121 126 127 133 136 139 140 141 142 145 142 142 143 144 144 142 0 0 0 0 0 0 0 0 0 0 0 0 145 0 0 0 0 0 0 0 0 0 0 0 0 0 0 0 0 0 0 0 0 0 0 0 139 140 142 140 141 129 125 127 124 122 124 123 125 120 127 123 125 129 122 123 114 128 122 126 122 132 121 119 120 129 133 117 120 129 116 128 129 129 131 138 112 127 112 126 115 104 114 127
111 104 112 116 113 115 116 124 117 118 113 115 117 115 118 125 122 119 124 115 120 114 122 113 139 135 136 138 0 140 0 0 0 139 139 139 0 0 0 0 0 0 0 0 0 0 0 0 0 0 0 0 0 0 0 0 0 0 0 0 0 0 0 0 0 0 0 0 0 0 0 0 0 142 137 123 123 122 120 124 124 116 119 126 113 120 116 119 121 118 119 122 117 117 112 123 119 120 122 118 118 124 133 123 118 116 118 122 109 122 131 123 125 123 126 114 112 134 138 125
98 98 107 113 102 101 107 103 100 101 109 103 106 104 107 110 111 116 115 110 115 117 111 115 120 119 123 123 121 126 0 0 0 0 128 0 0 0 0 0 0 0 0 0 0 0 0 0 0 0 0 0 0 0 0 0 0 0 0 0 0 0 0 0 0 0 0 0 0 0 0 0 131 0 0 124 119 120 123 115 115 114 109 114 112 113 112 113 113 113 117 116 111 106 110 106 111 114 107 109 114 115 111 115 107 118 111 111 103 110 111 112 108 116 118 106 106 132 128 141
96 101 90 93 100 101 99 98 100 104 101 98 103 105 106 102 103 106 115 104 111 110 109 107 115 107 116 118 118 121 0 125 0 0 0 0 0 0 0 0 0 0 0 0 0 0 0 0 0 0 0 0 0 0 0 0 0 0 0 0 0 0 0 0 0 0 0 0 0 0 0 0 0 119 0 115 120 116 113 110 113 111 107 101 112 108 108 115 102 108 113 108 109 110 106 115 105 106 96 117 115 104 107 100 102 114 109 108 112 112 98 106 118 94 105 120 109 85 98 130
94 103 100 103 99 99 101 95 92 99 96 100 103 92 100 98 104 101 113 118 114 108 96 111 114 105 114 112 113 121 121 121 121 0 0 0 0 0 0 0 0 0 0 0 0 0 0 0 0 0 0 0 0 0 0 0 0 0 0 0 0 0 0 0 0 0 0 0 0 0 0 0 122 121 109 123 113 112 120 117 105 110 105 117 108 108 101 100 104 103 104 111 113 97 99 101 107 100 110 104 104 110 111 112 109 107 110 91 106 101 100 103 108 97 124 107 137 112 132 123
88 84 82 88 80 83 81 92 93 83 90 93 99 95 94 88 77 93 92 83 91 85 100 104 99 101 112 104 0 117 106 107 117 0 0 0 0 0 114 0 0 0 0 0 0 0 0 0 0 0 0 0 0 0 0 0 0 0 0 0 0 0 0 0 0 0 0 0 0 0 0 118 111 109 105 111 106 107 104 99 98 101 99 94 98 95 88 101 105 100 93 96 103 86 86 97 94 102 86 93 87 97 91 92 79 93 95 92 91 82 83 79 80 92 93 98 102 90 127 124
93 86 88 88 95 94 93 106 93 94 92 95 93 91 93 95 96 89 99 96 93 107 108 105 102 106 111 107 0 105 112 109 116 112 119 108 113 0 111 0 0 118 0 0 0 0 0 0 0 0 0 0 0 0 0 0 0 0 0 0 116 0 0 114 113 0 0 0 108 0 109 110 114 112 116 105 105 110 101 99 110 103 105 87 96 98 105 102 100 101 106 108 108 97 99 104 95 95 101 110 104 96 96 100 93 102 95 81 87 85 91 95 89 94 97 97 101 100 94 130
86 92 91 86 99 100 93 94 86 95 88 89 89 91 89 85 96 95 99 94 99 95 97 112 93 106 106 102 105 106 93 0 105 101 96 103 0 116 116 0 108 0 0 0 0 0 0 0 0 0 0 0 0 0 0 0 0 108 0 0 0 106 108 109 117 113 106 101 112 110 108 101 106 104 109 108 98 95 103 95 96 94 99 89 94 93 93 102 106 96 99 104 109 87 95 83 91 92 95 89 90 85 94 100 89 86 100 91 95 92 96 91 91 99 102 101 135 139 149 126
84 87 83 89 92 93 105 86 84 83 87 88 85 92 87 88 89 88 92 93 79 91 96 83 85 91 93 93 104 90 95 99 98 96 92 109 99 106 106 102 104 98 98 106 105 91 0 0 96 0 0 105 105 95 100 108 105 102 108 105 99 103 110 100 99 111 99 96 99 104 97 110 108 100 104 95 93 93 98 91 91 90 98 94 96 96 89 91 93 93 99 86 93 88 91 88 84 83 91 83 88 91 91 90 86 85 98 91 81 97 85 90 89 103 77 95 114 111 79 82
84 80 87 84 80 87 96 103 85 90 86 84 81 91 82 90 90 94 87 97 86 100 94 93 93 94 95 88 97 100 93 86 96 93 95 97 98 98 94 108 102 95 100 106 100 98 108 0 104 101 98 105 99 100 101 102 101 108 98 105 107 94 96 103 104 97 98 101 96 107 93 103 99 89 104 90 94 93 97 86 99 96 95 92 96 94 85 85 95 88 84 98 89 92 82 93 93 93 99 85 93 92 81 92 85 97 93 94 101 87 85 91 105 90 133 117 137 92 90 81
82 73 68 69 79 85 87 90 85 79 88 84 87 78 90 83 87 88 84 86 85 83 93 87 86 87 92 93 95 93 91 93 80 94 95 95 94 84 93 83 91 91 84 90 96 94 89 99 95 93 91 85 96 91 90 85 102 88 100 95 96 81 98 98 98 98 96 92 95 97 92 87 97 93 95 93 93 95 90 94 87 94 83 89 85 92 89 87 87 89 94 80 89 79 84 86 83 78 80 90 82 85 84 69 81 82 86 84 89 84 87 85 82 89 99 107 129 126 115 69
74 73 80 87 72 81 87 85 81 82 82 90 78 81 79 89 85 87 80 85 82 92 84 92 88 84 90 84 94 95 85 96 88 94 86 92 96 92 87 95 95 95 92 88 86 99 88 97 102 84 89 96 95 84 99 95 89 84 86 97 95 84 91 95 88 95 86 94 105 93 94 96 84 97 92 96 95 94 95 94 88 91 87 88 76 85 89 78 92 91 76 91 77 80 84 83 89 84 82 84 85 80 75 78 77 81 81 81 84 85 89 87 83 91 80 85 84 66 86 157
