0 0 0 0 0 0 0 0 0 0 0 0 0 0 0 0 0 0 0 0 0 0 0 0 0 0 0 0 0 0 0 0 0 0 0 0 0 0 0 0 0 0 0 0 0 0 0 0 0 0 0 0 0 0 0 0 0 0 0 0 0 0 0 0 0 0 0 0 0 0 0 0 0 0 0 0 0 0 0 0 0 0 0 0 0 0 0 0 0 0 0 0 0 0 0 0 0 0 0 0 0 0 0 0 0 0 0 0 0 0 0 0 0 0 0 0 0 0 0 0
0 0 0 0 0 0 0 0 0 0 0 0 0 0 0 0 0 0 0 0 0 0 0 0 0 0 0 0 0 0 0 0 0 0 0 0 0 0 0 0 0 0 0 0 0 0 0 0 0 0 0 0 0 0 0 0 0 0 0 0 0 0 0 0 0 0 0 0 0 0 0 0 0 0 0 0 0 0 0 0 0 0 0 0 0 0 0 0 0 0 0 0 0 0 0 0 0 0 0 0 0 0 0 0 0 0 0 0 0 0 0 0 0 0 0 0 0 0 0 0
0 0 0 0 0 0 0 0 0 0 0 0 0 0 0 0 0 0 0 0 0 0 0 0 0 0 0 0 0 0 0 0 0 0 0 0 0 0 0 0 0 0 0 0 0 0 0 0 0 0 0 0 0 0 0 0 0 0 0 0 0 0 0 0 0 0 0 0 0 0 0 0 0 0 0 0 0 0 0 0 0 0 0 0 0 0 0 0 0 0 0 0 0 0 0 0 0 0 0 0 0 0 0 0 0 0 0 0 0 0 0 0 0 0 0 0 0 0 0 0
0 0 0 0 0 0 0 0 0 0 0 0 0 0 0 0 0 0 0 0 0 0 0 0 0 0 0 0 0 0 0 0 0 0 0 0 0 0 0 0 0 0 0 0 0 0 0 0 0 0 0 0 0 0 0 0 0 0 0 0 0 0 0 0 0 0 0 0 0 0 0 0 0 0 0 0 0 0 0 0 0 0 0 0 0 0 0 0 0 0 0 0 0 0 0 0 0 0 0 0 0 0 0 0 0 0 0 0 0 0 0 0 0 0 0 0 0 0 0 0
0 0 0 0 0 0 0 0 0 0 0 0 0 0 0 0 0 0 0 0 0 0 0 0 0 0 0 0 0 0 0 0 0 0 0 0 0 0 0 0 0 0 0 0 0 0 0 0 0 0 0 0 0 0 0 0 0 0 0 0 0 0 0 0 0 0 0 0 0 0 0 0 0 0 0 0 0 0 0 0 0 0 0 0 0 0 0 0 0 0 0 0 0 0 0 0 0 0 0 0 0 0 0 0 0 0 0 0 0 0 0 0 0 0 0 0 0 0 0 0
0 0 0 0 0 0 0 0 0 0 0 0 0 0 0 0 0 0 0 0 0 0 0 0 0 0 0 0 0 0 0 0 0 0 0 0 0 0 0 508 517 512 509 503 499 496 494 508 522 502 510 511 517 503 513 0 0 0 0 0 0 0 0 0 0 0 0 0 0 0 0 0 0 0 0 0 0 0 0 0 0 0 0 0 0 0 0 0 0 0 0 0 0 0 0 0 0 0 0 0 0 0 0 0 0 0 0 0 0 0 0 0 0 0 0 0 0 0 0 0
0 0 0 0 0 0 0 0 0 0 0 0 0 0 0 0 0 0 0 0 0 0 0 0 0 0 0 0 0 0 0 0 0 0 0 0 0 483 500 504 507 501 493 505 498 509 500 506 502 533 498 506 492 505 491 515 480 476 473 495 0 0 0 0 0 0 0 0 0 0 0 0 0 0 0 0 0 0 0 0 0 0 0 0 0 0 0 0 0 0 0 0 0 0 0 0 0 0 0 0 0 0 0 0 0 0 0 0 0 0 0 0 0 0 0 0 0 0 0 0
0 0 0 0 0 0 0 0 0 0 0 0 0 0 0 0 0 0 0 0 0 0 0 0 0 0 0 0 0 0 0 0 0 0 0 522 516 523 504 503 513 512 501 508 510 517 514 523 513 502 510 513 516 516 529 524 515 507 513 513 529 539 534 513 538 0 0 0 0 0 0 0 0 0 0 0 0 0 0 0 0 0 0 0 0 0 0 0 0 0 0 0 0 0 0 0 0 0 0 0 0 0 0 0 0 0 0 0 0 0 0 0 0 0 0 0 0 0 0 0
0 0 0 0 0 0 0 0 0 0 0 0 0 0 0 0 0 0 0 0 0 0 0 0 0 0 0 0 0 0 0 0 0 500 501 504 508 501 491 487 520 504 506 495 500 487 503 506 501 513 500 480 517 504 502 509 514 510 511 502 494 490 514 515 498 499 513 518 586 564 534 537 497 0 589 537 566 494 0 485 0 0 0 0 0 0 0 0 0 0 0 0 0 0 0 0 0 0 0 0 0 0 0 0 0 0 0 0 0 0 0 0 0 0 0 0 0 0 0 0
0 0 0 0 0 0 0 0 0 0 0 0 0 0 0 0 0 0 0 0 0 0 0 0 0 0 0 0 0 0 0 562 508 498 497 503 495 507 505 497 505 496 497 501 495 493 501 493 504 502 499 499 507 493 509 503 497 503 503 505 511 502 509 503 496 520 509 516 528 537 539 557 576 528 577 567 546 604 546 602 550 580 608 576 562 561 540 554 554 560 570 571 552 541 610 534 540 541 578 555 566 584 622 559 581 0 0 0 0 0 0 0 0 0 0 0 0 0 0 0
0 0 0 0 0 0 0 0 0 0 0 0 0 0 0 0 0 0 0 0 0 0 0 0 0 0 0 0 0 0 527 492 517 516 493 499 506 499 504 510 498 502 516 506 500 510 504 501 506 508 502 509 502 515 512 516 515 504 507 508 512 503 512 501 513 510 505 513 513 521 548 585 534 572 580 583 572 588 573 554 592 571 587 576 568 676 612 610 550 605 570 551 631 543 564 581 655 561 637 574 611 565 587 536 561 557 597 0 0 0 0 0 0 0 0 0 0 0 0 0
0 0 0 0 0 0 0 0 0 0 0 0 0 0 0 0 0 0 0 0 0 0 0 0 0 0 0 0 447 491 488 495 484 497 505 488 501 489 489 496 495 509 491 493 503 503 502 501 496 499 503 507 502 510 498 492 505 498 497 507 505 504 504 502 503 505 507 499 502 520 496 526 560 541 538 505 536 556 531 565 532 551 547 531 532 588 522 526 531 555 527 527 548 534 569 533 554 524 557 573 529 555 541 513 560 533 533 593 534 0 0 0 0 0 0 0 0 0 0 0
0 0 0 0 0 0 0 0 0 0 0 0 0 0 0 0 0 0 0 0 0 0 0 0 0 0 0 490 511 515 499 496 501 506 496 511 507 498 504 488 503 507 501 506 497 503 505 510 501 504 513 505 509 509 500 508 498 504 508 513 510 508 508 508 506 505 507 508 505 518 514 514 553 530 524 547 575 565 537 586 547 545 532 543 575 571 537 531 527 551 571 569 523 548 565 531 552 572 550 572 508 572 512 560 559 575 559 581 567 0 0 0 0 0 0 0 0 0 0 0
0 0 0 0 0 0 0 0 0 0 0 0 0 0 0 0 0 0 0 0 0 0 0 0 0 0 493 502 500 501 501 492 488 502 498 493 501 497 507 501 503 502 494 503 502 512 504 498 499 509 504 505 512 506 511 504 503 513 509 507 501 514 500 509 513 511 518 509 511 504 521 512 550 605 536 565 548 575 550 565 552 561 576 537 573 559 558 527 581 556 537 561 611 546 557 572 613 576 548 570 580 539 585 569 604 554 530 543 621 0 0 0 0 0 0 0 0 0 0 0
0 0 0 0 0 0 0 0 0 0 0 0 0 0 0 0 0 0 0 0 0 0 0 0 0 443 478 486 494 493 495 499 498 496 487 492 499 496 500 501 501 499 502 512 496 499 503 494 497 503 513 515 504 495 502 503 498 502 500 499 504 504 496 511 514 503 510 503 511 512 508 508 527 506 532 543 513 542 524 544 517 574 531 543 506 501 561 536 518 530 534 520 509 506 503 529 537 508 557 514 561 520 545 537 522 548 493 556 537 519 0 0 0 0 0 0 0 0 0 0
0 0 0 0 0 0 0 0 0 0 0 0 0 0 0 0 0 0 0 0 0 0 0 0 0 506 503 490 502 491 492 498 503 508 491 501 497 507 505 502 504 495 507 497 500 505 506 507 504 507 503 504 510 504 510 506 508 507 507 505 505 505 508 506 508 513 511 510 505 510 516 514 508 525 552 534 556 544 570 558 554 540 568 564 571 552 559 557 582 571 567 574 561 539 534 571 527 557 554 551 571 590 564 529 570 589 580 571 583 564 584 0 630 610 0 0 0 0 0 0
0 0 0 0 0 0 0 0 0 0 0 0 0 0 0 0 0 0 0 0 0 0 0 0 461 491 492 494 496 489 487 492 498 495 497 493 496 492 494 502 493 499 492 496 501 504 505 497 493 504 494 502 495 503 502 509 507 508 497 508 505 506 507 503 500 509 501 507 508 511 500 504 505 506 523 529 514 552 527 531 526 540 546 532 538 516 523 532 541 542 544 545 556 534 549 533 551 531 524 522 544 529 562 548 568 549 537 525 501 520 502 0 0 0 0 0 0 0 0 0
0 0 0 0 0 0 0 0 0 0 0 0 0 0 0 0 0 0 0 0 0 0 0 0 484 484 493 493 495 495 490 494 492 479 488 486 494 498 501 508 496 492 497 492 495 504 494 498 500 491 506 506 501 499 511 506 501 497 502 508 498 499 504 511 510 505 502 503 497 504 497 509 508 520 502 519 520 559 531 524 528 537 524 528 559 517 546 529 538 529 536 542 556 508 508 524 520 541 551 519 519 520 556 556 523 534 532 547 562 492 488 0 0 0 0 0 0 0 0 0
0 0 0 0 0 0 0 0 0 0 0 0 0 0 0 0 0 0 0 0 0 0 0 476 507 497 500 493 489 491 491 499 495 490 491 496 502 496 503 495 500 488 498 504 500 506 502 504 502 499 505 504 510 503 495 502 511 502 510 508 508 501 508 503 500 505 516 513 502 507 505 508 506 506 509 513 540 545 530 513 536 514 547 540 566 549 557 553 537 579 533 561 578 528 523 538 540 525 569 531 529 544 540 548 566 573 554 530 567 543 556 0 0 0 0 0 0 0 0 0
0 0 0 0 0 0 0 0 0 0 0 0 0 0 0 0 0 0 0 0 0 0 0 489 483 485 478 485 478 489 488 488 492 491 486 489 485 487 491 494 493 498 495 500 497 492 493 507 498 499 496 491 498 502 497 496 503 512 507 502 499 498 505 502 504 494 503 506 502 508 506 508 507 507 504 501 524 533 525 535 520 519 522 546 489 531 523 489 513 516 538 519 534 506 479 499 508 512 537 527 519 542 526 553 533 517 527 540 532 484 461 0 0 0 0 0 0 0 0 0
0 0 0 0 0 0 0 0 0 0 0 0 0 0 0 0 0 0 0 0 0 0 465 486 507 486 488 495 489 496 488 502 497 494 492 494 491 487 496 494 501 499 504 497 500 488 504 500 508 506 500 505 494 494 501 506 503 504 504 507 504 507 507 509 505 500 504 512 505 509 507 509 512 501 518 508 525 553 525 556 555 526 531 567 579 545 525 568 557 532 559 518 543 546 533 560 549 550 513 541 559 535 535 542 545 522 571 579 549 516 567 590 544 0 0 0 0 0 0 0
0 0 0 0 0 0 0 0 0 0 0 0 0 0 0 0 0 0 0 0 0 0 507 487 486 489 490 497 502 507 493 489 493 486 487 492 494 494 492 497 499 497 502 504 494 497 503 507 502 502 499 497 502 510 497 507 512 503 500 508 506 499 505 503 511 505 506 509 508 498 502 506 515 505 521 505 514 519 523 544 541 545 536 540 535 533 506 518 528 554 516 548 514 533 520 544 508 530 528 529 541 537 534 549 540 545 549 528 522 526 535 0 0 0 0 0 0 0 0 0
0 0 0 0 0 0 0 0 0 0 0 0 0 0 0 0 0 0 0 0 0 0 488 482 488 489 494 488 489 487 492 482 492 491 488 486 490 492 489 496 495 500 495 499 496 500 499 494 495 502 494 506 495 497 497 501 499 504 508 495 509 504 506 504 502 511 512 509 511 500 510 501 509 502 507 505 513 528 535 533 532 532 551 503 493 532 526 501 521 534 529 544 519 542 542 535 530 528 539 528 512 544 537 511 527 537 536 555 518 517 528 546 573 0 0 0 0 0 0 0
0 0 0 0 0 0 0 0 0 0 0 0 0 0 0 0 0 0 0 0 0 0 511 499 498 494 483 493 492 493 489 494 491 497 493 490 486 494 495 488 503 496 494 497 496 491 501 495 495 501 503 503 502 500 508 511 502 507 498 504 505 505 504 510 502 508 506 506 507 506 512 508 503 509 508 518 504 534 556 534 532 544 550 546 506 543 521 542 535 543 503 539 545 523 569 542 553 553 553 548 536 543 540 552 502 545 543 581 567 526 543 554 536 522 0 0 0 0 0 0
0 0 0 0 0 0 0 0 0 0 0 0 0 0 0 0 0 0 0 0 0 0 471 487 482 488 495 486 487 494 487 487 488 483 486 490 488 486 487 493 495 490 510 495 494 502 491 502 497 498 499 498 498 504 504 501 503 498 504 496 504 503 501 497 505 508 506 498 497 508 509 504 510 500 497 500 504 520 534 528 520 520 512 517 517 536 492 520 528 528 522 522 522 510 525 528 502 526 515 507 514 518 513 535 499 521 535 571 494 480 541 504 532 0 0 0 0 0 0 0
0 0 0 0 0 0 0 0 0 0 0 0 0 0 0 0 0 0 0 0 0 352 472 470 479 483 482 487 485 485 489 489 489 481 491 491 485 486 494 490 493 495 501 498 491 493 493 505 493 497 499 493 493 499 501 498 503 498 498 498 501 497 498 504 498 494 496 495 496 499 499 500 501 501 504 502 506 501 519 505 506 524 514 494 529 497 489 510 500 495 556 508 497 491 507 494 505 510 503 523 513 492 473 528 461 509 512 509 479 507 471 512 478 0 0 0 0 0 0 0
0 0 0 0 0 0 0 0 0 0 0 0 0 0 0 0 0 0 0 0 0 452 472 483 481 483 496 492 497 494 484 498 487 501 501 486 497 491 496 495 496 503 493 500 493 494 504 496 496 503 501 500 496 501 497 495 500 503 502 498 513 506 508 511 498 501 503 505 503 507 509 498 503 506 508 512 507 511 510 535 513 513 504 506 513 507 532 514 526 523 522 552 535 561 528 511 519 526 504 538 553 564 526 515 529 559 538 522 540 566 467 0 0 0 0 0 0 0 0 0
0 0 0 0 0 0 0 0 0 0 0 0 0 0 0 0 0 0 0 0 0 427 472 478 479 475 476 482 478 480 479 482 492 490 483 483 480 486 482 492 494 494 488 492 496 492 492 489 490 495 503 499 493 498 498 495 499 501 504 502 507 493 497 491 502 503 499 497 495 495 498 496 500 502 504 503 497 519 521 510 498 505 512 496 495 507 484 523 482 515 509 493 503 494 492 490 495 479 506 498 490 507 476 483 500 478 484 488 500 505 467 483 0 0 0 0 0 0 0 0
0 0 0 0 0 0 0 0 0 0 0 0 0 0 0 0 0 0 0 0 0 482 492 491 485 480 489 491 486 482 479 478 482 485 487 487 486 492 491 487 497 488 491 492 490 494 499 496 495 493 495 495 496 497 494 498 501 497 502 494 510 500 501 508 499 498 508 506 505 499 501 501 503 507 511 503 496 510 512 515 523 520 523 541 519 525 524 508 514 513 505 495 520 516 533 514 510 551 544 524 525 513 505 521 472 496 504 517 574 522 549 533 546 0 531 0 0 0 0 0
0 0 0 0 0 0 0 0 0 0 0 0 0 0 0 0 0 0 0 0 0 464 483 480 477 480 478 476 489 485 490 493 488 484 485 483 484 494 484 493 496 492 493 495 500 489 497 498 490 495 494 499 499 499 499 499 503 501 504 497 501 502 498 497 503 498 501 502 495 503 502 498 503 500 506 501 494 502 517 507 515 508 507 512 517 505 502 513 505 515 500 510 509 524 485 510 524 494 515 490 535 524 519 523 527 545 522 520 514 460 506 506 557 0 0 0 0 0 0 0
0 0 0 0 0 0 0 0 0 0 0 0 0 0 0 0 0 0 0 0 0 437 481 474 479 475 488 478 481 484 480 481 482 487 487 482 489 490 485 489 492 491 491 492 496 487 492 493 496 493 495 498 494 499 495 495 496 495 495 497 499 500 495 492 498 501 504 500 500 502 496 501 495 497 500 496 500 506 495 507 486 541 484 502 508 502 506 503 472 497 491 491 517 484 504 516 487 519 523 506 517 512 489 505 485 523 489 500 510 502 478 497 537 0 0 0 0 0 0 0
0 0 0 0 0 0 0 0 0 0 0 0 0 0 0 0 0 0 0 0 0 470 483 480 479 490 481 479 486 482 485 480 489 488 491 483 482 488 496 489 486 490 491 487 490 492 494 496 498 490 494 496 490 493 499 495 495 493 497 500 499 499 496 499 499 504 504 498 501 502 500 503 498 505 496 502 504 500 499 529 497 506 518 516 520 526 522 531 506 522 526 512 521 513 537 532 528 548 524 537 529 539 511 537 536 549 521 517 540 514 516 565 550 572 0 0 0 0 0 0
0 0 0 0 0 0 0 0 0 0 0 0 0 0 0 0 0 0 0 0 0 442 469 483 476 484 473 479 482 481 489 482 479 483 484 484 484 488 486 487 491 490 491 493 492 488 486 491 489 492 496 487 494 493 497 500 497 501 501 495 498 497 495 498 503 497 497 496 500 499 502 496 501 497 499 499 506 499 502 494 507 493 511 488 505 509 494 498 510 493 528 523 488 495 495 465 477 494 520 520 522 522 522 512 521 504 500 511 491 484 500 481 505 446 0 0 0 0 0 0
0 0 0 0 0 0 0 0 0 0 0 0 0 0 0 0 0 0 0 0 0 457 482 474 477 470 480 478 476 476 479 485 484 482 479 480 482 483 483 494 488 488 486 490 490 494 485 491 489 489 490 497 493 492 493 499 495 501 492 497 498 496 500 499 500 500 497 500 497 498 498 494 498 498 495 497 501 494 503 488 511 505 504 523 495 509 476 480 507 506 507 493 498 479 514 510 491 501 497 503 517 513 529 506 527 491 490 541 483 488 486 506 513 460 0 0 0 0 0 0
0 0 0 0 0 0 0 0 0 0 0 0 0 0 0 0 0 0 0 0 0 457 479 475 478 482 479 472 480 482 479 486 485 487 481 484 485 484 486 488 487 488 486 494 492 489 489 494 492 496 492 490 497 497 493 495 493 496 490 495 498 501 502 496 503 494 502 496 496 495 496 497 501 502 502 497 498 507 511 510 518 495 520 497 512 486 516 507 512 506 512 503 525 498 482 512 480 481 519 525 533 506 528 526 509 543 509 532 512 545 520 516 516 507 0 0 0 0 0 0
0 0 0 0 0 0 0 0 0 0 0 0 0 0 0 0 0 0 0 0 0 442 465 471 471 474 479 470 479 476 474 480 479 482 480 485 485 478 483 486 487 489 487 490 481 488 485 487 485 495 492 493 489 490 494 496 491 498 496 492 494 499 496 499 495 507 500 499 493 493 498 494 490 496 498 498 497 503 493 504 490 485 497 499 476 498 492 475 503 472 500 513 467 492 469 472 508 482 500 487 462 496 467 501 455 472 499 498 485 471 443 478 473 500 0 0 0 0 0 0
0 0 0 0 0 0 0 0 0 0 0 0 0 0 0 0 0 0 0 0 0 528 488 473 477 476 479 482 479 480 477 483 483 487 480 488 482 478 485 487 483 484 493 487 491 490 484 491 487 493 490 491 491 491 495 495 490 492 496 496 493 495 498 499 499 504 503 500 497 495 497 495 494 498 497 498 496 502 500 496 501 496 509 485 492 483 494 494 494 488 493 503 496 500 505 521 475 492 507 522 496 499 501 509 481 504 481 498 533 533 440 470 512 539 0 0 0 0 0 0
0 0 0 0 0 0 0 0 0 0 0 0 0 0 0 0 0 0 0 0 0 0 478 477 477 477 475 478 481 484 478 484 482 480 480 480 485 484 484 487 487 483 487 488 489 487 489 493 492 489 494 497 494 495 501 496 497 494 492 496 498 493 499 502 498 498 500 499 498 495 493 495 496 498 497 507 499 489 494 491 495 501 498 504 494 487 528 482 528 497 521 498 529 493 508 520 547 501 517 526 528 535 540 538 527 481 538 465 500 534 477 565 444 529 0 0 0 0 0 0
0 0 0 0 0 0 0 0 0 0 0 0 0 0 0 0 0 0 0 0 0 0 490 471 474 479 480 473 477 477 482 479 484 478 480 482 478 490 487 482 483 482 480 482 487 488 486 489 493 487 497 492 495 491 493 496 493 488 493 495 493 497 496 496 495 499 496 503 494 497 498 494 497 491 495 493 495 496 495 496 508 490 515 499 500 526 518 494 518 519 506 492 540 503 514 501 507 497 513 512 497 492 515 515 504 511 538 502 523 534 440 462 474 479 0 0 0 0 0 0
0 0 0 0 0 0 0 0 0 0 0 0 0 0 0 0 0 0 0 0 0 0 519 475 470 479 479 476 475 476 480 479 477 487 483 485 487 485 481 488 485 485 484 492 491 488 490 486 489 493 492 496 489 499 495 495 494 491 494 495 494 494 500 496 496 495 504 499 495 497 505 492 499 499 499 495 496 503 501 512 503 504 491 515 513 523 516 513 507 513 537 517 532 517 529 534 543 523 529 535 503 526 515 520 534 507 505 546 524 486 555 485 535 574 495 520 0 0 0 0
0 0 0 0 0 0 0 0 0 0 0 0 0 0 0 0 0 0 0 0 0 0 622 472 473 475 472 476 475 476 473 479 476 481 480 483 484 483 481 486 484 490 487 484 484 487 493 490 489 492 490 496 495 495 493 489 496 489 493 495 491 494 498 497 499 496 502 497 497 493 495 494 496 495 491 497 497 489 483 507 501 495 502 507 511 513 508 502 511 489 505 502 497 521 509 499 496 534 511 504 489 496 510 509 491 476 480 496 477 509 487 501 477 516 485 0 0 0 0 0
0 0 0 0 0 0 0 0 0 0 0 0 0 0 0 0 0 0 0 0 0 0 0 472 463 470 471 473 475 473 477 481 478 480 475 475 479 481 480 484 485 484 485 483 488 485 486 491 491 487 491 494 497 489 487 492 493 494 491 491 486 493 494 495 494 497 493 499 499 494 495 491 495 490 492 495 496 495 489 494 498 498 487 493 497 493 488 508 508 498 494 483 504 492 495 525 500 512 503 493 525 498 489 475 496 481 474 492 500 457 467 499 488 0 0 0 0 0 0 0
0 0 0 0 0 0 0 0 0 0 0 0 0 0 0 0 0 0 0 0 0 0 0 490 473 468 471 478 473 474 473 479 474 477 481 476 481 481 484 482 482 482 483 488 483 486 489 489 489 491 491 495 491 494 495 495 492 492 491 489 493 494 490 493 491 496 496 497 496 498 503 499 497 489 493 488 494 491 499 489 497 492 510 486 503 510 499 502 496 500 503 505 508 517 498 487 520 509 526 518 515 527 502 539 469 534 502 493 496 501 501 511 493 476 0 0 0 0 0 0
0 0 0 0 0 0 0 0 0 0 0 0 0 0 0 0 0 0 0 0 0 0 0 502 465 475 473 468 469 472 475 473 476 479 476 483 480 483 475 478 480 478 489 481 484 486 491 484 489 484 492 491 491 490 492 487 495 494 487 491 490 491 492 493 492 485 491 498 491 489 495 491 490 494 494 490 484 496 490 499 498 495 496 487 487 506 485 474 492 501 490 494 528 500 484 494 488 519 497 491 492 485 485 448 479 467 472 480 498 462 446 454 403 447 0 0 0 0 0 0
0 0 0 0 0 0 0 0 0 0 0 0 0 0 0 0 0 0 0 0 0 0 0 0 480 466 472 469 469 469 473 476 471 478 479 478 480 478 476 482 482 483 483 487 482 486 487 486 492 488 490 495 493 494 489 491 494 491 488 494 491 494 492 494 496 497 488 492 501 497 492 492 490 495 495 488 485 496 496 490 496 496 496 518 514 504 494 496 503 516 507 487 506 485 509 514 498 495 491 514 499 510 499 545 453 483 471 473 477 519 479 477 509 504 500 526 0 0 0 0
0 0 0 0 0 0 0 0 0 0 0 0 0 0 0 0 0 0 0 0 0 0 0 0 520 469 468 469 475 472 477 467 473 477 474 474 479 479 479 477 482 480 482 482 479 487 485 486 485 484 492 494 489 493 486 492 494 489 490 485 490 485 490 496 492 490 495 495 495 490 497 494 492 493 497 491 499 501 490 493 489 498 501 494 515 527 488 508 507 496 504 517 501 496 525 499 512 498 501 495 491 478 494 477 505 471 475 477 468 484 493 477 474 436 485 0 0 0 0 0
0 0 0 0 0 0 0 0 0 0 0 0 0 0 0 0 0 0 0 0 0 0 0 0 0 462 471 470 468 465 464 473 474 470 479 472 476 474 479 483 475 472 479 482 481 482 483 482 481 485 490 486 488 489 489 487 488 485 484 489 491 490 491 490 492 492 490 486 488 495 495 486 490 490 490 485 482 487 486 485 485 494 493 488 501 500 476 476 499 487 486 501 481 491 506 495 488 515 518 502 502 477 499 483 490 451 474 470 439 477 472 484 464 440 0 0 0 0 0 0
0 0 0 0 0 0 0 0 0 0 0 0 0 0 0 0 0 0 0 0 0 0 0 0 0 572 477 466 470 474 467 472 482 469 473 484 477 476 478 478 483 480 481 479 481 482 479 483 487 482 484 485 484 485 492 488 489 482 489 490 488 489 493 488 490 488 490 489 491 487 494 489 493 490 486 490 488 492 490 492 500 485 487 492 482 490 500 509 493 486 503 501 485 496 519 524 514 503 516 537 506 544 487 501 499 486 486 450 483 475 471 495 507 475 480 0 0 0 0 0
0 0 0 0 0 0 0 0 0 0 0 0 0 0 0 0 0 0 0 0 0 0 0 0 0 0 478 466 465 472 470 468 471 472 474 474 475 479 476 476 475 476 480 482 485 480 483 482 480 480 484 482 486 488 483 487 489 484 484 489 486 489 488 490 492 492 490 486 491 490 498 491 484 491 485 493 478 488 494 490 487 489 476 485 491 492 483 485 475 493 487 482 499 491 484 490 491 492 493 491 494 503 498 496 496 485 455 461 477 485 476 482 429 532 0 0 0 0 0 0
0 0 0 0 0 0 0 0 0 0 0 0 0 0 0 0 0 0 0 0 0 0 0 0 0 0 0 474 465 463 472 470 470 474 471 475 474 478 479 476 476 481 474 481 477 480 481 475 480 482 481 485 482 485 486 480 484 487 480 490 487 484 491 489 484 488 492 490 494 484 490 486 485 477 491 476 479 494 489 478 483 487 487 485 489 480 486 480 469 493 476 502 479 481 476 478 474 476 489 500 498 506 480 467 444 472 454 461 480 470 454 467 493 476 449 0 0 0 0 0
0 0 0 0 0 0 0 0 0 0 0 0 0 0 0 0 0 0 0 0 0 0 0 0 0 0 0 493 471 466 467 470 478 476 475 477 472 473 477 474 472 475 479 481 477 478 477 482 479 484 484 481 485 485 480 486 483 481 485 484 486 485 487 490 488 487 490 485 487 494 488 483 480 488 480 494 475 492 494 488 483 508 489 494 503 509 510 492 490 498 499 497 501 497 491 494 505 498 500 497 481 506 476 505 494 476 492 521 513 484 486 515 516 519 483 0 0 0 0 0
0 0 0 0 0 0 0 0 0 0 0 0 0 0 0 0 0 0 0 0 0 0 0 0 0 0 0 0 493 469 465 467 473 471 473 471 476 470 472 475 477 477 478 477 479 477 477 478 480 484 480 480 483 480 481 478 483 482 483 484 483 483 483 488 485 485 491 484 486 488 484 479 476 477 473 477 491 479 469 475 470 461 494 473 489 488 498 482 496 484 484 477 485 476 476 462 471 480 469 470 484 481 501 492 450 470 451 462 453 455 455 416 455 421 0 0 0 0 0 0
0 0 0 0 0 237 229 242 299 0 0 0 0 0 0 0 0 0 0 0 0 0 0 0 0 0 0 0 0 499 459 467 470 468 464 474 474 468 469 470 474 476 479 471 481 478 474 479 478 477 478 481 479 481 483 481 483 480 484 486 479 486 487 482 486 487 489 480 487 489 478 486 483 487 490 485 485 487 487 482 490 491 492 499 480 497 475 493 487 480 498 490 502 497 483 489 510 475 492 479 486 477 474 474 469 469 476 493 484 477 480 475 464 467 514 0 0 0 0 0
0 0 0 0 245 231 235 227 234 294 378 0 0 0 0 0 0 0 0 0 0 2383 0 0 0 0 0 0 0 0 456 462 471 471 467 466 473 470 471 471 478 475 473 473 481 472 477 475 472 476 480 483 478 484 479 479 484 478 481 480 480 483 485 487 489 485 485 490 486 487 489 473 473 495 490 488 483 477 486 481 473 472 476 491 494 495 491 472 479 499 494 491 489 468 500 476 490 498 497 491 493 505 481 457 492 475 477 459 502 476 526 477 491 0 0 0 0 0 0 0
0 0 0 231 219 226 226 226 233 244 318 0 0 0 0 0 0 0 0 0 0 0 0 0 0 0 0 0 0 0 0 477 459 469 460 464 468 467 466 472 466 469 468 467 467 470 472 480 476 470 473 475 477 473 477 478 484 473 476 476 475 485 479 481 478 481 479 478 480 483 475 478 481 484 482 481 471 465 480 478 481 480 475 475 486 485 471 473 510 475 486 482 487 472 471 470 474 484 474 469 468 471 484 490 484 454 452 470 460 467 477 435 511 456 464 0 0 0 0 0
250 278 279 276 274 319 286 226 237 241 351 0 445 438 414 423 443 425 420 429 453 450 452 453 441 447 455 440 471 462 454 460 467 469 465 465 467 468 472 473 465 471 472 468 478 474 476 471 476 476 472 477 471 478 483 480 483 483 480 475 474 479 478 479 482 477 474 479 484 483 485 477 478 479 475 472 483 483 487 482 487 472 479 475 479 484 480 481 478 484 485 468 489 488 487 465 473 475 473 509 497 467 483 470 521 470 461 481 477 462 465 484 433 487 482 0 0 0 0 0
225 208 217 205 230 242 258 232 229 257 348 391 368 404 374 393 387 401 409 404 394 406 397 418 430 430 421 427 437 441 448 457 453 451 454 458 458 459 458 456 458 459 457 463 467 466 468 466 471 468 466 464 474 466 473 468 467 469 468 468 467 467 474 472 470 469 477 470 471 469 468 472 466 461 456 451 456 453 456 457 455 458 461 459 455 453 457 452 454 443 454 457 446 445 445 444 464 450 460 433 452 451 468 459 452 437 448 448 432 440 453 428 456 432 418 415 428 0 0 0
202 190 216 226 237 237 230 228 232 333 393 372 363 355 365 361 374 362 370 378 374 386 400 396 404 401 414 415 428 441 436 439 444 438 439 442 434 450 447 440 438 446 440 451 446 453 448 453 459 460 454 454 457 455 456 452 458 450 455 457 461 463 449 462 456 462 454 457 461 453 449 444 442 439 436 431 424 431 429 431 431 425 420 429 428 429 429 424 430 423 422 432 437 433 421 423 418 423 423 420 420 418 436 414 433 399 415 423 418 410 426 400 420 431 412 427 425 413 429 438
276 255 240 221 227 225 232 233 255 353 328 328 329 341 332 335 350 331 345 349 348 356 358 369 380 394 402 395 414 415 419 429 419 428 430 435 436 428 429 436 430 435 426 430 442 437 438 442 445 441 444 437 437 439 440 443 446 442 441 442 442 444 443 444 442 441 441 433 445 436 445 433 434 421 414 422 408 400 405 400 385 406 399 398 398 409 396 387 396 402 404 401 395 394 409 393 384 404 384 394 389 399 400 406 401 386 381 386 383 409 384 392 381 391 393 409 415 418 440 0
294 291 282 241 234 232 232 236 267 312 291 302 292 310 301 305 307 299 302 315 337 314 320 339 342 354 373 389 394 396 399 402 398 410 407 409 407 415 413 413 412 409 409 408 409 414 414 417 411 414 414 416 421 421 424 424 414 420 416 417 418 422 413 415 414 415 425 420 417 417 409 409 401 396 396 389 365 361 371 367 363 353 359 361 358 353 363 353 358 358 356 362 354 352 367 368 347 351 355 348 357 346 352 366 354 371 340 354 350 340 349 345 353 334 366 349 362 313 311 325
282 268 271 278 258 259 253 282 282 296 278 283 276 286 290 286 299 284 296 282 305 317 314 312 327 351 361 370 367 378 381 386 396 386 387 386 393 398 392 400 392 389 392 392 395 394 398 389 393 393 394 401 396 399 398 387 393 405 394 400 401 395 403 400 393 386 400 403 392 392 390 383 398 383 371 363 354 344 349 334 333 334 324 333 329 327 336 331 345 331 326 339 339 337 336 333 335 334 330 338 334 325 331 347 340 341 331 342 327 319 322 346 339 355 341 331 355 336 347 371
252 245 250 248 245 246 240 251 262 263 248 262 249 271 253 256 265 257 261 269 267 284 286 297 314 313 336 343 343 359 354 368 364 359 360 360 363 366 364 362 369 363 365 367 379 369 369 368 362 372 376 371 371 376 379 377 380 378 383 381 380 377 379 377 369 370 374 372 379 372 368 367 361 353 346 339 334 317 323 304 305 295 297 295 303 304 298 305 297 299 298 307 299 304 296 297 296 295 284 305 313 288 314 307 299 309 310 285 305 310 295 313 322 325 276 306 309 343 295 292
229 226 222 223 233 242 240 226 241 241 233 243 242 247 242 244 244 234 244 253 257 269 274 274 285 296 312 318 326 331 329 330 350 336 337 339 343 342 343 347 348 344 347 347 344 344 343 348 348 346 339 344 345 351 350 348 346 347 353 348 348 349 349 343 347 348 344 346 348 340 345 341 334 336 329 316 312 295 287 289 276 279 278 272 284 278 279 277 267 277 270 281 278 280 276 269 274 271 279 275 282 281 276 284 277 273 267 268 271 272 278 284 288 274 281 262 276 284 277 292
221 229 227 228 238 223 226 218 227 232 229 238 233 229 234 235 220 233 238 243 249 241 259 264 276 281 300 298 303 305 316 314 321 318 317 327 318 322 327 327 327 318 318 318 322 327 326 325 330 320 324 329 327 327 321 324 324 325 331 327 322 327 324 330 336 332 328 325 326 317 322 318 323 311 310 304 283 270 276 278 265 269 270 267 269 260 253 261 258 256 255 267 256 256 264 270 266 259 260 263 268 252 262 261 257 261 259 269 261 268 270 262 277 277 266 280 253 283 299 320
192 211 204 209 211 208 216 221 211 216 211 210 206 210 213 213 222 206 216 223 226 230 240 250 248 262 265 275 277 282 290 294 294 287 298 294 297 297 308 303 298 295 298 303 301 295 302 300 303 306 306 297 303 302 298 305 304 303 300 301 299 305 303 304 310 306 301 304 298 301 298 298 297 289 290 279 265 260 250 250 247 244 242 251 244 251 245 234 246 246 242 242 244 242 250 240 239 237 241 246 235 245 249 240 242 241 239 240 238 241 243 242 252 261 252 257 242 245 232 240
196 199 197 201 199 205 203 202 199 189 188 201 202 184 204 192 208 188 204 214 216 221 225 231 241 246 250 257 263 269 271 264 271 267 277 284 283 275 282 282 280 278 285 286 281 282 282 281 278 287 285 280 284 280 280 285 282 286 282 286 280 282 280 287 290 287 284 284 284 278 283 280 275 271 268 262 254 247 243 234 233 226 229 227 228 227 222 229 228 224 226 233 222 225 216 226 229 221 222 221 223 224 223 227 221 218 224 230 231 231 230 233 238 231 225 240 237 216 213 240
176 180 175 192 182 185 188 188 179 175 182 181 186 182 181 178 185 190 191 208 211 213 217 224 225 230 242 243 243 244 253 263 261 256 260 255 258 259 266 270 265 267 262 264 261 265 267 269 265 268 268 265 264 266 267 264 267 274 266 270 269 266 267 268 267 271 268 270 269 264 264 255 257 260 254 243 240 228 228 218 218 222 219 221 218 226 216 214 218 223 208 215 218 210 213 219 197 199 214 215 216 220 221 215 216 212 222 215 218 214 221 231 239 216 216 222 235 235 227 224
168 174 169 174 177 175 178 175 177 176 179 178 173 180 182 184 177 184 179 179 186 190 190 212 213 218 218 222 231 234 231 241 237 244 238 241 235 243 245 248 242 247 247 246 248 247 245 243 245 245 243 253 246 245 239 249 250 249 245 253 249 246 248 245 241 250 250 249 247 243 244 243 239 237 232 227 223 221 196 199 195 192 186 182 193 192 194 192 211 186 195 186 193 180 185 190 183 180 186 184 182 194 206 181 186 183 185 213 184 198 208 202 206 195 208 193 184 175 198 206
171 176 178 178 172 177 173 175 172 174 172 176 175 172 174 181 176 183 186 184 184 186 179 190 209 206 214 215 216 222 223 226 221 227 228 230 228 232 232 231 231 232 239 232 230 237 227 228 235 232 238 235 236 234 236 229 236 234 235 241 229 237 239 234 232 232 239 228 232 233 233 233 228 224 221 218 197 192 190 196 191 194 195 191 194 192 192 192 194 188 182 181 187 187 181 182 182 183 185 182 186 177 179 179 183 184 178 175 181 179 178 197 194 198 205 204 213 202 205 212
165 168 172 173 170 167 169 169 171 164 168 165 163 164 174 166 172 173 175 180 176 182 180 189 183 184 186 206 209 208 196 212 208 213 212 215 198 213 214 211 212 220 218 218 216 222 218 217 220 221 215 219 214 220 221 217 220 218 218 222 218 221 221 217 218 201 218 220 221 219 219 220 214 197 195 190 188 195 190 188 183 183 187 185 182 181 183 179 185 185 182 180 179 185 182 184 181 181 181 182 185 187 184 179 178 182 183 178 180 180 181 177 172 178 200 174 177 172 175 185
152 156 160 161 156 164 158 164 161 166 157 157 159 158 157 161 162 169 173 177 170 173 181 182 180 185 185 185 189 191 181 189 185 186 183 192 189 185 185 189 194 194 188 195 197 196 194 195 193 193 196 196 199 194 198 194 193 195 193 192 214 196 196 191 191 194 194 193 196 192 199 191 192 190 187 195 192 190 187 177 179 176 178 173 174 171 174 177 178 171 177 176 169 174 171 168 169 168 168 169 169 173 172 171 168 169 174 166 172 169 168 171 175 176 172 171 171 165 170 176
143 148 152 154 155 160 157 156 159 158 157 156 155 156 159 155 159 164 159 170 169 169 175 173 178 175 177 182 183 186 190 186 189 186 190 188 194 191 189 193 196 195 193 195 192 194 195 197 195 195 194 198 197 196 198 195 200 198 198 200 199 198 198 199 195 196 197 195 188 198 195 193 192 191 190 186 184 181 178 169 170 171 166 165 164 166 169 167 169 171 170 168 173 167 167 168 165 165 161 170 169 166 171 168 169 163 159 167 169 165 168 168 174 167 175 169 166 171 169 171
145 138 147 144 147 148 148 149 151 152 147 148 147 156 149 150 156 150 153 158 158 163 165 172 165 173 173 171 177 175 178 176 182 180 177 182 183 178 181 182 180 182 186 184 183 184 184 182 188 184 184 187 191 185 186 186 187 187 0 186 186 184 183 185 189 186 186 186 186 186 185 181 180 177 173 171 172 170 170 166 160 160 161 159 161 159 162 158 160 159 160 160 158 161 160 160 154 159 162 164 162 158 157 156 160 159 156 155 153 163 153 159 159 167 159 168 156 166 172 164
138 138 133 140 140 150 146 144 142 145 142 145 141 145 142 146 142 147 148 152 161 159 162 163 165 167 169 163 168 171 168 170 175 174 168 173 175 172 173 179 175 180 175 176 175 179 177 178 174 179 178 175 176 177 183 181 182 0 0 177 178 176 180 179 178 174 177 179 180 170 174 176 172 172 169 173 166 167 164 159 163 157 152 156 157 157 157 155 156 154 150 150 157 153 153 152 151 153 155 154 156 153 148 151 153 149 143 146 155 156 153 151 143 153 150 154 149 152 147 150
138 137 134 137 140 148 148 141 140 139 140 143 142 149 145 141 139 148 147 148 150 153 155 159 162 157 162 159 162 163 162 167 169 165 165 166 165 170 165 170 170 0 174 0 170 175 173 174 172 171 176 174 175 175 176 0 173 171 0 174 173 0 174 175 172 171 172 168 174 170 168 169 170 168 163 165 165 157 158 154 153 153 151 152 155 146 151 148 151 157 146 151 149 147 147 147 154 150 153 153 151 144 142 145 145 146 144 145 149 152 149 147 150 157 149 151 143 152 145 166
128 123 126 125 137 136 141 133 130 120 134 130 126 124 136 134 133 137 138 138 140 144 148 151 147 156 156 153 157 161 158 155 157 161 157 155 161 162 0 0 0 0 0 0 0 0 161 165 165 165 167 162 168 165 0 0 170 165 164 0 0 0 0 0 164 163 167 0 158 163 160 160 158 157 151 157 151 158 150 149 146 145 144 144 145 149 139 146 142 141 142 145 141 145 141 138 142 145 140 141 134 140 144 138 137 137 136 136 140 138 140 138 140 152 146 137 138 142 134 121
122 125 125 123 128 131 139 132 134 128 127 134 126 132 131 122 130 137 137 135 139 138 147 146 150 150 153 153 153 155 153 152 156 158 152 156 155 0 0 0 0 0 0 0 0 0 0 0 0 162 164 162 0 0 0 0 0 0 0 0 0 0 0 0 0 0 0 0 0 0 0 154 161 154 155 150 150 146 148 144 130 140 144 141 141 142 142 137 144 140 134 137 140 140 130 137 142 140 140 138 136 137 138 135 129 133 133 136 141 143 136 141 139 142 145 136 139 132 137 161
113 106 115 121 125 116 128 128 118 128 128 121 116 121 114 128 130 132 119 134 126 125 133 142 141 141 147 145 143 148 149 147 153 149 147 145 0 0 0 0 0 0 0 0 0 0 0 0 153 151 156 0 0 0 0 0 0 0 0 0 0 0 0 0 0 0 0 0 0 0 0 0 147 150 150 147 147 145 145 142 130 141 128 129 126 124 136 137 137 130 141 138 133 127 117 129 139 139 134 132 128 136 135 131 127 134 135 126 131 134 130 135 131 141 143 131 129 125 113 135
104 108 115 111 111 109 119 120 111 119 117 114 117 117 126 122 118 120 117 120 122 124 126 123 126 141 141 142 141 143 144 141 143 143 147 144 0 0 0 0 0 0 0 0 0 0 0 0 0 0 0 0 0 0 0 0 0 0 0 0 0 0 0 0 0 0 0 0 0 0 0 0 144 139 143 140 137 131 130 131 121 121 120 119 125 119 126 125 122 126 124 120 118 127 119 128 126 123 121 118 122 121 134 114 117 128 127 118 119 136 128 134 109 118 110 131 106 109 120 135
110 107 116 114 115 113 118 124 120 119 114 119 115 114 118 122 118 128 124 115 119 116 119 117 137 136 136 137 0 139 0 0 0 139 140 0 0 0 0 0 0 0 0 0 0 0 0 0 0 0 0 0 0 0 0 0 0 0 0 0 0 0 0 0 0 0 0 0 0 0 0 0 0 139 136 126 124 123 120 127 122 119 121 126 116 118 118 122 119 119 119 126 116 117 115 119 114 122 125 122 119 124 130 122 130 112 118 123 110 123 129 113 127 129 133 115 109 136 139 144
102 100 109 112 101 104 106 105 102 102 109 104 102 107 104 109 109 115 118 110 112 118 108 118 119 117 126 117 122 124 0 0 0 0 125 0 0 0 0 0 0 0 0 0 0 0 0 0 0 0 0 0 0 0 0 0 0 0 0 0 0 0 0 0 0 0 0 0 0 0 0 0 128 0 0 123 116 119 122 113 116 115 110 115 113 115 112 116 106 112 112 115 109 112 110 104 112 113 115 106 113 110 111 114 112 115 109 106 109 107 108 115 98 125 114 99 109 121 107 118
97 99 89 94 100 101 105 101 102 103 101 104 105 104 106 106 106 107 116 108 107 107 108 107 112 109 117 120 120 118 0 125 0 0 0 0 0 0 0 0 0 0 0 0 0 0 0 0 0 0 0 0 0 0 0 0 0 0 0 0 0 0 0 0 0 0 0 0 0 0 0 0 0 120 0 117 120 118 114 109 110 110 106 104 112 104 109 115 101 110 111 110 111 112 106 117 101 107 96 119 107 106 109 107 102 112 106 110 111 112 97 105 115 101 103 113 106 100 112 136
96 99 97 105 96 102 102 93 95 98 100 96 98 93 97 94 104 103 112 117 113 104 96 112 111 107 109 115 114 123 117 117 121 0 0 0 0 0 0 0 0 0 0 0 0 0 0 0 0 0 0 0 0 0 0 0 0 0 0 0 0 0 0 0 0 0 0 0 0 0 0 0 123 125 0 121 111 115 119 117 105 109 101 117 108 111 102 100 102 105 106 106 112 93 99 100 103 98 111 97 105 108 105 107 108 108 110 97 96 104 99 102 103 99 109 103 131 133 131 128
84 84 80 83 82 82 79 94 88 83 88 91 96 91 93 87 76 93 89 87 94 89 102 104 101 103 112 107 0 114 106 105 118 0 0 0 0 0 0 0 0 0 0 0 0 0 0 0 0 0 0 0 0 0 0 0 0 0 0 0 0 0 0 0 0 0 0 0 0 0 0 0 108 111 104 111 107 101 102 100 100 103 101 91 100 92 87 97 106 101 90 95 101 84 83 93 94 104 82 95 93 95 90 88 80 86 92 86 96 89 90 78 83 92 86 101 94 80 98 112
92 86 89 88 96 95 97 106 92 93 93 92 92 92 94 97 97 91 101 95 96 104 104 102 102 108 109 106 0 106 109 110 116 113 119 107 0 0 112 0 0 117 0 0 0 0 0 0 0 0 0 0 0 0 0 0 0 0 0 0 0 0 0 0 112 0 0 0 110 0 109 107 112 113 113 108 106 111 101 99 110 103 105 87 97 102 101 103 98 101 104 105 106 97 98 103 98 92 102 111 99 97 101 98 89 102 96 87 90 87 89 95 90 95 104 91 90 109 135 143
84 92 90 86 96 96 90 92 84 97 87 90 86 91 85 84 92 97 96 93 98 90 99 111 91 98 104 98 105 108 94 0 106 100 96 101 0 113 114 0 111 0 0 0 0 0 0 0 0 0 0 0 0 0 0 0 0 112 0 0 0 103 104 112 110 110 103 101 112 106 107 101 104 101 108 108 102 91 102 97 93 95 101 83 91 90 92 101 105 95 97 106 109 86 84 82 90 93 92 88 95 88 91 93 95 85 102 91 91 84 90 88 86 103 88 91 127 131 131 110
84 83 82 89 92 91 102 88 87 82 89 89 84 88 90 87 90 88 88 88 77 90 91 83 85 93 96 91 104 87 96 99 97 96 91 108 97 102 102 100 101 96 99 108 106 89 0 0 93 0 0 109 105 93 100 105 104 104 108 103 99 106 109 104 99 111 99 97 99 107 99 105 106 99 108 93 93 93 101 88 90 92 90 94 91 91 89 89 96 94 101 87 95 94 93 92 87 84 92 81 88 86 87 87 85 81 93 84 78 91 86 96 94 99 78 90 97 90 96 91
83 80 84 87 86 89 100 101 86 83 87 83 84 88 83 91 90 95 88 98 87 97 92 94 93 96 91 90 98 98 96 86 95 97 96 96 98 98 94 107 102 92 99 106 97 97 109 0 103 0 96 105 97 100 101 103 102 107 102 106 104 94 96 104 102 100 99 103 95 104 98 107 101 96 102 88 93 95 95 89 101 97 94 93 97 95 86 86 94 87 87 99 87 92 94 94 95 95 97 88 82 98 85 89 92 102 94 93 93 86 82 96 107 104 113 116 111 89 151 152
82 71 69 67 78 82 86 86 87 76 89 80 84 79 85 83 85 86 85 82 83 86 93 86 83 84 94 93 95 94 91 93 93 95 90 94 93 84 87 95 93 89 82 86 86 91 88 99 93 89 93 87 96 89 89 85 102 90 97 95 97 84 80 97 96 97 97 91 97 84 97 84 90 92 85 95 93 91 90 94 88 93 81 88 85 92 88 84 82 89 89 77 86 82 87 87 84 90 81 90 80 86 83 69 80 81 86 78 81 85 82 86 80 80 100 88 127 80 81 65
72 73 79 84 72 86 87 86 81 80 82 90 81 82 84 86 91 88 83 87 84 91 82 92 86 93 91 85 85 91 95 97 90 96 86 92 94 93 87 96 95 96 94 89 88 99 89 97 99 93 90 96 97 97 99 94 91 84 88 94 97 84 92 93 92 95 90 95 107 93 84 95 83 97 95 96 95 82 96 93 91 88 88 89 79 84 91 77 88 95 79 89 77 79 88 81 93 83 79 80 83 82 79 77 78 82 83 81 87 88 82 83 83 97 89 105 85 93 83 148
