0 0 0 0 0 0 0 0 0 0 0 0 0 0 0 0 0 0 0 0 0 0 0 0 0 0 0 0 0 0 0 0 0 0 0 0 0 0 0 0 0 0 0 0 0 0 0 0 0 0 0 0 0 0 0 0 0 0 0 0 0 0 0 0 0 0 0 0 0 0 0 0 0 0 0 0 0 0 0 0 0 0 0 0 0 0 0 0 0 0 0 0 0 0 0 0 0 0 0 0 0 0 0 0 0 0 0 0 0 0 0 0 0 0 0 0 0 0 0 0
0 0 0 0 0 0 0 0 0 0 0 0 0 0 0 0 0 0 0 0 0 0 0 0 0 0 0 0 0 0 0 0 0 0 0 0 0 0 0 0 0 0 0 0 0 0 0 0 0 0 0 0 0 0 0 0 0 0 0 0 0 0 0 0 0 0 0 0 0 0 0 0 0 0 0 0 0 0 0 0 0 0 0 0 0 0 0 0 0 0 0 0 0 0 0 0 0 0 0 0 0 0 0 0 0 0 0 0 0 0 0 0 0 0 0 0 0 0 0 0
0 0 0 0 0 0 0 0 0 0 0 0 0 0 0 0 0 0 0 0 0 0 0 0 0 0 0 0 0 0 0 0 0 0 0 0 0 0 0 0 0 0 0 0 0 0 0 0 0 0 0 0 0 0 0 0 0 0 0 0 0 0 0 0 0 0 0 0 0 0 0 0 0 0 0 0 0 0 0 0 0 0 0 0 0 0 0 0 0 0 0 0 0 0 0 0 0 0 0 0 0 0 0 0 0 0 0 0 0 0 0 0 0 0 0 0 0 0 0 0
0 0 0 0 0 0 0 0 0 0 0 0 0 0 0 0 0 0 0 0 0 0 0 0 0 0 0 0 0 0 0 0 0 0 0 0 0 0 0 0 0 0 0 0 0 0 0 0 0 0 0 0 0 0 0 0 0 0 0 0 0 0 0 0 0 0 0 0 0 0 0 0 0 0 0 0 0 0 0 0 0 0 0 0 0 0 0 0 0 0 0 0 0 0 0 0 0 0 0 0 0 0 0 0 0 0 0 0 0 0 0 0 0 0 0 0 0 0 0 0
0 0 0 0 0 0 0 0 0 0 0 0 0 0 0 0 0 0 0 0 0 0 0 0 0 0 0 0 0 0 0 0 0 0 0 0 0 0 0 0 0 0 0 0 0 0 0 0 0 0 0 0 0 0 0 0 0 0 0 0 0 0 0 0 0 0 0 0 0 0 0 0 0 0 0 0 0 0 0 0 0 0 0 0 0 0 0 0 0 0 0 0 0 0 0 0 0 0 0 0 0 0 0 0 0 0 0 0 0 0 0 0 0 0 0 0 0 0 0 0
0 0 0 0 0 0 0 0 0 0 0 0 0 0 0 0 0 0 0 0 0 0 0 0 0 0 0 0 0 0 0 0 0 0 0 0 0 0 0 556 513 489 490 514 512 531 515 523 515 519 511 506 527 505 528 0 0 0 0 0 0 0 0 0 0 0 0 0 0 0 0 0 0 0 0 0 0 0 0 0 0 0 0 0 0 0 0 0 0 0 0 0 0 0 0 0 0 0 0 0 0 0 0 0 0 0 0 0 0 0 0 0 0 0 0 0 0 0 0 0
0 0 0 0 0 0 0 0 0 0 0 0 0 0 0 0 0 0 0 0 0 0 0 0 0 0 0 0 0 0 0 0 0 0 0 0 0 501 498 501 496 494 490 489 495 501 515 497 507 510 500 490 495 509 510 514 515 497 496 476 0 0 0 0 0 0 0 0 0 0 0 0 0 0 0 0 0 0 0 0 0 0 0 0 0 0 0 0 0 0 0 0 0 0 0 0 0 0 0 0 0 0 0 0 0 0 0 0 0 0 0 0 0 0 0 0 0 0 0 0
0 0 0 0 0 0 0 0 0 0 0 0 0 0 0 0 0 0 0 0 0 0 0 0 0 0 0 0 0 0 0 0 0 0 0 541 504 514 517 505 514 515 502 519 500 524 513 514 518 504 508 516 513 526 512 515 527 518 501 501 504 512 545 543 555 0 0 0 0 0 0 0 0 0 0 0 0 0 0 0 0 0 0 0 0 0 0 0 0 0 0 0 0 0 0 0 0 0 0 0 0 0 0 0 0 0 0 0 0 0 0 0 0 0 0 0 0 0 0 0
0 0 0 0 0 0 0 0 0 0 0 0 0 0 0 0 0 0 0 0 0 0 0 0 0 0 0 0 0 0 0 0 0 502 482 497 489 511 499 499 495 492 495 492 504 506 499 503 506 518 502 492 500 498 503 503 495 491 513 498 493 504 498 516 525 500 499 517 528 518 515 551 575 0 576 553 571 568 541 549 0 0 0 0 0 0 0 0 0 0 0 0 0 0 0 0 0 0 0 0 0 0 0 0 0 0 0 0 0 0 0 0 0 0 0 0 0 0 0 0
0 0 0 0 0 0 0 0 0 0 0 0 0 0 0 0 0 0 0 0 0 0 0 0 0 0 0 0 0 0 0 489 495 499 502 499 502 490 491 488 507 500 501 501 502 506 504 499 498 509 500 499 501 493 493 496 507 498 504 506 513 516 506 507 502 515 521 512 521 552 535 579 569 558 584 554 532 554 549 572 585 556 534 550 577 542 572 515 509 544 567 589 548 575 542 559 568 560 572 533 576 537 585 585 0 527 0 0 0 0 0 0 0 0 0 0 0 0 0 0
0 0 0 0 0 0 0 0 0 0 0 0 0 0 0 0 0 0 0 0 0 0 0 0 0 0 0 0 0 0 530 499 502 495 492 489 513 500 495 512 511 509 504 497 502 505 517 505 504 507 509 509 513 506 517 518 511 507 506 509 504 505 513 510 508 509 508 506 507 514 553 549 544 559 578 598 576 570 583 592 578 567 580 572 637 624 540 579 590 563 598 561 572 565 577 574 571 644 578 589 540 553 561 562 594 539 620 603 0 0 0 0 0 0 0 0 0 0 0 0
0 0 0 0 0 0 0 0 0 0 0 0 0 0 0 0 0 0 0 0 0 0 0 0 0 0 0 0 473 476 506 495 493 502 499 492 489 502 501 495 496 501 494 494 500 499 496 501 497 509 503 498 506 503 494 500 498 507 500 503 501 492 509 511 507 500 508 506 513 515 500 517 553 532 541 530 556 550 557 573 567 519 548 537 553 555 546 526 557 545 517 575 515 549 559 532 564 536 538 498 522 539 542 518 532 492 505 504 552 0 0 0 0 0 0 0 0 0 0 0
0 0 0 0 0 0 0 0 0 0 0 0 0 0 0 0 0 0 0 0 0 0 0 0 0 0 0 472 499 507 509 494 507 498 497 500 505 503 517 509 513 504 502 509 506 505 499 499 508 500 510 506 515 507 505 513 500 516 510 514 513 512 509 510 510 502 516 515 509 515 514 513 571 570 553 589 568 576 580 565 543 568 569 554 563 551 569 589 557 574 564 574 571 567 571 549 597 563 585 579 524 537 561 578 542 598 551 564 584 0 0 0 0 0 0 0 0 0 0 0
0 0 0 0 0 0 0 0 0 0 0 0 0 0 0 0 0 0 0 0 0 0 0 0 0 0 490 500 510 499 492 498 494 500 499 497 503 501 502 500 498 501 510 497 499 504 504 501 501 504 506 502 507 508 510 503 496 505 509 506 513 510 514 508 511 515 511 507 516 507 521 519 531 554 583 569 535 583 542 569 603 554 584 552 571 534 569 554 570 581 595 570 564 560 549 560 570 576 586 571 569 551 560 544 541 591 584 560 602 0 0 0 0 0 0 0 0 0 0 0
0 0 0 0 0 0 0 0 0 0 0 0 0 0 0 0 0 0 0 0 0 0 0 0 0 452 504 482 503 486 498 493 495 491 493 491 504 500 501 489 498 499 507 504 493 499 498 502 505 501 505 507 498 500 503 507 497 500 509 503 507 507 503 512 511 503 502 504 501 503 505 506 503 535 532 532 519 550 527 564 516 537 543 520 556 548 511 534 515 523 549 543 497 524 557 529 534 511 515 521 521 565 476 537 500 543 453 549 503 508 493 0 0 0 0 0 0 0 0 0
0 0 0 0 0 0 0 0 0 0 0 0 0 0 0 0 0 0 0 0 0 0 0 0 0 492 498 500 498 498 494 495 501 506 493 491 492 501 508 504 502 500 504 494 501 495 505 502 504 505 501 505 501 504 508 503 509 507 499 506 508 504 505 507 510 505 515 514 514 509 503 514 509 516 541 548 568 563 578 552 580 554 550 556 538 569 572 585 558 562 555 567 546 532 540 558 557 546 600 542 582 572 546 555 541 563 551 556 548 557 579 0 595 524 0 0 0 0 0 0
0 0 0 0 0 0 0 0 0 0 0 0 0 0 0 0 0 0 0 0 0 0 0 0 457 488 494 494 491 495 499 493 491 492 497 501 498 498 497 490 502 501 495 499 498 502 506 502 492 504 491 501 505 502 503 505 503 507 502 508 504 494 504 504 499 503 499 514 502 511 508 503 512 502 525 545 533 535 498 519 526 531 549 523 538 519 503 506 538 515 539 522 533 513 537 503 528 544 553 556 534 535 554 537 559 539 530 534 542 540 0 0 0 0 0 0 0 0 0 0
0 0 0 0 0 0 0 0 0 0 0 0 0 0 0 0 0 0 0 0 0 0 0 0 496 491 489 490 493 495 494 492 495 483 493 494 504 491 482 494 491 491 493 488 492 496 487 501 500 498 506 506 505 499 503 499 504 500 499 501 507 502 498 514 503 503 503 501 503 509 504 501 515 503 521 522 537 543 547 497 521 532 534 508 530 525 546 538 538 531 521 532 486 522 520 500 498 576 534 541 519 564 540 508 524 537 554 513 458 491 560 0 0 0 0 0 0 0 0 0
0 0 0 0 0 0 0 0 0 0 0 0 0 0 0 0 0 0 0 0 0 0 0 479 497 500 496 494 498 492 503 505 491 498 494 501 497 499 489 499 497 500 503 505 504 502 505 508 493 507 506 504 506 504 508 502 502 502 502 504 512 499 511 509 504 502 505 507 510 503 506 506 507 504 500 519 535 580 524 560 533 537 533 550 525 547 554 551 561 520 563 557 556 537 527 533 529 570 524 575 543 565 522 546 554 540 566 539 518 561 569 0 0 0 0 0 0 0 0 0
0 0 0 0 0 0 0 0 0 0 0 0 0 0 0 0 0 0 0 0 0 0 0 496 497 484 482 487 491 494 484 497 500 496 483 486 488 488 491 497 492 499 493 490 502 492 498 503 489 505 495 503 494 495 496 502 501 509 502 502 500 503 504 499 503 501 506 512 504 509 512 503 504 508 509 506 529 538 513 534 522 518 514 527 511 514 495 519 539 535 547 547 519 538 519 531 509 531 501 510 519 539 540 526 517 539 515 548 504 488 463 0 0 0 0 0 0 0 0 0
0 0 0 0 0 0 0 0 0 0 0 0 0 0 0 0 0 0 0 0 0 0 510 498 493 490 495 491 481 492 491 499 500 493 491 498 498 497 498 493 494 501 498 502 499 500 498 500 504 499 497 501 509 494 512 505 507 496 501 504 496 504 511 506 508 509 500 505 501 507 510 506 506 500 513 500 519 552 544 520 546 535 544 538 543 535 481 518 559 545 556 544 527 553 543 516 563 535 565 549 564 572 528 542 517 524 558 526 536 529 526 537 528 0 0 0 0 0 0 0
0 0 0 0 0 0 0 0 0 0 0 0 0 0 0 0 0 0 0 0 0 0 489 496 483 492 485 491 491 502 494 486 488 488 498 498 493 491 494 494 506 498 501 512 498 500 502 506 500 505 501 498 507 511 499 502 504 503 505 505 508 507 501 504 504 503 511 514 510 503 509 511 520 515 514 499 522 552 533 528 525 516 547 534 568 520 525 536 540 577 538 541 535 520 546 548 545 564 548 544 539 580 541 555 517 530 537 511 561 525 483 0 0 0 0 0 0 0 0 0
0 0 0 0 0 0 0 0 0 0 0 0 0 0 0 0 0 0 0 0 0 0 481 480 485 484 492 491 481 483 483 484 494 482 484 489 483 490 490 499 497 494 495 496 497 497 496 496 496 494 493 493 491 501 501 499 505 505 503 499 509 513 495 505 501 496 501 504 500 498 500 504 501 499 505 496 499 506 500 526 517 529 510 495 495 539 510 468 520 495 520 544 516 506 504 535 475 529 506 505 499 508 507 516 498 534 524 506 513 548 514 560 519 557 0 0 0 0 0 0
0 0 0 0 0 0 0 0 0 0 0 0 0 0 0 0 0 0 0 0 0 0 489 498 495 493 495 506 488 496 490 484 493 488 494 484 489 492 491 493 499 496 501 495 495 498 501 501 493 507 498 510 497 500 503 507 508 501 508 503 500 513 497 508 509 505 505 512 505 506 508 506 507 503 514 512 509 545 550 537 532 507 556 521 544 543 537 536 537 539 554 533 545 576 549 537 555 559 532 547 544 575 562 551 561 572 547 515 551 555 567 573 627 0 0 0 0 0 0 0
0 0 0 0 0 0 0 0 0 0 0 0 0 0 0 0 0 0 0 0 0 0 490 474 475 481 488 490 496 493 490 491 495 483 485 486 485 488 483 482 488 489 502 498 494 493 493 494 495 496 497 496 496 499 498 502 502 497 496 495 502 501 499 492 502 504 505 502 497 500 503 502 500 499 498 503 509 509 490 495 527 517 503 506 505 503 502 494 529 511 514 504 484 507 515 478 516 497 502 496 512 481 496 514 525 487 520 534 518 491 460 509 494 0 0 0 0 0 0 0
0 0 0 0 0 0 0 0 0 0 0 0 0 0 0 0 0 0 0 0 0 0 490 473 488 490 488 485 490 487 493 481 493 482 485 487 496 486 491 497 493 492 490 499 494 496 492 496 498 495 497 494 495 498 498 504 498 499 497 502 502 502 508 491 501 500 502 502 492 501 496 502 503 506 500 498 507 491 494 507 492 477 510 494 521 522 502 503 512 487 540 527 495 515 532 500 528 500 508 514 495 509 498 488 500 497 503 494 496 481 473 519 519 0 0 0 0 0 0 0
0 0 0 0 0 0 0 0 0 0 0 0 0 0 0 0 0 0 0 0 0 460 478 490 487 484 486 493 495 492 482 491 481 495 489 485 499 496 488 495 491 503 492 490 498 498 493 495 495 497 498 500 496 501 502 499 501 501 504 496 502 495 502 501 502 495 504 512 508 508 504 500 507 508 501 504 510 512 519 526 530 517 523 518 516 539 527 538 517 528 548 537 511 520 541 497 536 504 561 546 578 536 557 552 519 543 537 509 558 528 574 0 0 0 0 0 0 0 0 0
0 0 0 0 0 0 0 0 0 0 0 0 0 0 0 0 0 0 0 0 0 463 481 479 495 479 480 474 479 478 481 481 485 481 488 489 487 489 488 488 497 493 489 490 497 489 496 496 501 494 496 498 498 504 502 495 503 501 503 505 499 499 498 495 502 501 499 499 501 499 504 494 501 496 511 500 499 508 517 504 500 493 488 508 486 510 507 487 484 484 518 517 517 470 482 488 484 486 516 494 486 511 496 508 479 485 487 529 514 485 517 536 0 0 0 0 0 0 0 0
0 0 0 0 0 0 0 0 0 0 0 0 0 0 0 0 0 0 0 0 0 505 477 479 491 476 487 487 477 482 488 488 491 488 486 500 485 485 495 492 497 491 489 494 489 497 494 491 494 493 495 498 495 494 498 503 496 498 502 496 508 498 503 507 505 506 509 508 503 502 507 498 500 514 508 501 501 521 507 502 511 529 498 539 515 521 553 516 516 537 533 498 522 520 525 523 534 535 524 528 541 510 541 538 513 507 528 534 519 564 572 535 550 534 518 0 0 0 0 0
0 0 0 0 0 0 0 0 0 0 0 0 0 0 0 0 0 0 0 0 0 458 490 473 483 474 481 485 495 488 485 485 487 489 488 489 486 487 492 488 493 490 486 494 494 495 493 492 497 495 497 497 500 499 501 498 499 499 500 501 497 497 502 503 502 504 504 507 501 508 499 503 504 497 504 501 509 502 519 503 513 503 517 498 519 517 499 526 520 504 539 528 529 511 537 521 487 505 510 530 503 528 513 540 522 534 506 504 499 520 530 496 521 0 0 0 0 0 0 0
0 0 0 0 0 0 0 0 0 0 0 0 0 0 0 0 0 0 0 0 0 443 484 477 479 470 481 476 474 477 483 481 482 484 486 478 481 486 489 487 491 493 489 492 491 489 493 491 494 490 495 494 497 495 495 501 496 497 496 494 498 497 497 496 498 504 510 499 505 500 501 502 499 504 505 496 505 498 494 517 484 491 512 507 491 510 479 498 481 477 499 485 493 512 488 482 482 488 481 497 494 536 502 489 509 508 505 493 499 472 479 536 472 0 0 0 0 0 0 0
0 0 0 0 0 0 0 0 0 0 0 0 0 0 0 0 0 0 0 0 0 472 477 483 492 482 483 484 480 483 486 483 487 487 491 488 485 492 491 492 491 491 490 488 494 493 494 498 498 493 492 497 497 498 497 502 494 500 504 502 500 504 502 504 504 506 505 504 505 500 502 502 502 506 497 500 507 495 510 506 518 516 524 516 540 530 514 511 540 517 527 524 538 486 511 529 540 543 531 505 538 524 540 540 540 529 558 572 550 543 537 552 499 0 0 0 0 0 0 0
0 0 0 0 0 0 0 0 0 0 0 0 0 0 0 0 0 0 0 0 0 454 479 481 477 480 477 481 481 479 485 479 483 480 487 484 487 489 486 486 494 491 487 491 487 489 490 490 491 497 498 494 493 492 494 498 494 500 503 498 498 495 497 498 503 501 501 497 501 503 495 500 503 498 497 499 498 500 500 491 501 501 500 481 502 504 520 512 493 486 514 519 515 511 506 503 532 459 503 514 522 509 497 486 495 485 534 497 516 513 527 481 494 516 0 0 0 0 0 0
0 0 0 0 0 0 0 0 0 0 0 0 0 0 0 0 0 0 0 0 0 440 478 476 477 478 477 481 472 473 480 490 484 487 485 485 488 485 488 489 490 483 484 485 489 490 492 493 491 489 491 493 495 497 494 494 494 493 492 495 503 492 499 500 495 495 499 494 498 500 502 497 496 494 491 497 494 495 503 477 489 507 488 502 489 498 503 496 485 512 488 518 497 493 488 506 506 504 494 512 510 490 506 501 490 490 525 487 525 491 499 515 491 0 0 0 0 0 0 0
0 0 0 0 0 0 0 0 0 0 0 0 0 0 0 0 0 0 0 0 0 466 483 474 481 480 481 475 479 484 478 492 489 489 482 483 481 487 484 490 486 489 486 488 491 488 492 496 492 490 493 491 490 496 499 491 503 493 496 498 496 500 497 492 499 500 499 499 503 500 501 493 497 502 494 498 498 503 500 512 530 501 530 513 522 504 507 517 515 532 512 504 518 496 498 517 534 513 504 545 533 552 519 533 553 543 563 526 534 549 560 509 588 520 0 0 0 0 0 0
0 0 0 0 0 0 0 0 0 0 0 0 0 0 0 0 0 0 0 0 0 444 473 473 467 476 473 478 486 475 481 476 480 477 484 485 482 483 484 486 482 487 485 491 492 484 489 482 487 498 493 495 490 494 497 493 493 496 497 492 495 497 495 500 497 501 499 505 501 499 497 499 498 495 493 497 494 493 502 494 497 498 494 483 489 499 500 475 487 497 508 475 475 486 501 485 512 497 487 508 517 496 469 481 474 474 460 476 549 457 519 478 484 486 0 0 0 0 0 0
0 0 0 0 0 0 0 0 0 0 0 0 0 0 0 0 0 0 0 0 0 485 475 474 481 475 481 478 476 486 480 484 485 488 488 487 486 485 486 492 483 489 491 489 486 492 490 484 493 492 493 494 490 493 493 495 495 490 495 498 500 500 497 496 498 502 494 501 498 496 496 494 500 495 498 498 492 498 505 496 497 493 494 487 509 510 490 499 498 480 506 520 513 505 508 510 490 500 495 543 497 524 494 521 487 507 481 503 516 504 477 522 508 535 0 0 0 0 0 0
0 0 0 0 0 0 0 0 0 0 0 0 0 0 0 0 0 0 0 0 0 0 476 479 471 480 477 479 478 480 478 487 480 482 482 479 487 484 483 488 490 484 486 487 487 492 488 493 494 496 496 495 494 495 496 491 490 494 496 493 496 501 501 502 504 499 496 494 500 496 499 500 500 495 495 501 493 494 507 513 513 504 500 522 493 504 524 498 517 516 513 507 517 503 521 497 520 537 509 522 502 509 534 491 547 497 491 521 509 493 523 487 551 541 0 0 0 0 0 0
0 0 0 0 0 0 0 0 0 0 0 0 0 0 0 0 0 0 0 0 0 0 497 475 468 474 476 472 477 478 481 472 476 478 477 478 479 482 492 484 486 488 486 482 490 488 485 492 490 488 492 492 495 494 491 496 498 487 494 497 496 492 493 490 498 495 499 499 495 496 496 492 499 488 494 488 494 504 486 495 508 511 498 513 528 485 510 492 516 488 501 506 515 511 490 486 483 502 494 482 474 470 444 501 522 470 481 513 478 464 444 468 469 501 0 0 0 0 0 0
0 0 0 0 0 0 0 0 0 0 0 0 0 0 0 0 0 0 0 0 0 0 529 472 469 478 479 479 476 482 476 479 487 484 482 487 487 485 484 483 491 489 487 483 488 489 491 487 490 498 490 492 493 500 497 495 492 496 497 496 497 496 495 494 495 501 497 492 492 500 498 494 500 496 494 493 496 503 507 516 513 499 516 531 529 518 531 533 518 519 516 530 534 524 554 522 526 517 529 505 518 509 531 547 523 522 525 536 552 488 520 533 504 515 513 520 0 0 0 0
0 0 0 0 0 0 0 0 0 0 0 0 0 0 0 0 0 0 0 0 0 0 580 471 468 473 477 478 476 474 480 479 479 476 479 479 477 483 481 481 486 486 485 486 481 490 493 487 495 489 495 492 495 492 493 497 491 492 495 496 496 495 498 496 498 498 492 497 494 492 492 490 489 493 492 490 494 494 483 501 488 503 522 497 503 503 489 484 498 499 499 513 498 553 491 497 509 497 501 510 497 506 489 489 488 496 516 496 507 479 477 466 454 514 456 0 0 0 0 0
0 0 0 0 0 0 0 0 0 0 0 0 0 0 0 0 0 0 0 0 0 0 700 471 463 474 477 472 474 468 476 483 480 472 475 477 479 481 478 481 486 482 486 486 485 487 488 490 493 492 494 490 493 493 489 495 494 492 493 498 497 492 492 490 495 499 491 495 498 497 496 493 495 496 494 496 495 484 496 484 497 487 488 487 493 496 488 493 491 494 510 517 511 508 501 478 487 517 471 494 529 510 495 481 456 492 481 485 483 455 459 498 454 0 427 0 0 0 0 0
0 0 0 0 0 0 0 0 0 0 0 0 0 0 0 0 0 0 0 0 0 0 0 503 480 470 478 476 476 476 478 479 470 473 482 481 477 479 485 480 484 483 487 489 487 485 491 490 492 491 487 492 492 488 494 492 495 491 494 492 493 495 496 498 492 499 497 494 497 495 497 496 495 497 491 492 493 498 496 507 492 513 499 515 510 516 492 509 497 490 512 508 510 528 531 533 517 516 509 496 566 531 528 519 513 544 497 505 486 493 508 543 533 549 0 0 0 0 0 0
0 0 0 0 0 0 0 0 0 0 0 0 0 0 0 0 0 0 0 0 0 0 0 500 462 467 466 472 472 466 469 474 475 473 475 480 481 477 475 483 485 478 485 485 487 492 489 487 487 487 495 492 491 489 492 490 493 488 487 489 493 493 490 497 495 492 491 494 495 494 495 492 488 495 486 492 492 488 499 481 475 487 497 487 504 491 490 490 492 503 497 500 507 499 483 516 512 476 487 491 480 512 511 479 493 459 483 494 474 481 468 455 467 524 447 0 0 0 0 0
0 0 0 0 0 0 0 0 0 0 0 0 0 0 0 0 0 0 0 0 0 0 0 0 473 466 467 469 473 470 479 476 478 478 479 473 478 482 482 483 478 484 482 482 489 486 486 489 494 493 489 490 492 492 488 489 490 493 490 495 494 498 494 496 496 490 493 499 494 496 496 494 493 497 492 487 490 507 496 525 490 505 505 506 514 501 515 501 507 505 519 511 510 497 499 524 488 503 490 501 471 527 510 530 517 525 475 512 480 470 475 523 512 527 575 494 0 0 0 0
0 0 0 0 0 0 0 0 0 0 0 0 0 0 0 0 0 0 0 0 0 0 0 0 526 471 469 475 471 476 478 477 475 475 476 478 482 480 481 480 483 484 483 484 486 483 491 488 485 492 493 492 493 493 492 489 498 495 493 486 491 488 493 492 492 497 493 491 494 495 497 494 495 494 494 496 486 488 501 496 492 530 494 494 504 523 487 520 501 501 500 505 529 522 524 540 525 517 507 527 492 529 488 510 472 504 486 484 513 507 495 484 489 541 447 0 0 0 0 0
0 0 0 0 0 0 0 0 0 0 0 0 0 0 0 0 0 0 0 0 0 0 0 0 0 466 468 469 465 476 467 465 477 472 477 476 476 477 476 481 478 479 480 480 481 481 488 485 490 483 488 486 490 486 486 488 492 488 486 490 490 488 496 492 491 495 488 494 491 488 493 490 493 489 487 490 482 476 486 482 491 482 500 483 479 487 483 483 495 479 487 468 498 485 497 490 507 496 481 482 510 504 496 478 465 489 437 445 518 460 481 472 475 394 0 0 0 0 0 0
0 0 0 0 0 0 0 0 0 0 0 0 0 0 0 0 0 0 0 0 0 0 0 0 0 579 475 462 471 477 471 471 474 471 477 476 476 477 480 478 480 482 479 482 482 481 482 484 487 484 484 487 486 488 491 492 488 491 489 497 489 490 491 484 488 495 492 492 487 487 495 492 489 493 486 487 486 478 493 489 500 484 483 494 500 495 495 507 484 504 503 501 511 502 486 511 519 518 496 511 504 510 522 512 476 505 499 476 468 491 480 450 482 539 537 0 0 0 0 0
0 0 0 0 0 0 0 0 0 0 0 0 0 0 0 0 0 0 0 0 0 0 0 0 0 0 475 469 464 468 468 474 469 470 476 475 476 476 475 474 474 480 481 482 480 482 482 481 483 480 485 485 489 485 493 489 483 491 486 485 490 484 486 487 488 488 488 489 491 489 497 487 488 486 486 484 473 476 479 497 481 485 484 479 476 504 488 479 478 488 477 491 488 479 477 495 487 487 474 494 485 473 508 487 455 447 468 476 463 474 436 463 484 472 0 0 0 0 0 0
0 0 0 0 0 0 0 0 0 0 0 0 0 0 0 0 0 0 0 0 0 0 0 0 0 0 0 462 468 460 464 474 472 473 467 470 474 475 473 474 475 479 478 476 477 481 477 473 484 483 483 483 482 482 485 482 484 489 483 490 485 485 489 486 489 488 490 487 490 488 487 484 487 490 498 481 482 481 488 491 496 480 488 468 484 484 500 472 487 485 480 473 480 470 483 486 484 480 490 480 475 503 468 485 453 509 449 462 457 483 455 450 439 459 0 0 0 0 0 0
0 0 0 0 0 0 0 0 0 0 0 0 0 0 0 0 0 0 0 0 0 0 0 0 0 0 0 485 475 464 471 470 478 473 468 476 475 474 476 475 476 478 478 479 484 479 484 483 480 487 485 483 484 488 482 485 489 482 486 481 488 487 486 485 489 487 485 489 485 485 490 486 480 483 471 493 497 486 489 493 484 511 502 501 502 493 492 472 504 504 484 491 504 499 496 502 513 508 498 511 502 517 499 500 497 461 488 467 473 467 506 461 454 480 0 0 0 0 0 0
0 0 0 0 0 0 0 0 0 0 0 0 0 0 0 0 0 0 0 0 0 0 0 0 0 0 0 0 496 466 466 459 469 467 473 470 470 470 471 476 476 481 481 475 475 479 478 476 479 482 484 482 480 480 480 477 480 478 483 482 487 484 484 486 485 481 485 485 487 484 485 482 468 471 476 483 470 484 471 486 474 472 469 479 498 480 487 488 469 476 470 502 470 481 484 496 472 479 480 484 471 495 483 451 465 451 471 470 443 416 490 497 442 435 0 0 0 0 0 0
0 0 0 0 0 258 233 253 311 0 0 0 0 0 0 0 0 0 0 0 0 2335 0 0 0 0 0 0 0 507 462 467 469 468 465 472 469 467 475 474 469 473 478 471 477 478 484 478 480 477 482 482 480 484 482 482 486 485 481 480 484 485 488 487 484 489 482 482 480 484 481 486 494 479 497 499 482 488 506 499 492 496 497 473 494 503 484 499 491 487 489 497 493 488 512 474 503 511 489 502 483 509 459 477 456 484 489 489 507 470 471 524 447 465 485 0 0 0 0 0
0 0 0 0 232 231 229 230 239 290 379 0 0 0 0 0 0 0 0 0 0 2338 0 0 0 0 0 0 0 0 456 461 466 459 469 469 473 467 477 466 475 475 469 473 478 473 478 477 475 480 479 478 482 480 480 478 482 481 478 480 481 483 483 482 480 486 482 483 485 483 484 476 473 484 479 482 483 467 474 483 488 478 473 487 487 491 497 491 487 489 491 503 469 481 486 476 474 490 487 516 496 501 511 469 455 462 477 472 455 473 484 478 511 0 0 0 0 0 0 0
0 0 0 227 218 226 228 221 229 239 328 0 0 0 0 0 0 0 0 0 0 0 0 0 0 0 0 0 0 0 0 467 458 467 461 469 464 466 464 464 473 469 470 470 467 472 472 478 473 474 477 474 480 479 478 481 481 473 481 477 474 481 478 479 478 477 485 478 478 479 481 474 466 473 479 480 475 477 476 476 485 481 486 476 471 481 474 480 471 472 462 476 477 451 470 479 485 463 471 484 471 511 485 445 463 449 450 473 464 458 446 431 406 435 435 0 0 0 0 0
229 253 282 278 285 275 291 234 231 239 300 0 446 435 425 425 428 427 440 429 455 454 448 439 441 437 454 454 446 445 455 463 467 467 463 462 464 463 466 467 461 471 477 466 473 466 468 476 475 474 478 471 473 479 481 475 479 479 478 479 473 478 476 478 476 474 482 477 485 475 487 478 471 476 477 470 482 482 476 474 476 468 477 477 474 496 508 474 461 479 481 482 470 489 491 479 476 476 463 472 492 465 479 477 491 503 465 473 478 500 492 493 494 459 461 504 0 0 0 0
175 180 223 217 224 213 228 233 233 249 362 374 386 388 380 384 395 379 413 399 388 407 411 411 415 419 420 426 435 438 447 446 456 447 461 451 460 462 458 449 452 458 460 459 458 461 459 462 469 472 463 468 469 465 470 470 472 474 473 474 467 470 472 472 471 472 470 473 461 465 461 453 458 466 455 462 444 453 448 449 451 448 458 451 457 452 446 449 445 444 456 450 445 447 443 448 438 445 457 451 448 444 436 436 438 435 432 433 435 433 441 427 430 415 433 443 429 0 0 0
217 205 215 224 239 242 230 230 228 295 386 362 356 362 359 365 371 389 368 380 383 380 382 403 409 409 418 416 430 430 440 448 446 436 445 441 442 450 441 445 449 451 447 453 454 446 452 458 454 455 445 462 461 457 455 460 458 456 459 458 455 464 458 457 457 462 454 453 456 458 449 456 445 448 446 438 433 428 427 426 437 419 426 420 421 433 429 430 425 416 434 427 409 429 427 431 424 430 411 413 421 410 406 410 414 407 409 416 418 399 416 407 418 426 423 420 391 393 429 428
263 297 248 238 235 228 227 231 260 346 362 334 366 341 332 352 352 341 355 354 360 364 367 371 379 396 396 411 418 421 412 416 418 426 435 433 429 437 431 433 427 434 428 429 436 437 438 437 442 439 447 441 441 446 444 447 441 441 444 441 455 446 445 443 443 443 442 436 439 435 432 441 428 427 426 419 408 406 403 405 400 396 394 395 391 398 400 408 400 401 397 397 402 395 397 394 402 403 398 408 404 409 413 417 408 386 387 409 381 405 386 396 407 394 405 406 416 413 442 0
289 282 269 232 234 230 233 244 272 297 285 289 298 301 301 300 307 289 295 320 323 332 329 338 351 359 385 380 388 390 396 407 413 406 406 405 413 408 410 414 420 409 415 413 404 415 412 423 419 416 414 415 419 417 420 421 420 418 418 423 422 422 411 416 419 423 418 416 416 415 411 410 404 404 395 376 378 363 358 351 360 362 350 365 364 358 354 355 370 350 365 363 354 360 364 345 354 374 357 362 370 372 348 347 343 351 344 362 357 341 343 338 337 322 335 351 355 322 327 375
297 273 289 261 275 258 266 297 292 286 276 296 278 298 290 297 289 285 293 295 302 314 321 332 336 350 365 378 369 379 384 390 395 386 388 387 389 395 395 395 399 397 394 394 392 396 397 390 398 397 396 398 404 398 401 389 398 402 403 395 399 395 394 405 392 394 394 399 397 401 388 388 389 380 376 371 360 345 344 344 349 325 340 342 334 335 340 342 328 341 326 335 342 335 343 335 332 324 332 335 340 332 345 340 340 333 334 335 347 342 325 340 344 348 365 335 338 342 331 356
256 239 246 247 252 240 253 258 254 254 253 258 258 249 250 256 255 261 270 266 268 281 291 298 312 315 331 349 353 363 353 367 368 356 361 364 364 366 364 361 369 368 368 370 367 370 370 368 365 371 372 373 368 377 381 370 372 374 372 378 379 379 379 374 368 374 370 378 375 367 366 367 367 356 345 345 339 321 313 309 299 297 308 297 300 306 306 303 302 287 296 306 315 303 303 299 301 294 296 292 299 309 299 290 304 314 302 286 310 311 317 292 318 305 306 292 284 297 302 312
225 228 223 229 230 236 243 238 239 228 234 243 231 241 234 237 236 233 249 252 251 271 273 274 295 298 301 317 328 328 322 332 339 346 341 343 347 334 338 340 347 346 340 346 347 347 341 351 348 343 338 348 346 349 343 352 351 349 357 343 346 349 349 341 349 345 347 350 347 347 345 338 339 326 327 321 303 300 288 283 276 276 279 277 279 280 276 284 272 278 271 282 272 275 274 274 260 271 270 272 272 271 272 270 279 277 276 279 278 274 272 266 280 286 261 280 267 276 244 278
218 225 231 233 220 223 221 218 225 220 230 231 233 237 229 224 227 232 239 246 242 252 258 261 276 283 299 302 295 306 307 316 320 321 321 318 321 325 321 324 320 322 319 314 328 324 328 327 325 326 321 328 325 326 328 327 326 323 335 326 330 329 327 330 333 334 323 329 327 321 321 322 316 310 313 299 285 278 277 275 265 266 265 269 277 258 263 263 255 259 253 257 265 263 263 253 261 259 264 259 265 258 263 263 249 260 262 255 265 276 265 270 275 279 271 265 263 258 275 244
203 207 194 210 209 205 210 212 208 211 208 206 203 207 213 208 219 220 206 219 226 232 244 250 252 260 270 278 280 276 291 291 292 287 292 297 292 295 300 306 297 298 298 301 301 295 303 298 305 302 311 297 295 302 295 301 305 304 304 299 302 301 307 313 305 303 302 298 297 301 294 297 300 289 285 279 270 258 253 253 245 242 248 239 243 247 242 242 237 238 235 243 243 238 237 233 232 236 241 236 238 241 245 242 237 235 231 242 235 247 235 256 242 252 236 246 246 233 235 226
178 196 201 206 197 203 203 206 205 191 206 200 201 184 201 188 206 193 209 213 212 221 235 230 239 250 250 259 270 266 271 267 269 272 270 281 280 280 276 284 284 281 284 289 282 284 279 284 283 285 282 278 276 285 276 283 286 286 286 289 282 289 284 286 285 286 282 284 287 280 285 275 280 272 268 258 255 249 243 236 231 230 229 236 231 228 228 227 230 226 221 232 229 225 225 221 229 214 227 226 226 226 216 224 232 224 231 224 226 229 247 247 239 244 228 252 240 225 220 246
194 194 173 174 187 185 187 201 181 189 183 199 183 179 175 184 182 184 187 206 208 212 218 226 225 230 239 246 245 251 253 254 256 259 262 259 260 261 267 267 265 261 266 262 267 261 265 268 264 264 265 262 263 263 264 269 267 264 262 274 263 266 265 274 265 269 270 269 270 271 264 259 255 254 251 241 242 228 231 224 226 224 221 213 214 225 216 214 221 218 211 222 215 209 218 216 211 215 191 216 220 216 213 214 215 219 218 214 216 219 223 226 217 215 224 214 247 235 240 235
172 171 170 180 174 178 177 176 180 180 179 180 182 183 179 185 180 188 189 180 179 190 189 208 210 215 226 221 226 228 234 242 241 239 243 241 238 240 246 240 244 243 243 247 253 247 249 247 243 249 249 248 245 247 246 243 248 246 248 249 245 247 249 245 244 252 248 249 243 247 243 245 240 238 238 226 219 218 212 211 197 192 190 184 188 188 191 193 187 191 191 193 193 182 190 191 185 187 185 190 187 193 189 189 187 186 185 198 182 208 186 200 211 204 197 199 201 177 222 202
170 172 176 172 178 170 174 174 176 174 174 174 177 174 177 177 177 174 185 185 186 188 184 194 190 194 212 218 218 223 227 227 226 224 228 226 232 231 229 231 229 233 235 235 236 237 227 230 236 231 235 237 230 233 235 236 238 239 238 237 234 237 238 234 236 237 235 228 228 229 233 232 228 224 219 220 210 211 197 197 194 196 194 189 194 195 192 190 190 193 191 191 192 190 190 184 179 184 186 183 188 184 180 178 190 201 184 184 177 183 182 186 195 202 198 209 209 197 176 183
165 161 167 171 174 165 167 168 167 165 172 160 168 165 171 175 174 173 171 184 175 184 189 191 183 182 185 190 206 208 196 199 207 217 210 214 215 217 199 197 219 222 218 214 219 226 218 219 218 223 214 219 222 220 215 219 222 219 220 224 221 224 218 219 215 216 220 215 219 222 218 213 214 210 193 192 188 197 192 187 189 184 189 183 186 182 186 178 185 181 185 181 183 182 183 181 176 180 180 183 184 186 181 183 181 178 176 179 178 175 171 181 176 169 184 173 170 177 197 195
151 156 156 158 154 164 159 162 161 162 158 162 161 161 159 163 160 168 164 174 170 177 176 185 180 183 183 182 182 186 182 184 195 184 183 194 184 188 186 187 192 191 190 190 195 197 195 195 193 197 195 198 196 197 193 194 194 196 191 195 200 194 199 189 195 194 193 195 194 193 196 194 190 188 188 195 196 188 187 178 175 179 177 179 168 175 170 178 176 178 175 175 175 171 177 171 168 172 167 173 168 171 169 175 176 171 172 166 172 169 168 177 167 169 178 173 168 169 176 167
144 151 152 157 155 156 155 159 158 164 162 159 157 159 159 156 157 164 162 166 168 169 175 175 180 179 179 185 184 185 189 189 186 192 188 187 187 189 192 191 194 192 190 196 191 196 196 198 195 194 194 198 198 196 186 192 197 197 194 200 196 197 196 199 190 194 195 198 186 190 195 194 190 191 190 186 186 182 176 172 169 169 170 163 168 170 172 167 171 166 170 167 167 168 171 167 164 164 165 168 165 169 170 166 168 165 164 160 166 163 174 167 171 169 170 169 166 172 170 164
145 139 142 146 147 150 148 147 148 155 150 150 150 150 150 148 150 148 158 157 159 163 166 170 170 174 174 174 175 181 174 179 183 182 176 178 182 178 183 184 183 181 184 188 182 182 183 186 190 183 183 186 184 188 187 188 187 189 0 187 184 186 185 186 188 187 189 182 186 188 182 181 181 182 176 174 174 177 171 167 161 159 161 159 159 161 163 158 160 158 159 163 161 161 162 159 155 160 162 161 156 166 161 161 156 157 156 158 157 156 156 153 158 158 160 162 154 154 162 152
132 135 139 142 140 148 146 145 146 145 141 145 144 145 141 146 141 144 149 151 156 160 159 161 165 166 168 169 169 171 169 171 175 172 170 172 175 171 169 173 174 179 176 178 174 179 173 179 176 177 178 178 179 179 182 180 181 0 0 177 178 178 176 183 178 177 181 178 178 176 174 176 173 171 171 172 169 165 162 158 159 155 152 151 157 157 156 152 154 152 145 155 155 155 153 152 151 152 153 155 155 153 151 152 155 149 147 150 162 149 154 148 141 151 140 160 157 146 150 160
139 133 130 138 143 141 151 141 139 142 138 139 144 143 140 139 141 144 142 146 149 153 155 155 158 159 164 162 167 162 163 167 169 164 164 165 166 167 167 166 173 0 171 0 173 173 170 169 173 170 173 172 172 173 172 0 174 174 0 177 0 0 0 174 173 171 172 166 176 168 168 166 169 169 163 167 164 157 156 152 150 156 149 150 150 147 151 147 149 154 144 150 148 149 149 146 152 152 156 150 151 145 144 147 151 146 144 144 149 144 142 151 142 160 150 148 153 162 158 174
128 111 128 123 133 134 140 135 133 121 125 132 135 124 138 137 134 135 134 139 138 144 147 149 149 158 158 155 155 158 159 154 157 160 158 156 163 161 0 0 0 0 0 0 0 0 0 168 166 167 167 164 165 164 0 0 166 166 0 0 0 0 0 0 163 164 164 0 161 161 160 162 161 162 155 157 151 153 144 147 148 144 147 144 142 149 142 142 144 141 141 143 142 144 140 137 141 145 142 139 134 138 139 138 137 127 135 134 141 143 137 142 148 146 141 130 141 133 145 125
122 127 125 124 127 137 134 134 139 131 126 136 126 136 124 135 120 138 138 139 139 141 146 149 150 145 151 153 157 154 150 155 157 157 154 155 155 0 0 0 0 0 0 0 0 0 0 0 0 163 161 160 0 0 0 0 0 0 0 0 0 0 0 0 161 0 0 0 0 0 0 156 158 155 151 152 149 152 147 143 141 140 145 143 136 142 142 139 144 140 137 137 139 142 130 137 147 142 139 136 137 137 139 135 135 136 136 135 139 144 140 149 143 143 142 139 140 134 129 168
111 106 117 122 125 124 129 129 130 126 130 121 119 119 116 129 132 122 128 136 126 133 136 142 139 143 140 144 143 151 152 147 150 151 151 148 0 0 0 0 0 0 0 0 0 0 0 0 151 153 157 0 0 0 0 0 0 0 0 0 0 0 0 0 0 0 0 0 0 0 0 0 150 149 150 147 144 141 145 143 130 139 125 130 128 127 136 139 139 131 139 136 132 134 118 129 139 137 135 133 135 137 132 123 132 134 130 125 130 136 133 140 136 143 136 133 135 129 114 148
104 110 110 110 108 113 117 120 116 119 115 114 116 116 125 121 122 118 117 118 121 122 127 124 134 141 140 140 143 144 143 143 143 143 143 143 0 0 0 0 0 0 0 0 0 0 0 0 0 0 0 0 0 0 0 0 0 0 0 0 0 0 0 0 0 0 0 0 0 0 0 0 143 140 141 140 139 140 128 129 126 120 122 120 126 119 124 121 124 128 125 125 114 126 123 128 125 134 122 119 120 129 133 114 122 116 114 119 129 133 125 132 115 116 110 123 118 96 101 135
105 107 116 119 113 113 115 124 122 116 118 119 115 116 119 121 119 119 125 113 114 114 120 117 136 136 137 138 0 140 0 0 0 138 141 0 0 0 0 0 0 0 0 0 0 0 0 0 0 0 0 0 0 0 0 0 0 0 0 0 0 0 0 0 0 0 0 0 0 0 0 0 0 141 136 125 124 125 116 122 120 117 119 124 114 122 117 120 117 114 118 126 119 115 112 119 119 122 122 117 121 125 130 123 130 116 114 119 111 129 126 110 119 124 128 123 118 118 150 149
100 97 107 111 106 99 104 104 101 102 106 107 105 103 106 111 108 112 115 108 110 115 111 117 118 116 122 121 0 125 0 0 0 0 125 0 0 0 0 0 0 0 0 0 0 0 0 0 0 0 0 0 0 0 0 0 0 0 0 0 0 0 0 0 0 0 0 0 0 0 0 0 132 0 0 126 118 119 124 115 113 116 108 112 110 113 110 112 111 112 111 115 109 105 108 106 111 109 112 111 111 113 109 117 111 118 104 107 107 101 105 112 105 107 112 106 102 115 96 129
97 101 95 96 100 102 103 101 101 102 102 101 106 103 108 105 106 110 113 107 108 110 110 109 112 109 114 116 119 122 0 128 0 0 0 0 0 0 0 0 0 0 0 0 0 0 0 0 0 0 0 0 0 0 0 0 0 0 0 0 0 0 0 0 0 0 0 0 0 0 0 0 0 123 0 118 120 116 114 109 112 112 105 103 112 107 108 115 102 111 115 112 111 111 107 115 106 108 99 114 109 105 110 101 108 111 113 109 116 112 101 100 117 95 103 126 127 97 100 140
99 103 98 102 97 101 106 93 93 97 96 96 102 94 96 91 109 102 114 117 111 107 99 109 113 107 117 113 111 118 121 120 122 0 0 0 0 0 0 0 0 0 0 0 0 0 0 0 0 0 0 0 0 0 0 0 0 0 0 0 0 0 0 0 0 0 0 0 0 0 0 0 123 121 108 122 113 118 117 114 105 111 103 119 108 104 103 100 101 106 103 107 111 97 99 100 107 101 112 101 109 112 103 105 107 109 111 95 95 95 105 104 100 103 125 100 133 133 132 125
85 87 82 87 80 90 79 95 91 83 91 91 94 93 88 89 80 93 91 89 92 84 98 104 99 100 110 106 0 110 104 105 117 0 0 0 0 0 0 0 0 0 0 0 0 0 0 0 0 0 0 0 0 0 0 0 0 0 0 0 0 0 0 0 0 0 0 0 0 0 0 113 112 111 102 109 107 105 99 100 101 104 97 91 99 96 88 97 105 100 92 93 105 83 83 97 91 102 82 97 86 90 91 88 82 90 94 97 93 85 81 79 89 97 87 103 81 79 84 100
92 88 87 90 98 97 98 108 90 94 96 90 90 94 95 95 96 90 104 100 95 104 105 99 103 103 111 108 0 105 111 112 115 113 116 106 0 0 0 0 0 120 0 0 0 0 0 0 0 0 0 0 0 0 0 0 0 0 0 0 0 0 0 0 116 0 0 0 112 0 112 113 114 110 113 107 110 113 102 98 114 103 104 88 96 98 105 105 102 101 103 105 109 99 100 102 99 93 103 111 102 98 97 103 98 109 100 85 83 85 89 95 94 101 107 92 113 115 118 128
88 93 90 92 96 93 92 91 86 93 87 89 89 94 87 84 95 98 98 92 96 92 95 111 92 102 106 97 100 106 93 0 104 102 97 103 0 111 115 0 0 0 0 0 0 0 0 0 0 0 0 0 0 0 0 0 0 110 0 0 0 106 103 108 111 110 107 99 113 106 106 101 103 99 113 109 99 92 101 94 96 92 101 85 96 91 93 101 105 92 95 103 109 85 86 84 88 93 93 84 90 84 90 98 91 81 102 96 98 91 92 87 82 92 94 87 99 119 108 113
82 84 81 90 92 94 103 89 89 79 88 89 85 90 87 89 90 87 92 89 78 93 95 86 83 95 90 89 101 91 94 100 98 95 93 108 99 100 103 101 101 99 99 109 106 90 0 0 93 0 0 109 103 92 100 107 105 101 103 101 99 103 111 100 101 110 102 96 98 107 95 104 107 100 104 93 92 98 99 87 96 88 97 96 95 91 90 96 94 94 99 85 93 91 92 90 87 92 93 80 84 88 90 90 86 87 95 87 79 91 88 96 88 99 75 79 89 86 88 92
85 81 85 86 85 87 96 100 85 90 86 82 85 90 84 91 92 96 88 95 84 99 95 86 91 94 92 88 98 97 95 86 96 94 99 95 98 101 94 107 100 97 99 107 98 94 105 0 106 0 101 106 99 98 102 103 102 107 99 107 108 95 93 106 102 98 98 101 95 104 101 106 105 93 107 88 95 95 96 84 98 99 87 92 99 97 89 87 93 90 87 97 87 92 94 94 94 95 99 86 92 95 84 93 85 95 95 92 96 85 94 104 108 106 90 120 127 123 102 120
80 74 67 69 79 83 89 84 85 79 86 85 87 77 88 84 88 86 85 84 84 83 93 87 87 85 92 93 86 93 90 93 95 93 93 94 96 84 87 96 93 89 85 90 87 94 88 100 94 87 95 98 95 88 89 84 103 87 97 92 95 96 82 94 95 81 98 90 95 97 90 87 97 93 95 95 91 93 97 93 84 93 83 89 83 91 86 89 83 87 92 80 89 81 85 84 82 79 82 86 81 85 80 72 82 80 87 80 81 81 85 84 79 87 92 102 107 83 115 69
74 76 83 86 73 83 81 88 82 79 87 87 82 84 84 86 86 88 84 85 83 93 85 92 88 92 92 86 94 88 95 95 91 94 87 92 93 95 96 95 96 96 96 89 89 100 89 97 101 92 91 86 95 85 104 94 93 84 92 96 99 97 90 95 88 96 86 88 107 96 97 96 83 82 92 96 95 96 94 95 92 90 88 87 79 85 90 77 93 93 80 89 77 82 89 85 93 86 82 79 91 83 79 80 77 86 79 89 71 94 87 88 80 91 103 99 129 92 90 154
