0 0 0 0 0 0 0 0 0 0 0 0 0 0 0 0 0 0 0 0 0 0 0 0 0 0 0 0 0 0 0 0 0 0 0 0 0 0 0 0 0 0 0 0 0 0 0 0 0 0 0 0 0 0 0 0 0 0 0 0 0 0 0 0 0 0 0 0 0 0 0 0 0 0 0 0 0 0 0 0 0 0 0 0 0 0 0 0 0 0 0 0 0 0 0 0 0 0 0 0 0 0 0 0 0 0 0 0 0 0 0 0 0 0 0 0 0 0 0 0
0 0 0 0 0 0 0 0 0 0 0 0 0 0 0 0 0 0 0 0 0 0 0 0 0 0 0 0 0 0 0 0 0 0 0 0 0 0 0 0 0 0 0 0 0 0 0 0 0 0 0 0 0 0 0 0 0 0 0 0 0 0 0 0 0 0 0 0 0 0 0 0 0 0 0 0 0 0 0 0 0 0 0 0 0 0 0 0 0 0 0 0 0 0 0 0 0 0 0 0 0 0 0 0 0 0 0 0 0 0 0 0 0 0 0 0 0 0 0 0
0 0 0 0 0 0 0 0 0 0 0 0 0 0 0 0 0 0 0 0 0 0 0 0 0 0 0 0 0 0 0 0 0 0 0 0 0 0 0 0 0 0 0 0 0 0 0 0 0 0 0 0 0 0 0 0 0 0 0 0 0 0 0 0 0 0 0 0 0 0 0 0 0 0 0 0 0 0 0 0 0 0 0 0 0 0 0 0 0 0 0 0 0 0 0 0 0 0 0 0 0 0 0 0 0 0 0 0 0 0 0 0 0 0 0 0 0 0 0 0
0 0 0 0 0 0 0 0 0 0 0 0 0 0 0 0 0 0 0 0 0 0 0 0 0 0 0 0 0 0 0 0 0 0 0 0 0 0 0 0 0 0 0 0 0 0 0 0 0 0 0 0 0 0 0 0 0 0 0 0 0 0 0 0 0 0 0 0 0 0 0 0 0 0 0 0 0 0 0 0 0 0 0 0 0 0 0 0 0 0 0 0 0 0 0 0 0 0 0 0 0 0 0 0 0 0 0 0 0 0 0 0 0 0 0 0 0 0 0 0
0 0 0 0 0 0 0 0 0 0 0 0 0 0 0 0 0 0 0 0 0 0 0 0 0 0 0 0 0 0 0 0 0 0 0 0 0 0 0 0 0 0 0 0 0 0 0 0 0 0 0 0 0 0 0 0 0 0 0 0 0 0 0 0 0 0 0 0 0 0 0 0 0 0 0 0 0 0 0 0 0 0 0 0 0 0 0 0 0 0 0 0 0 0 0 0 0 0 0 0 0 0 0 0 0 0 0 0 0 0 0 0 0 0 0 0 0 0 0 0
0 0 0 0 0 0 0 0 0 0 0 0 0 0 0 0 0 0 0 0 0 0 0 0 0 0 0 0 0 0 0 0 0 0 0 0 0 0 0 554 518 520 504 505 535 528 525 542 513 521 501 538 517 547 542 0 0 0 0 0 0 0 0 0 0 0 0 0 0 0 0 0 0 0 0 0 0 0 0 0 0 0 0 0 0 0 0 0 0 0 0 0 0 0 0 0 0 0 0 0 0 0 0 0 0 0 0 0 0 0 0 0 0 0 0 0 0 0 0 0
0 0 0 0 0 0 0 0 0 0 0 0 0 0 0 0 0 0 0 0 0 0 0 0 0 0 0 0 0 0 0 0 0 0 0 0 0 470 501 511 508 491 500 500 507 498 505 508 503 507 507 498 499 510 513 509 521 534 513 518 0 0 0 0 0 0 0 0 0 0 0 0 0 0 0 0 0 0 0 0 0 0 0 0 0 0 0 0 0 0 0 0 0 0 0 0 0 0 0 0 0 0 0 0 0 0 0 0 0 0 0 0 0 0 0 0 0 0 0 0
0 0 0 0 0 0 0 0 0 0 0 0 0 0 0 0 0 0 0 0 0 0 0 0 0 0 0 0 0 0 0 0 0 0 0 530 508 516 500 511 508 497 496 516 483 506 519 505 518 516 518 513 511 507 512 516 511 520 516 512 521 528 527 555 568 0 0 0 0 0 0 0 0 0 0 0 0 0 0 0 0 0 0 0 0 0 0 0 0 0 0 0 0 0 0 0 0 0 0 0 0 0 0 0 0 0 0 0 0 0 0 0 0 0 0 0 0 0 0 0
0 0 0 0 0 0 0 0 0 0 0 0 0 0 0 0 0 0 0 0 0 0 0 0 0 0 0 0 0 0 0 0 0 481 510 498 503 497 495 501 513 495 505 516 493 511 503 501 501 520 498 499 518 500 509 520 512 504 505 510 502 511 499 507 518 484 507 529 557 554 512 538 598 0 639 576 618 614 575 581 0 0 0 0 0 0 0 0 0 0 0 0 0 0 0 0 0 0 0 0 0 0 0 0 0 0 0 0 0 0 0 0 0 0 0 0 0 0 0 0
0 0 0 0 0 0 0 0 0 0 0 0 0 0 0 0 0 0 0 0 0 0 0 0 0 0 0 0 0 0 0 501 496 514 488 494 492 489 504 491 509 500 486 497 494 497 496 504 506 505 496 500 518 489 490 501 488 495 499 503 513 503 497 510 495 507 499 511 501 507 548 566 580 553 561 560 556 574 565 581 548 516 548 518 527 525 479 548 543 532 525 485 587 555 583 531 555 564 536 557 572 529 511 519 556 0 527 0 0 0 0 0 0 0 0 0 0 0 0 0
0 0 0 0 0 0 0 0 0 0 0 0 0 0 0 0 0 0 0 0 0 0 0 0 0 0 0 0 0 0 524 501 502 492 499 507 492 509 511 513 493 495 511 502 504 513 502 501 496 500 502 514 500 503 500 518 511 507 499 509 500 499 509 500 503 510 514 513 512 509 536 548 582 592 557 600 587 592 562 579 593 591 586 597 580 585 569 557 600 551 560 614 614 569 580 602 608 587 568 563 557 564 580 581 564 574 541 585 567 0 0 0 0 0 0 0 0 0 0 0
0 0 0 0 0 0 0 0 0 0 0 0 0 0 0 0 0 0 0 0 0 0 0 0 0 0 0 0 449 489 487 480 485 498 493 496 501 494 489 501 499 500 496 498 499 507 494 500 503 501 497 500 491 504 499 489 495 502 505 499 495 498 500 507 506 491 494 496 496 502 499 498 500 518 544 517 527 521 528 509 508 507 483 550 509 536 522 516 492 519 525 502 515 533 509 513 528 494 488 505 511 498 519 477 550 509 514 502 507 0 0 0 0 0 0 0 0 0 0 0
0 0 0 0 0 0 0 0 0 0 0 0 0 0 0 0 0 0 0 0 0 0 0 0 0 0 0 508 514 499 497 496 501 506 501 492 503 503 512 507 507 505 496 504 503 506 497 515 513 507 503 510 513 509 504 508 502 511 507 518 504 508 506 511 513 508 507 515 508 509 502 515 536 518 547 538 573 573 546 560 532 543 563 530 560 544 535 556 529 569 575 520 571 550 549 578 568 545 533 581 546 544 584 559 520 541 570 560 518 0 0 0 0 0 0 0 0 0 0 0
0 0 0 0 0 0 0 0 0 0 0 0 0 0 0 0 0 0 0 0 0 0 0 0 0 0 488 506 502 500 502 512 504 500 503 509 493 498 501 504 501 501 505 513 506 512 505 506 500 492 503 503 513 511 505 513 505 515 521 512 515 512 513 501 515 508 516 499 510 507 512 520 542 564 587 567 578 558 553 553 580 569 584 597 581 601 585 622 578 596 563 544 593 585 585 554 573 611 579 611 577 610 592 591 569 586 580 599 570 0 0 0 0 0 0 0 0 0 0 0
0 0 0 0 0 0 0 0 0 0 0 0 0 0 0 0 0 0 0 0 0 0 0 0 0 443 488 483 498 489 501 503 495 500 496 493 494 496 499 504 507 499 500 505 497 500 506 510 502 501 506 508 496 501 497 510 491 505 505 498 510 503 514 505 503 498 503 497 503 505 510 507 505 534 542 551 559 529 567 544 549 531 591 533 518 550 560 542 520 538 592 584 562 566 558 536 553 547 523 523 522 526 538 520 554 569 511 537 463 487 534 0 0 0 0 0 0 0 0 0
0 0 0 0 0 0 0 0 0 0 0 0 0 0 0 0 0 0 0 0 0 0 0 0 0 485 493 496 499 496 494 500 500 502 496 502 500 500 504 509 505 507 504 505 497 501 521 503 509 501 501 498 507 501 504 500 510 504 515 510 511 509 512 512 508 509 509 512 508 516 510 504 507 511 546 558 538 577 544 607 541 571 579 559 560 587 576 575 578 563 565 564 572 539 551 579 552 608 586 576 572 606 592 569 544 571 558 555 584 565 620 0 616 615 0 0 0 0 0 0
0 0 0 0 0 0 0 0 0 0 0 0 0 0 0 0 0 0 0 0 0 0 0 0 475 486 495 496 495 492 499 494 484 494 492 501 494 492 501 496 491 497 491 503 493 502 494 507 491 500 507 498 505 501 501 506 503 499 498 499 507 500 506 502 503 513 510 499 500 499 504 507 513 502 524 549 559 535 522 575 525 533 508 533 537 523 544 546 543 555 553 556 527 511 533 552 563 552 561 554 534 549 568 561 566 525 538 550 545 575 533 0 0 0 0 0 0 0 0 0
0 0 0 0 0 0 0 0 0 0 0 0 0 0 0 0 0 0 0 0 0 0 0 0 478 486 489 495 492 497 491 496 493 486 483 487 485 490 493 494 495 489 498 493 487 497 506 496 496 491 501 502 502 503 506 502 505 505 501 505 503 499 503 503 498 510 500 503 495 501 493 501 492 508 512 500 508 523 525 483 519 497 492 504 495 488 496 525 523 527 522 521 521 510 532 503 506 482 508 523 511 503 522 515 508 514 497 502 514 523 0 0 0 0 0 0 0 0 0 0
0 0 0 0 0 0 0 0 0 0 0 0 0 0 0 0 0 0 0 0 0 0 0 484 498 503 489 497 482 488 499 493 491 496 497 488 496 496 497 498 492 496 501 492 500 508 502 498 506 500 502 503 507 509 507 504 511 509 502 497 510 501 512 503 496 503 505 501 508 504 505 514 502 508 494 523 520 515 546 552 524 551 547 559 553 554 531 508 515 537 545 562 529 554 506 528 533 542 551 524 538 527 544 508 519 561 537 543 510 561 524 0 0 0 0 0 0 0 0 0
0 0 0 0 0 0 0 0 0 0 0 0 0 0 0 0 0 0 0 0 0 0 0 492 486 495 481 484 476 493 487 495 492 489 483 492 483 485 491 495 484 490 489 492 500 498 491 500 494 499 502 499 488 505 494 497 506 503 507 501 500 499 500 495 501 494 497 501 499 513 499 498 500 500 504 501 483 497 489 506 520 511 511 528 490 508 488 531 509 526 510 501 498 475 465 500 493 523 523 492 500 517 526 523 517 518 530 497 463 456 507 0 0 0 0 0 0 0 0 0
0 0 0 0 0 0 0 0 0 0 0 0 0 0 0 0 0 0 0 0 0 0 466 496 489 495 491 494 490 497 499 496 499 496 486 498 497 488 489 498 493 496 495 493 509 494 502 505 499 503 495 497 507 496 506 505 509 503 506 513 512 513 507 503 496 511 506 510 506 508 502 503 511 507 507 504 541 547 540 525 500 542 528 504 558 565 539 512 558 537 527 548 571 568 560 537 542 540 526 553 568 535 529 566 546 557 554 570 505 573 544 526 520 0 0 0 0 0 0 0
0 0 0 0 0 0 0 0 0 0 0 0 0 0 0 0 0 0 0 0 0 0 500 485 484 485 492 494 501 493 484 486 492 489 499 502 485 498 499 494 507 493 494 502 499 504 507 500 506 501 499 504 503 502 502 510 505 502 509 504 507 510 497 504 511 512 506 512 508 502 504 505 511 507 512 508 523 538 549 561 544 532 520 519 508 556 541 542 536 575 559 534 509 540 547 557 551 538 577 540 581 547 545 542 574 565 562 553 561 573 538 0 0 0 0 0 0 0 0 0
0 0 0 0 0 0 0 0 0 0 0 0 0 0 0 0 0 0 0 0 0 0 477 481 485 483 487 487 488 484 482 492 492 491 486 486 498 498 491 498 498 495 496 496 494 493 498 496 495 500 492 501 498 488 499 500 508 501 500 500 503 513 509 502 504 499 503 507 507 506 507 504 511 499 508 513 500 527 523 530 524 503 506 487 506 480 541 510 510 512 520 522 553 514 535 526 517 566 509 539 534 557 507 518 520 522 534 550 528 521 534 482 573 0 0 0 0 0 0 0
0 0 0 0 0 0 0 0 0 0 0 0 0 0 0 0 0 0 0 0 0 0 489 495 494 494 487 496 496 495 495 490 491 487 486 497 493 501 496 496 494 494 496 506 499 498 498 497 496 502 499 504 501 500 504 506 508 509 500 504 506 503 510 503 511 502 509 511 498 507 515 511 507 511 510 513 507 521 548 535 534 539 532 547 528 547 543 564 531 540 567 563 530 588 540 537 565 561 574 526 561 511 567 545 551 541 548 529 537 496 585 579 541 0 0 0 0 0 0 0
0 0 0 0 0 0 0 0 0 0 0 0 0 0 0 0 0 0 0 0 0 0 488 478 484 481 485 490 491 498 488 489 492 492 490 483 491 484 490 487 492 489 510 495 491 502 494 496 497 497 505 499 497 496 505 503 510 497 498 491 498 502 502 501 502 503 505 496 497 511 499 499 508 501 504 499 503 497 504 483 505 522 511 498 542 531 556 500 536 521 511 523 549 529 499 547 516 527 530 528 528 513 534 546 554 518 547 549 505 527 513 455 566 0 0 0 0 0 0 0
0 0 0 0 0 0 0 0 0 0 0 0 0 0 0 0 0 0 0 0 0 0 478 471 481 486 485 485 481 489 495 482 485 485 497 482 489 488 500 485 490 491 491 495 493 487 487 496 501 495 499 495 499 500 499 494 499 496 499 498 500 495 503 500 504 498 500 498 496 498 498 496 499 498 506 500 507 505 510 500 484 505 499 489 499 481 496 483 502 494 512 502 473 473 497 513 513 503 520 529 521 474 497 497 479 476 477 474 478 489 467 480 442 480 0 0 0 0 0 0
0 0 0 0 0 0 0 0 0 0 0 0 0 0 0 0 0 0 0 0 0 458 478 492 487 486 493 489 495 489 481 497 490 495 488 486 496 492 494 491 491 498 491 491 500 497 500 501 495 493 498 499 497 501 505 500 501 507 503 501 502 497 501 503 506 498 502 504 502 507 509 500 506 515 501 504 505 512 516 529 510 516 528 493 523 522 502 531 515 506 524 519 508 528 516 522 535 516 516 564 531 538 541 516 547 547 515 526 504 539 488 0 0 0 0 0 0 0 0 0
0 0 0 0 0 0 0 0 0 0 0 0 0 0 0 0 0 0 0 0 0 403 472 474 482 474 489 481 487 480 480 477 483 486 483 489 482 491 489 486 492 493 491 491 495 486 490 491 494 494 497 495 499 499 496 497 499 502 498 508 497 495 498 496 505 502 491 503 499 501 499 497 505 501 505 498 495 496 484 511 490 494 493 515 501 465 490 482 509 495 489 501 479 489 489 496 485 510 478 480 478 517 478 476 453 442 477 502 495 462 495 451 0 0 0 0 0 0 0 0
0 0 0 0 0 0 0 0 0 0 0 0 0 0 0 0 0 0 0 0 0 471 471 489 490 478 489 482 477 479 482 486 486 486 485 491 490 485 489 492 490 488 495 494 489 497 501 493 495 493 493 497 498 493 501 507 497 499 500 500 502 499 501 501 501 506 505 502 504 500 496 502 496 505 507 496 505 506 518 524 534 518 507 511 513 521 512 516 522 533 507 518 524 509 489 524 510 518 529 527 544 511 491 540 523 473 530 546 517 512 491 493 502 0 531 0 0 0 0 0
0 0 0 0 0 0 0 0 0 0 0 0 0 0 0 0 0 0 0 0 0 471 475 481 488 479 483 491 483 489 481 486 487 489 486 486 489 492 489 493 495 488 495 494 501 493 493 498 492 490 498 497 499 502 499 501 499 502 506 500 500 500 495 499 500 498 506 506 496 499 500 508 511 501 508 498 519 504 517 515 499 518 515 524 526 505 535 535 528 529 513 527 506 500 522 495 503 552 553 541 545 524 533 543 558 563 514 512 533 498 548 484 536 0 0 0 0 0 0 0
0 0 0 0 0 0 0 0 0 0 0 0 0 0 0 0 0 0 0 0 0 461 483 484 471 485 474 480 477 481 484 480 482 483 487 484 486 488 485 491 493 494 489 490 494 489 492 492 493 494 497 495 500 495 498 492 492 498 500 498 501 506 498 500 497 501 508 514 504 499 498 504 499 498 500 494 493 513 531 503 490 504 511 508 510 530 515 494 528 502 501 505 504 505 509 534 479 514 494 506 511 537 492 495 484 529 498 531 498 517 546 518 516 0 0 0 0 0 0 0
0 0 0 0 0 0 0 0 0 0 0 0 0 0 0 0 0 0 0 0 0 478 469 480 481 484 480 483 487 491 488 480 487 488 491 489 483 490 493 491 490 491 491 493 495 496 498 501 494 489 490 492 497 496 496 503 498 495 499 500 499 496 502 499 502 505 500 504 508 502 501 507 503 507 497 499 499 502 517 502 511 510 504 539 539 534 517 519 523 519 523 544 530 520 517 519 514 505 527 526 534 544 560 521 565 544 549 514 562 534 565 541 556 513 0 0 0 0 0 0
0 0 0 0 0 0 0 0 0 0 0 0 0 0 0 0 0 0 0 0 0 416 472 482 468 476 475 477 480 479 485 483 486 481 482 488 483 488 486 485 491 483 486 492 493 484 489 492 491 495 493 494 493 499 496 497 493 493 497 497 499 496 499 500 502 495 495 495 497 504 504 502 503 506 497 501 498 499 498 492 489 501 491 501 520 513 514 504 510 492 520 491 511 522 487 535 502 486 482 524 526 478 507 526 496 476 498 501 500 480 539 526 507 479 0 0 0 0 0 0
0 0 0 0 0 0 0 0 0 0 0 0 0 0 0 0 0 0 0 0 0 436 473 466 471 476 480 475 475 478 480 486 477 486 482 484 482 485 483 490 484 485 485 489 489 491 490 491 490 491 491 493 488 491 495 495 496 496 496 495 496 497 499 498 493 499 500 503 494 497 496 496 498 497 495 497 497 491 501 498 489 484 489 489 480 510 482 483 489 472 485 498 479 478 467 486 476 482 482 484 487 479 466 475 484 479 490 449 495 484 470 489 463 0 0 0 0 0 0 0
0 0 0 0 0 0 0 0 0 0 0 0 0 0 0 0 0 0 0 0 0 462 475 485 474 483 470 475 486 488 478 487 481 486 485 482 486 486 487 490 486 486 486 487 494 491 489 494 494 495 496 496 501 497 498 496 498 497 495 493 499 500 498 498 500 496 501 499 502 498 500 504 498 504 495 494 499 503 498 509 510 493 509 504 516 508 519 501 498 510 489 501 506 514 517 490 511 509 494 510 499 518 564 556 524 496 477 519 524 518 515 505 512 474 0 0 0 0 0 0
0 0 0 0 0 0 0 0 0 0 0 0 0 0 0 0 0 0 0 0 0 423 471 469 474 475 477 478 474 478 475 483 480 481 481 475 483 488 489 480 482 486 486 487 485 487 485 488 492 493 492 492 491 496 494 494 494 492 494 495 490 496 496 497 492 502 500 500 494 499 497 496 500 496 496 495 490 490 500 477 493 462 480 472 484 470 478 481 479 467 474 469 509 492 485 472 467 475 463 469 470 471 506 481 468 471 445 451 461 441 460 450 421 428 0 0 0 0 0 0
0 0 0 0 0 0 0 0 0 0 0 0 0 0 0 0 0 0 0 0 0 508 471 474 481 475 484 470 477 480 475 482 483 481 478 486 487 479 486 486 484 492 488 486 487 488 488 489 487 493 489 493 494 495 497 498 492 495 490 497 493 500 501 501 501 498 499 499 492 497 497 496 502 498 497 497 500 494 492 499 492 496 507 494 493 503 500 484 494 483 506 497 469 505 480 473 484 503 507 528 490 508 492 493 506 490 472 501 491 500 480 502 509 492 0 0 0 0 0 0
0 0 0 0 0 0 0 0 0 0 0 0 0 0 0 0 0 0 0 0 0 0 481 479 476 478 472 476 476 482 484 481 484 484 484 480 485 485 488 494 490 485 486 491 485 489 492 490 496 493 492 493 490 496 499 489 491 493 494 491 499 500 498 500 498 500 497 492 498 497 499 503 495 498 495 497 497 500 506 492 492 508 505 512 500 510 504 485 508 505 518 504 508 516 518 507 509 514 485 537 502 539 532 498 531 503 496 481 511 501 536 542 512 558 0 0 0 0 0 0
0 0 0 0 0 0 0 0 0 0 0 0 0 0 0 0 0 0 0 0 0 0 500 465 471 467 476 474 469 480 479 476 479 484 477 483 483 487 489 483 488 488 483 488 486 491 486 491 491 491 490 489 494 493 490 495 496 489 496 491 494 495 490 495 495 494 497 502 494 494 502 493 497 497 496 493 491 502 487 488 517 488 514 498 506 487 504 497 505 491 515 495 483 503 509 494 503 502 494 485 479 495 483 460 483 477 469 456 485 533 479 504 508 476 0 0 0 0 0 0
0 0 0 0 0 0 0 0 0 0 0 0 0 0 0 0 0 0 0 0 0 0 537 477 469 481 479 479 478 475 479 479 485 483 483 484 484 485 480 485 488 481 487 485 488 490 490 484 495 491 488 496 489 495 495 494 499 496 494 495 496 498 492 494 494 494 501 497 497 496 497 499 498 495 490 499 500 499 523 531 512 523 524 504 529 531 503 511 543 540 544 520 504 524 522 525 540 501 496 525 527 510 566 506 552 562 514 552 504 516 540 516 499 510 508 538 0 0 0 0
0 0 0 0 0 0 0 0 0 0 0 0 0 0 0 0 0 0 0 0 0 0 596 469 476 475 478 479 475 474 474 479 474 484 483 487 483 484 482 487 485 489 489 489 489 486 493 487 490 491 487 491 495 495 490 491 491 495 495 492 495 492 502 495 497 499 495 503 499 495 497 491 491 495 497 497 498 496 490 509 488 519 513 513 508 516 506 504 504 493 499 510 520 521 518 529 509 529 489 483 530 495 504 499 512 504 483 477 488 493 483 440 485 496 462 0 0 0 0 0
0 0 0 0 0 0 0 0 0 0 0 0 0 0 0 0 0 0 0 0 0 0 693 471 463 474 470 472 470 475 478 481 479 480 473 471 478 477 483 481 482 483 485 487 487 481 487 487 492 484 488 487 491 487 488 491 494 492 494 496 498 495 495 493 490 488 493 498 495 497 497 491 496 491 497 496 488 503 490 492 495 489 484 493 493 499 478 506 483 511 484 503 507 505 493 467 514 483 480 502 480 483 462 468 482 463 480 456 444 508 437 459 442 0 0 0 0 0 0 0
0 0 0 0 0 0 0 0 0 0 0 0 0 0 0 0 0 0 0 0 0 0 0 485 475 469 474 470 475 475 484 476 473 478 479 471 477 477 484 480 483 481 488 491 483 492 489 492 489 495 490 485 487 492 491 497 493 490 499 498 494 497 495 492 495 493 493 497 495 491 496 494 494 494 490 487 490 493 493 497 503 506 502 493 487 516 495 509 497 502 489 504 523 504 505 497 506 503 517 535 525 521 491 511 499 471 486 504 469 500 479 485 445 0 0 0 0 0 0 0
0 0 0 0 0 0 0 0 0 0 0 0 0 0 0 0 0 0 0 0 0 0 0 479 466 467 469 471 466 468 480 470 479 480 473 476 477 479 477 479 483 479 487 484 488 490 486 488 490 484 488 491 490 489 493 489 491 492 490 492 492 493 494 496 496 496 493 495 491 489 492 489 491 498 492 490 489 489 491 477 502 490 498 466 490 492 499 494 482 484 497 492 491 483 494 488 491 501 482 493 521 481 493 462 451 486 468 485 480 487 486 452 447 415 0 0 0 0 0 0
0 0 0 0 0 0 0 0 0 0 0 0 0 0 0 0 0 0 0 0 0 0 0 0 476 473 468 475 473 476 472 476 473 479 478 482 480 477 474 480 479 481 482 481 489 488 483 485 491 489 489 488 491 492 494 493 489 493 491 497 492 495 493 491 497 497 492 493 500 492 495 491 493 492 494 491 491 497 515 494 491 501 503 511 493 502 514 492 499 504 504 495 503 497 505 509 494 479 490 501 489 523 510 489 515 498 462 479 515 462 491 477 511 544 496 0 0 0 0 0
0 0 0 0 0 0 0 0 0 0 0 0 0 0 0 0 0 0 0 0 0 0 0 0 509 466 472 475 472 476 482 476 477 475 476 476 477 483 482 480 481 483 481 492 486 487 493 487 485 489 493 488 490 493 491 493 496 491 493 493 491 492 492 493 493 493 499 493 494 486 494 495 494 494 493 496 496 500 512 508 492 501 495 502 524 502 516 519 501 514 539 497 551 532 562 503 516 508 507 501 511 533 509 511 493 473 472 470 519 492 533 531 524 536 456 0 0 0 0 0
0 0 0 0 0 0 0 0 0 0 0 0 0 0 0 0 0 0 0 0 0 0 0 0 0 477 470 469 469 466 472 467 479 478 476 474 477 475 474 480 479 479 480 484 486 485 489 480 487 490 491 490 489 490 487 491 494 486 490 490 493 489 498 491 495 495 489 497 493 493 494 488 494 490 492 490 482 486 488 489 485 479 485 486 482 493 485 495 485 485 498 497 487 505 524 507 505 505 481 507 508 513 489 502 455 480 490 499 491 478 501 506 502 454 0 0 0 0 0 0
0 0 0 0 0 0 0 0 0 0 0 0 0 0 0 0 0 0 0 0 0 0 0 0 0 542 474 472 469 481 470 466 474 475 477 478 476 477 481 479 484 485 482 483 480 481 481 488 484 488 489 486 492 488 490 491 491 490 488 493 485 492 495 493 493 497 494 492 493 491 495 493 493 499 490 492 483 484 500 494 499 503 503 494 494 505 499 498 501 503 500 506 500 503 522 513 513 526 514 519 508 499 529 569 464 474 498 488 489 476 509 526 505 526 515 0 0 0 0 0
0 0 0 0 0 0 0 0 0 0 0 0 0 0 0 0 0 0 0 0 0 0 0 0 0 0 481 473 464 473 467 471 465 473 471 476 473 477 473 474 473 486 480 479 483 481 484 485 482 485 488 488 487 492 490 488 492 488 492 492 487 484 485 489 491 494 495 489 494 490 495 488 489 488 488 481 480 484 495 499 474 489 494 475 483 501 489 489 486 488 505 494 504 482 473 510 485 496 508 503 495 504 496 472 474 464 485 462 461 481 443 459 485 444 0 0 0 0 0 0
0 0 0 0 0 0 0 0 0 0 0 0 0 0 0 0 0 0 0 0 0 0 0 0 0 0 0 458 471 464 465 465 470 467 471 470 473 475 475 474 479 480 476 479 475 481 478 481 485 480 483 483 485 486 488 483 486 488 484 483 485 488 490 480 485 491 488 488 489 487 491 486 486 485 480 473 473 482 479 471 478 473 502 475 478 486 473 483 470 481 481 476 479 499 476 495 492 496 475 489 469 459 456 451 456 464 475 452 477 440 474 479 461 447 430 0 0 0 0 0
0 0 0 0 0 0 0 0 0 0 0 0 0 0 0 0 0 0 0 0 0 0 0 0 0 0 0 497 467 464 465 468 468 470 470 471 477 475 473 473 475 478 475 480 482 479 481 480 482 487 484 485 483 487 483 490 489 486 483 488 482 482 490 487 488 487 488 488 490 490 488 489 483 486 485 481 481 492 491 481 481 496 489 487 507 490 503 477 496 504 526 501 493 488 508 492 483 506 519 507 476 482 498 479 499 477 494 483 471 455 456 456 454 504 0 0 0 0 0 0
0 0 0 0 0 0 0 0 0 0 0 0 0 0 0 0 0 0 0 0 0 0 0 0 0 0 0 0 491 464 465 460 465 461 471 467 473 469 475 470 472 476 478 474 475 479 477 480 476 479 480 485 484 485 483 480 482 479 484 485 482 482 483 486 479 483 486 479 484 486 479 477 469 477 476 474 458 494 477 484 470 469 476 471 471 468 484 482 467 476 468 476 475 476 456 466 473 475 479 478 474 490 456 457 452 451 452 459 437 433 426 461 474 462 458 0 0 0 0 0
0 0 0 0 0 252 237 253 320 0 0 0 0 0 0 0 0 0 0 0 0 0 0 0 0 0 0 0 0 480 459 466 468 466 464 471 473 474 468 469 473 473 482 475 479 476 476 479 481 480 481 482 479 487 485 479 483 485 483 481 482 483 484 487 483 489 480 483 477 484 481 489 473 482 480 486 480 470 492 491 484 480 487 484 480 497 472 475 470 493 491 486 480 488 490 477 492 486 500 501 464 485 510 482 485 498 458 494 483 471 446 484 483 511 476 0 0 0 0 0
0 0 0 0 252 233 240 239 239 292 390 0 0 0 0 0 0 0 0 0 0 0 0 0 0 0 0 0 0 0 455 462 468 471 475 469 471 469 478 473 476 477 474 474 479 477 480 474 481 479 478 484 482 485 482 483 483 481 486 482 485 484 485 484 487 489 486 488 482 485 480 489 480 485 480 493 482 482 484 491 486 476 497 497 492 505 496 488 476 500 495 509 488 505 517 497 517 505 503 503 496 493 497 485 480 494 508 464 518 498 510 530 559 0 0 0 0 0 0 0
0 0 0 245 225 222 226 225 235 241 317 0 0 0 0 0 0 0 0 0 0 0 0 0 0 0 0 0 0 0 0 486 471 467 461 467 467 470 462 470 467 472 472 472 473 473 470 471 478 474 469 473 478 479 478 476 481 474 475 478 484 480 476 475 482 479 482 478 482 472 474 464 477 478 481 476 468 474 467 475 489 482 487 475 480 462 472 478 484 484 487 488 489 454 477 474 463 475 481 487 493 459 477 460 467 454 465 442 479 466 460 471 470 442 473 0 0 0 0 0
255 286 308 288 319 288 266 231 240 240 349 0 447 451 445 453 455 448 431 463 471 454 462 454 469 459 462 472 443 464 462 460 470 468 463 464 467 473 472 467 468 477 475 471 484 471 480 472 477 478 478 474 471 482 481 480 479 485 479 479 472 482 483 485 481 482 485 474 480 482 481 488 473 491 473 469 495 488 475 495 481 481 485 480 493 501 494 508 485 492 503 482 495 485 471 497 495 469 497 488 498 507 513 488 475 489 503 466 535 537 462 482 519 485 499 544 0 0 0 0
211 181 180 215 227 239 257 230 231 249 358 365 386 382 392 391 384 401 395 395 423 410 407 405 434 422 435 438 436 439 445 459 455 456 448 450 456 464 456 453 460 462 458 461 462 468 466 468 477 473 469 474 477 468 475 473 474 474 473 471 472 476 468 470 468 474 467 474 469 470 481 464 464 468 461 459 458 457 446 464 468 455 457 451 454 460 455 461 458 450 456 457 440 448 462 428 432 449 448 456 442 431 446 438 438 442 435 431 441 444 422 428 434 449 436 429 470 466 0 0
212 196 211 222 219 238 229 231 231 315 391 380 362 344 364 359 380 373 368 375 383 391 393 396 409 412 411 415 431 439 439 433 442 439 442 437 440 443 442 447 447 447 443 442 451 451 449 456 448 462 455 450 457 456 458 459 458 453 457 459 459 459 453 466 460 462 456 458 455 450 452 451 451 450 429 427 432 430 430 418 433 426 419 437 411 428 422 430 428 424 415 433 427 416 419 418 419 423 418 428 391 422 413 422 415 411 406 423 418 406 402 435 402 394 411 382 398 406 415 396
301 292 244 224 233 225 227 230 253 343 349 335 344 331 341 330 350 354 345 342 346 364 369 364 389 390 390 406 411 416 422 420 420 427 427 428 428 432 430 429 432 434 430 428 435 432 433 440 440 442 442 441 440 447 441 446 442 439 444 443 439 444 442 440 437 441 440 435 444 438 429 432 428 425 425 409 412 409 406 396 405 397 394 390 403 403 394 399 397 394 383 393 400 395 410 400 403 398 397 393 397 398 410 382 394 391 384 375 368 390 378 386 400 395 387 396 375 435 398 0
288 293 258 232 233 226 232 242 270 301 308 290 293 300 294 317 307 296 288 308 331 313 334 336 342 359 377 384 397 393 387 403 400 410 405 405 401 406 412 411 406 413 412 414 413 412 415 418 416 416 413 414 416 417 415 422 419 428 419 427 417 414 425 416 415 413 419 412 413 414 411 403 403 399 395 391 376 359 365 362 355 361 347 366 369 354 358 359 348 363 367 349 347 359 362 356 341 364 360 364 356 360 359 360 358 365 344 363 351 341 352 343 354 337 357 366 365 337 356 341
283 266 290 275 254 253 256 299 276 290 270 290 272 281 288 298 293 287 288 294 305 299 313 320 324 351 363 375 364 380 382 385 389 387 375 385 390 401 394 395 393 399 390 391 389 396 395 392 396 395 398 403 397 404 397 392 396 404 399 399 397 397 402 390 391 386 389 395 397 393 388 393 392 378 369 367 356 341 342 341 347 322 332 341 342 333 325 338 329 319 328 334 336 343 332 340 318 326 324 337 336 317 336 348 346 344 327 332 345 325 333 340 333 331 344 345 330 289 318 319
262 244 260 260 258 249 249 257 264 260 250 257 255 263 263 268 269 269 278 272 273 285 292 293 306 317 332 346 349 366 364 374 365 361 366 371 375 370 364 366 372 369 366 376 375 374 380 375 364 367 379 375 377 379 382 377 372 378 378 379 381 375 379 373 370 373 374 378 375 375 369 370 367 359 346 340 340 321 318 312 308 309 314 299 306 314 301 305 296 308 308 303 301 307 311 307 293 300 308 307 311 318 323 311 306 310 316 313 303 318 311 318 321 311 295 296 312 359 327 355
224 226 229 233 234 230 248 241 242 231 253 249 243 257 235 245 250 244 250 249 257 261 272 275 291 295 317 317 325 325 331 330 338 342 343 342 343 341 338 348 348 347 348 344 344 345 345 349 349 344 342 349 347 352 347 351 345 350 358 345 353 350 349 344 348 344 346 344 351 347 341 341 338 329 331 313 309 297 290 285 277 281 279 275 278 275 275 280 273 272 279 278 281 278 274 269 268 269 278 281 279 270 275 278 267 267 269 262 280 275 281 276 285 288 286 265 258 283 299 280
225 224 232 234 236 218 231 221 234 233 230 232 218 239 230 237 227 241 236 237 246 248 256 267 276 284 296 298 300 308 313 309 320 318 316 318 321 327 330 327 327 320 320 320 332 330 326 329 326 325 324 327 329 324 332 333 332 326 328 326 332 326 334 330 327 329 334 327 322 328 318 328 323 310 309 296 281 275 271 269 269 268 264 264 259 265 258 264 254 259 256 256 269 266 264 260 266 262 265 268 269 265 272 269 266 260 266 257 264 270 281 252 272 264 283 297 273 299 292 267
201 206 201 217 218 207 210 214 214 212 209 208 206 214 214 220 211 219 223 221 229 229 243 251 251 262 265 275 280 279 288 292 294 290 299 295 293 293 302 303 297 302 295 299 305 300 302 298 306 305 311 301 302 303 295 307 306 302 311 300 306 303 309 305 308 304 306 301 302 303 296 305 298 290 281 281 269 263 254 255 248 243 241 250 250 248 241 235 238 244 239 242 247 245 244 236 235 247 246 236 234 243 249 235 238 247 241 251 244 249 256 255 250 262 259 256 248 229 233 261
177 201 196 200 199 205 196 200 199 189 202 200 186 205 185 190 207 188 208 214 219 225 229 228 238 241 252 258 266 262 267 267 266 274 272 284 277 279 280 282 279 281 284 289 286 278 280 283 285 285 281 283 282 281 278 286 287 287 283 287 282 286 285 286 288 279 285 280 283 283 282 282 271 270 265 260 254 248 239 234 230 226 226 229 229 225 222 226 228 225 226 227 222 225 228 224 220 213 224 228 229 234 226 227 224 225 225 226 225 228 229 234 240 232 227 225 222 220 234 252
175 172 190 194 186 195 183 201 180 180 189 180 181 199 186 181 184 187 186 187 203 215 219 225 227 232 239 241 247 252 256 257 257 257 264 258 257 264 269 269 261 264 263 267 264 260 266 266 260 265 262 269 270 267 266 268 264 272 264 276 266 264 263 271 270 270 271 267 264 262 263 258 259 251 254 242 237 233 224 217 222 219 221 216 215 222 201 212 213 218 212 219 218 216 213 219 211 209 208 216 218 221 210 217 215 220 218 218 225 222 224 214 232 233 212 219 244 217 214 234
172 169 172 171 177 174 176 173 177 182 178 174 178 179 179 180 178 184 187 188 183 197 188 209 211 214 218 222 228 228 235 242 240 237 239 241 239 245 247 244 243 241 245 241 249 247 244 243 243 248 246 250 246 248 241 247 251 247 244 253 251 242 250 247 239 249 249 246 245 243 244 247 238 236 232 226 222 220 199 199 194 193 187 195 192 187 196 195 195 183 190 184 188 180 187 185 182 187 185 193 188 194 188 185 185 187 182 198 199 187 188 189 202 199 199 197 209 202 202 199
166 171 172 177 176 175 171 174 176 174 182 174 174 178 174 180 177 178 178 187 186 188 182 195 207 194 212 216 218 224 224 225 223 224 225 229 224 229 226 229 224 229 233 237 233 240 229 230 237 231 235 236 233 231 231 229 234 238 237 237 232 238 236 234 230 229 232 233 234 231 234 233 229 222 220 216 198 195 186 198 194 195 197 188 192 193 185 192 192 186 191 192 191 188 191 184 181 185 186 188 184 184 179 187 185 184 190 184 176 186 177 184 181 188 206 211 199 176 199 208
168 168 172 171 169 166 168 170 169 164 170 167 165 164 171 167 174 176 174 180 174 184 179 189 182 182 190 188 211 211 209 199 209 213 212 215 216 213 213 216 215 223 219 220 219 218 220 222 223 225 217 221 217 222 223 220 220 218 221 224 223 222 221 222 219 217 214 221 218 220 222 219 215 214 188 193 198 197 196 186 191 181 187 183 190 183 183 184 186 187 185 184 186 181 186 180 181 182 183 182 182 182 185 181 181 176 181 179 178 174 174 177 174 192 198 176 173 172 203 214
149 158 163 158 160 160 161 163 163 167 154 158 158 162 165 162 159 169 168 176 169 176 181 179 182 185 184 184 193 190 184 186 186 195 195 191 188 190 189 187 192 188 191 189 196 197 196 193 193 198 199 193 194 199 198 192 194 192 196 195 202 200 198 189 194 192 193 197 195 194 200 193 196 192 198 197 192 188 186 178 178 175 174 175 173 170 176 179 174 173 174 176 170 172 171 175 168 166 167 167 168 169 169 169 172 168 172 168 167 174 169 168 174 169 176 165 175 170 164 176
147 148 154 156 157 157 156 157 158 158 161 154 155 157 160 159 161 165 154 168 168 164 177 175 179 177 179 183 182 186 189 187 189 193 189 188 187 191 192 189 192 192 192 194 196 198 190 198 197 193 194 188 199 196 198 196 188 198 199 200 199 195 199 197 195 196 194 198 194 196 197 195 194 195 190 185 187 181 178 175 178 174 167 167 167 169 169 169 170 171 174 168 172 168 174 168 170 163 164 171 166 169 174 169 166 164 160 163 166 170 166 170 172 174 178 172 166 187 175 171
142 141 141 143 148 145 148 148 149 151 147 148 146 149 153 149 152 148 155 159 160 160 167 176 167 168 172 174 175 179 177 179 185 182 178 179 181 177 181 184 184 183 186 185 182 184 184 183 186 187 184 185 188 189 189 186 188 189 0 189 188 186 184 186 189 188 192 186 184 184 184 182 182 178 177 175 175 172 170 164 164 159 162 161 159 161 165 161 165 164 158 160 161 162 159 162 155 157 159 163 158 162 156 159 152 157 154 157 156 155 154 162 159 164 153 162 153 150 166 161
137 139 139 140 138 149 147 147 145 145 146 145 141 150 142 144 142 148 147 151 156 161 155 158 164 168 169 166 169 168 175 172 174 175 172 167 175 170 173 176 176 177 176 177 174 176 175 177 177 175 180 177 179 178 180 180 180 0 0 180 180 176 176 178 176 177 177 177 176 173 172 175 173 174 171 170 169 165 160 159 159 154 152 153 156 155 157 151 152 158 152 149 160 153 153 152 151 151 153 153 157 153 152 153 149 144 144 155 158 150 147 151 152 144 148 159 159 153 142 150
137 133 132 135 143 143 148 142 144 139 141 141 142 143 143 143 145 149 146 145 148 153 155 158 161 160 161 165 165 167 160 166 169 167 164 168 165 168 166 169 171 0 169 0 170 173 170 172 170 172 174 174 174 176 174 0 173 176 0 174 173 0 0 173 171 173 174 168 175 168 167 167 169 168 163 165 165 161 159 153 152 154 151 148 153 148 152 146 153 154 146 152 149 151 147 149 152 151 153 147 145 147 142 147 145 142 145 143 147 148 146 148 150 151 151 145 149 156 156 170
130 124 129 125 134 134 140 134 133 123 130 133 125 124 135 134 132 135 135 141 142 146 151 148 149 158 157 155 158 161 158 156 160 161 156 157 162 162 0 0 0 0 0 0 0 0 0 164 164 164 165 165 167 166 0 0 0 168 0 0 0 0 0 0 165 0 165 0 161 162 160 160 159 159 153 154 153 156 148 147 146 147 145 147 142 149 138 143 144 140 143 145 143 144 137 135 142 145 142 141 136 139 142 140 135 137 132 136 137 143 140 145 147 145 146 134 140 135 127 141
122 125 127 124 127 129 132 134 139 130 127 133 126 134 123 122 119 137 135 137 141 137 145 146 152 150 152 155 151 151 153 154 155 160 153 154 153 0 0 0 0 0 0 0 0 0 0 0 159 159 161 159 0 0 0 0 0 0 0 0 0 0 0 0 0 0 0 0 0 0 0 156 159 154 152 150 152 152 148 142 141 141 143 140 140 141 142 140 145 141 137 140 137 140 137 138 142 142 139 129 135 136 139 135 132 127 133 136 140 150 135 140 139 142 137 140 138 132 138 150
114 106 119 124 129 125 119 127 130 126 130 123 120 122 120 128 134 132 132 134 134 124 137 141 141 142 143 146 147 149 151 148 151 152 152 149 0 0 0 0 0 0 0 0 0 0 0 0 152 154 156 0 0 0 0 0 0 0 0 0 0 0 0 0 0 0 0 0 0 0 0 0 152 149 150 149 146 141 143 145 130 141 127 137 129 126 137 138 137 138 138 129 131 135 119 126 141 138 133 131 130 134 134 133 128 133 133 124 135 139 141 134 141 140 142 135 133 132 121 137
103 109 111 111 108 113 117 120 111 117 115 115 114 117 126 125 119 121 118 117 122 123 125 123 135 139 142 139 142 144 145 143 144 144 143 142 0 0 0 0 0 0 0 0 0 0 0 0 145 0 0 0 0 0 0 0 0 0 0 0 0 0 0 0 0 0 0 0 0 0 0 0 142 140 140 139 139 130 129 129 126 120 121 119 124 121 126 124 121 124 124 125 112 123 125 125 127 123 121 120 118 129 132 120 128 130 126 124 128 132 127 126 114 120 122 125 112 104 125 136
110 107 115 118 115 118 117 125 116 117 113 120 112 116 114 125 119 119 124 115 119 116 122 115 131 136 137 137 0 139 0 0 0 138 141 139 0 0 0 0 0 0 0 0 0 0 0 0 0 0 0 0 0 0 0 0 0 0 0 0 0 0 0 0 0 0 0 0 0 0 0 0 0 143 125 123 126 125 122 125 120 120 122 124 114 120 116 118 118 118 119 124 118 115 115 126 119 124 116 120 114 125 131 122 120 113 127 125 126 129 132 129 126 123 134 128 118 134 143 147
102 100 110 109 105 104 106 104 99 101 107 103 104 110 103 110 110 116 115 108 114 116 110 115 118 120 120 119 122 124 0 0 0 0 128 0 0 0 0 0 0 0 0 0 0 0 0 0 0 0 0 0 0 0 0 0 0 0 0 0 0 0 0 0 0 0 0 0 0 0 0 0 131 0 0 127 121 117 121 115 115 116 111 113 116 117 109 112 113 115 113 115 108 111 107 107 110 112 114 109 114 109 112 112 110 118 109 104 104 107 105 112 99 123 117 104 102 114 108 135
98 101 91 93 100 102 104 101 101 102 100 102 102 106 106 104 105 111 116 105 109 108 105 108 114 107 118 116 120 122 0 125 0 0 0 0 0 0 0 0 0 0 0 0 0 0 0 0 0 0 0 0 0 0 0 0 0 0 0 0 0 0 0 0 0 0 0 0 0 0 0 0 0 119 0 115 121 118 115 109 111 109 107 102 111 108 106 115 105 107 110 111 111 114 105 112 104 107 102 117 109 103 110 105 110 111 109 107 115 112 103 109 107 98 100 112 122 98 110 120
98 103 102 103 97 97 100 91 93 94 97 99 102 97 100 94 106 104 108 113 112 106 100 109 113 107 111 116 112 121 120 122 123 0 0 0 0 0 0 0 0 0 0 0 0 0 0 0 0 0 0 0 0 0 0 0 0 0 0 0 0 0 0 0 0 0 0 0 0 0 0 0 120 121 108 122 114 116 117 116 105 110 101 118 108 107 103 102 105 103 103 109 111 96 95 101 108 101 112 102 106 111 112 103 104 107 105 90 106 104 99 98 110 101 106 95 130 129 110 129
86 85 82 84 82 81 80 95 90 83 88 91 96 93 90 86 78 95 89 87 91 85 97 105 98 100 112 106 0 115 103 105 117 0 0 0 0 0 0 0 0 0 0 0 0 0 0 0 0 0 0 0 0 0 0 0 0 0 0 0 0 0 0 0 0 0 0 0 0 0 0 114 109 109 102 111 107 106 104 98 101 102 96 93 100 97 88 99 104 101 90 95 102 81 84 98 92 101 89 97 86 92 90 88 83 90 92 88 96 87 86 85 83 87 94 83 89 79 87 102
94 84 88 88 101 96 96 106 92 92 98 97 93 90 94 98 96 90 99 96 96 105 103 102 102 103 110 108 0 106 110 112 116 111 120 108 0 0 115 0 0 121 0 0 0 0 0 0 0 0 0 0 0 0 0 0 0 0 0 0 0 0 0 114 110 0 0 0 108 114 108 111 112 113 113 107 107 112 101 99 107 101 104 87 95 100 106 103 100 104 107 105 108 100 100 104 101 97 97 110 106 98 94 100 93 104 102 91 88 91 91 95 97 100 100 93 97 105 132 125
84 90 92 89 94 97 91 92 87 95 85 88 86 93 87 85 94 101 97 95 100 94 99 113 91 100 103 101 105 106 96 0 105 103 98 100 0 116 114 0 108 0 0 0 0 0 0 0 0 0 0 0 0 0 0 0 0 110 0 0 112 106 108 109 112 112 107 100 114 105 110 106 101 103 111 107 102 93 102 96 96 94 101 87 98 92 93 109 104 95 96 102 109 86 85 86 88 91 94 89 92 86 86 95 89 87 95 94 100 87 96 92 90 98 99 102 131 139 131 132
84 85 82 86 91 93 103 87 88 80 89 87 85 92 91 88 90 89 92 86 78 94 92 84 88 95 94 91 102 88 95 99 99 96 93 110 101 102 103 102 0 96 98 108 107 91 0 0 96 0 0 103 106 95 103 106 108 104 108 105 102 107 108 100 100 108 101 98 99 106 97 108 105 100 103 94 94 93 96 91 94 89 94 94 88 91 89 93 93 92 101 94 94 93 92 91 94 90 92 83 86 86 95 93 87 80 91 85 86 92 86 103 89 93 80 101 102 102 115 126
84 81 85 83 88 83 97 102 86 83 85 83 82 89 81 90 91 95 92 96 85 96 92 94 92 96 93 91 99 100 95 86 96 97 100 97 100 101 92 108 109 97 98 106 100 95 103 0 104 103 99 105 101 97 103 104 104 108 98 106 106 95 97 106 103 98 97 102 96 104 98 104 103 97 102 88 93 94 97 86 101 100 87 93 98 95 90 86 95 92 88 100 88 92 92 83 93 93 97 91 91 97 82 97 89 99 92 97 90 82 94 91 112 124 112 136 127 130 157 153
82 73 71 70 80 83 88 87 86 81 86 82 84 92 87 84 87 85 86 82 91 85 93 86 84 85 93 95 93 92 91 92 95 90 94 94 98 87 86 96 92 89 82 89 96 94 89 100 96 86 93 85 94 89 89 81 104 85 97 94 92 99 80 95 96 80 97 92 95 95 94 84 90 94 86 96 91 93 91 94 85 94 83 89 87 91 91 89 87 87 95 78 90 81 85 84 80 77 77 92 82 86 81 70 81 78 84 84 77 75 70 88 85 95 85 105 126 87 88 69
73 74 80 86 72 85 81 89 84 79 84 90 79 83 84 86 86 88 83 87 85 91 83 92 85 94 92 84 94 90 85 96 92 95 86 90 96 96 88 95 94 82 94 91 89 99 88 88 98 93 95 86 97 85 100 98 90 84 86 93 99 84 92 94 89 94 89 94 106 93 97 92 83 97 93 92 94 84 96 92 93 89 88 86 79 87 86 81 90 92 77 90 76 81 88 81 89 83 83 78 87 78 78 77 77 80 78 82 85 90 96 88 88 103 100 88 102 87 80 191
