0 0 0 0 0 0 0 0 0 0 0 0 0 0 0 0 0 0 0 0 0 0 0 0 0 0 0 0 0 0 0 0 0 0 0 0 0 0 0 0 0 0 0 0 0 0 0 0 0 0 0 0 0 0 0 0 0 0 0 0 0 0 0 0 0 0 0 0 0 0 0 0 0 0 0 0 0 0 0 0 0 0 0 0 0 0 0 0 0 0 0 0 0 0 0 0 0 0 0 0 0 0 0 0 0 0 0 0 0 0 0 0 0 0 0 0 0 0 0 0
0 0 0 0 0 0 0 0 0 0 0 0 0 0 0 0 0 0 0 0 0 0 0 0 0 0 0 0 0 0 0 0 0 0 0 0 0 0 0 0 0 0 0 0 0 0 0 0 0 0 0 0 0 0 0 0 0 0 0 0 0 0 0 0 0 0 0 0 0 0 0 0 0 0 0 0 0 0 0 0 0 0 0 0 0 0 0 0 0 0 0 0 0 0 0 0 0 0 0 0 0 0 0 0 0 0 0 0 0 0 0 0 0 0 0 0 0 0 0 0
0 0 0 0 0 0 0 0 0 0 0 0 0 0 0 0 0 0 0 0 0 0 0 0 0 0 0 0 0 0 0 0 0 0 0 0 0 0 0 0 0 0 0 0 0 0 0 0 0 0 0 0 0 0 0 0 0 0 0 0 0 0 0 0 0 0 0 0 0 0 0 0 0 0 0 0 0 0 0 0 0 0 0 0 0 0 0 0 0 0 0 0 0 0 0 0 0 0 0 0 0 0 0 0 0 0 0 0 0 0 0 0 0 0 0 0 0 0 0 0
0 0 0 0 0 0 0 0 0 0 0 0 0 0 0 0 0 0 0 0 0 0 0 0 0 0 0 0 0 0 0 0 0 0 0 0 0 0 0 0 0 0 0 0 0 0 0 0 0 0 0 0 0 0 0 0 0 0 0 0 0 0 0 0 0 0 0 0 0 0 0 0 0 0 0 0 0 0 0 0 0 0 0 0 0 0 0 0 0 0 0 0 0 0 0 0 0 0 0 0 0 0 0 0 0 0 0 0 0 0 0 0 0 0 0 0 0 0 0 0
0 0 0 0 0 0 0 0 0 0 0 0 0 0 0 0 0 0 0 0 0 0 0 0 0 0 0 0 0 0 0 0 0 0 0 0 0 0 0 0 0 0 0 0 0 0 0 0 0 0 0 0 0 0 0 0 0 0 0 0 0 0 0 0 0 0 0 0 0 0 0 0 0 0 0 0 0 0 0 0 0 0 0 0 0 0 0 0 0 0 0 0 0 0 0 0 0 0 0 0 0 0 0 0 0 0 0 0 0 0 0 0 0 0 0 0 0 0 0 0
0 0 0 0 0 0 0 0 0 0 0 0 0 0 0 0 0 0 0 0 0 0 0 0 0 0 0 0 0 0 0 0 0 0 0 0 0 0 0 491 500 493 500 486 525 488 513 487 503 483 498 508 466 490 470 0 0 0 0 0 0 0 0 0 0 0 0 0 0 0 0 0 0 0 0 0 0 0 0 0 0 0 0 0 0 0 0 0 0 0 0 0 0 0 0 0 0 0 0 0 0 0 0 0 0 0 0 0 0 0 0 0 0 0 0 0 0 0 0 0
0 0 0 0 0 0 0 0 0 0 0 0 0 0 0 0 0 0 0 0 0 0 0 0 0 0 0 0 0 0 0 0 0 0 0 0 0 514 507 501 513 506 498 498 515 503 512 510 512 521 500 514 526 508 502 511 506 521 528 516 0 0 0 0 0 0 0 0 0 0 0 0 0 0 0 0 0 0 0 0 0 0 0 0 0 0 0 0 0 0 0 0 0 0 0 0 0 0 0 0 0 0 0 0 0 0 0 0 0 0 0 0 0 0 0 0 0 0 0 0
0 0 0 0 0 0 0 0 0 0 0 0 0 0 0 0 0 0 0 0 0 0 0 0 0 0 0 0 0 0 0 0 0 0 0 521 513 535 502 502 517 498 491 508 502 510 501 501 517 512 504 504 513 501 527 520 517 518 519 511 514 533 533 487 558 0 0 0 0 0 0 0 0 0 0 0 0 0 0 0 0 0 0 0 0 0 0 0 0 0 0 0 0 0 0 0 0 0 0 0 0 0 0 0 0 0 0 0 0 0 0 0 0 0 0 0 0 0 0 0
0 0 0 0 0 0 0 0 0 0 0 0 0 0 0 0 0 0 0 0 0 0 0 0 0 0 0 0 0 0 0 0 0 512 492 503 495 500 503 497 503 502 501 507 500 502 494 502 507 510 498 494 522 507 503 514 505 494 514 503 516 497 501 500 500 500 492 535 525 552 565 584 565 529 517 539 545 528 593 545 0 0 0 0 0 0 0 0 0 0 0 0 0 0 0 0 0 0 0 0 0 0 0 0 0 0 0 0 0 0 0 0 0 0 0 0 0 0 0 0
0 0 0 0 0 0 0 0 0 0 0 0 0 0 0 0 0 0 0 0 0 0 0 0 0 0 0 0 0 0 0 571 514 523 508 508 497 504 506 498 498 500 496 507 506 503 500 523 519 509 515 509 506 504 500 514 509 512 516 515 526 508 519 517 495 516 525 530 550 552 586 611 585 599 604 581 607 588 603 594 587 584 596 611 644 639 659 639 579 630 638 616 610 630 616 611 633 627 662 599 598 628 624 579 0 605 0 0 0 0 0 0 0 0 0 0 0 0 0 0
0 0 0 0 0 0 0 0 0 0 0 0 0 0 0 0 0 0 0 0 0 0 0 0 0 0 0 0 0 0 471 512 513 491 505 493 506 488 502 509 506 495 499 503 502 505 510 496 494 499 504 493 510 502 503 513 495 506 503 511 508 505 501 501 510 509 515 501 505 506 530 558 570 551 546 538 542 565 547 570 584 569 591 542 605 537 565 563 567 543 582 559 570 579 590 546 570 567 559 560 496 541 565 543 536 583 575 0 0 0 0 0 0 0 0 0 0 0 0 0
0 0 0 0 0 0 0 0 0 0 0 0 0 0 0 0 0 0 0 0 0 0 0 0 0 0 0 0 463 482 508 487 489 494 494 481 488 493 501 510 495 499 499 500 513 504 506 496 494 502 501 504 502 496 498 501 497 504 502 502 502 502 505 501 504 508 501 492 502 504 505 535 561 528 546 545 513 517 529 546 558 551 547 568 571 546 540 525 561 544 550 578 578 544 524 580 523 516 533 548 528 524 539 564 512 533 537 539 549 0 0 0 0 0 0 0 0 0 0 0
0 0 0 0 0 0 0 0 0 0 0 0 0 0 0 0 0 0 0 0 0 0 0 0 0 0 0 509 483 502 506 497 491 501 498 507 498 501 510 498 505 496 502 498 502 503 505 505 512 504 503 506 502 504 513 512 501 509 509 514 512 500 507 519 504 516 510 514 519 508 517 501 551 572 561 550 570 543 558 570 510 523 563 589 594 545 554 576 630 554 580 567 568 592 567 570 556 544 531 580 568 614 559 532 573 546 557 544 0 0 0 0 0 0 0 0 0 0 0 0
0 0 0 0 0 0 0 0 0 0 0 0 0 0 0 0 0 0 0 0 0 0 0 0 0 0 480 484 487 501 494 488 496 487 491 496 502 490 507 497 499 501 498 508 494 512 501 487 499 492 504 504 506 504 500 503 504 516 504 505 493 501 505 511 508 508 509 501 504 498 513 509 526 527 534 534 528 524 545 527 540 512 542 542 554 529 527 557 540 513 562 526 537 544 551 529 546 498 503 555 556 509 552 519 509 529 535 529 455 0 0 0 0 0 0 0 0 0 0 0
0 0 0 0 0 0 0 0 0 0 0 0 0 0 0 0 0 0 0 0 0 0 0 0 0 473 500 490 508 498 504 500 493 491 485 497 501 496 506 496 503 510 490 511 508 495 507 508 503 506 502 510 498 500 505 505 494 506 500 503 507 515 512 514 504 499 499 503 522 515 518 515 499 556 556 542 565 584 578 562 551 561 564 564 558 553 543 544 543 544 548 564 559 581 565 566 550 536 548 530 553 565 558 548 566 564 535 551 527 520 556 0 0 0 0 0 0 0 0 0
0 0 0 0 0 0 0 0 0 0 0 0 0 0 0 0 0 0 0 0 0 0 0 0 0 501 489 491 499 490 502 496 494 502 491 492 492 491 503 506 500 500 503 495 502 499 499 507 497 508 503 508 506 509 504 503 505 494 506 507 510 508 507 515 505 508 513 511 511 510 516 514 508 517 572 549 520 555 569 566 550 564 561 548 506 527 545 552 537 540 540 563 549 554 570 551 544 534 574 560 567 527 564 566 549 543 566 563 492 543 0 0 0 537 0 0 0 0 0 0
0 0 0 0 0 0 0 0 0 0 0 0 0 0 0 0 0 0 0 0 0 0 0 0 493 487 491 502 488 483 496 493 496 494 494 490 500 496 489 503 504 498 489 501 506 505 492 504 501 504 496 502 504 504 497 506 497 499 507 507 507 503 506 513 497 503 499 504 499 511 506 508 510 505 538 543 539 531 529 552 557 531 549 529 531 530 506 559 581 531 538 545 533 524 516 547 526 528 541 552 500 536 527 548 534 548 547 521 539 505 515 0 0 0 0 0 0 0 0 0
0 0 0 0 0 0 0 0 0 0 0 0 0 0 0 0 0 0 0 0 0 0 0 0 504 494 497 492 506 494 495 492 500 482 492 499 501 495 493 509 498 496 506 492 493 500 510 503 513 496 505 500 501 502 501 503 507 502 508 499 505 510 512 516 505 501 509 505 511 519 501 506 507 517 521 539 551 528 567 540 573 566 573 553 577 547 543 584 563 548 565 586 575 564 547 539 566 575 567 541 583 540 571 542 546 555 546 557 550 564 574 0 0 0 0 0 0 0 0 0
0 0 0 0 0 0 0 0 0 0 0 0 0 0 0 0 0 0 0 0 0 0 0 489 486 498 490 493 476 489 488 502 497 489 492 487 491 493 500 502 494 499 499 490 498 502 501 505 503 509 497 495 504 502 508 507 506 505 505 498 507 498 503 507 499 501 508 512 505 505 507 507 509 491 510 499 514 537 530 517 503 549 538 527 527 536 537 518 541 508 554 522 533 543 520 524 523 547 531 503 572 557 539 508 554 559 527 533 535 518 488 0 0 0 0 0 0 0 0 0
0 0 0 0 0 0 0 0 0 0 0 0 0 0 0 0 0 0 0 0 0 0 0 488 488 492 486 491 494 490 492 489 492 497 483 493 483 489 490 498 483 499 492 496 499 500 499 503 498 500 507 498 493 499 498 501 497 502 503 499 497 501 500 499 499 499 503 503 503 516 504 498 506 508 507 507 521 525 506 517 519 517 502 539 522 526 536 511 534 517 516 521 507 523 506 480 552 543 497 533 552 511 571 540 520 528 511 519 443 510 507 478 0 0 0 0 0 0 0 0
0 0 0 0 0 0 0 0 0 0 0 0 0 0 0 0 0 0 0 0 0 0 454 486 495 493 488 494 498 488 494 498 496 491 488 496 497 496 496 491 498 499 503 504 496 495 500 497 505 507 500 493 492 500 500 500 505 499 503 506 501 508 507 503 502 503 508 507 509 502 513 508 510 508 507 507 533 507 534 546 542 535 527 512 537 563 524 535 558 545 507 551 518 553 561 551 522 536 552 546 527 547 510 540 559 552 565 552 572 551 562 0 544 0 0 0 0 0 0 0
0 0 0 0 0 0 0 0 0 0 0 0 0 0 0 0 0 0 0 0 0 0 458 488 481 491 493 490 495 491 490 494 488 483 493 486 491 490 486 488 496 499 497 510 498 494 499 495 501 497 491 502 498 500 498 502 503 502 509 503 501 507 501 500 497 510 501 503 510 500 505 510 515 502 506 509 506 524 520 508 514 528 535 495 504 528 494 493 505 509 528 536 527 527 509 487 523 502 516 500 508 516 503 508 498 524 511 512 522 508 531 514 0 0 0 0 0 0 0 0
0 0 0 0 0 0 0 0 0 0 0 0 0 0 0 0 0 0 0 0 0 0 486 478 493 486 488 498 489 490 492 478 494 482 488 489 484 496 494 492 499 504 496 500 495 498 502 496 499 495 495 504 503 496 496 496 504 501 508 499 507 513 502 501 498 504 505 505 507 502 506 503 513 506 508 510 504 537 527 524 526 531 526 523 534 544 542 525 519 535 550 554 546 552 548 534 514 529 528 545 521 537 549 543 511 527 513 537 523 505 552 537 551 575 0 0 0 0 0 0
0 0 0 0 0 0 0 0 0 0 0 0 0 0 0 0 0 0 0 0 0 0 497 496 495 484 485 503 481 486 489 495 490 484 490 480 481 490 497 488 500 497 495 495 500 497 497 501 497 504 501 510 507 497 502 497 502 505 502 500 504 507 501 493 497 502 509 501 506 503 513 513 508 512 513 510 507 529 538 532 539 530 529 527 508 521 523 499 529 557 529 549 561 554 589 567 524 547 535 528 548 515 560 567 549 564 534 533 506 560 531 544 588 0 0 0 0 0 0 0
0 0 0 0 0 0 0 0 0 0 0 0 0 0 0 0 0 0 0 0 0 0 488 488 486 487 497 486 485 495 483 489 490 485 487 493 486 490 485 493 500 497 502 496 499 492 492 494 498 496 498 502 494 495 500 503 503 500 497 493 503 504 502 497 496 505 492 500 504 506 503 501 510 501 513 507 505 511 492 531 504 497 494 535 524 503 515 529 489 512 495 514 486 495 502 522 516 491 510 515 483 492 512 530 502 515 548 469 513 465 482 483 464 0 0 0 0 0 0 0
0 0 0 0 0 0 0 0 0 0 0 0 0 0 0 0 0 0 0 0 0 0 482 477 492 488 492 489 485 486 493 492 490 484 493 481 491 486 495 495 492 495 496 494 498 493 493 502 497 501 511 494 497 500 507 502 503 503 499 501 508 502 500 511 502 507 508 504 496 503 504 510 507 510 508 509 513 520 531 533 531 512 532 509 526 541 545 532 533 527 534 570 558 552 533 545 569 569 523 537 531 523 535 564 516 539 553 526 534 576 568 545 575 0 0 0 0 0 0 0
0 0 0 0 0 0 0 0 0 0 0 0 0 0 0 0 0 0 0 0 0 473 477 487 492 485 483 482 502 481 487 497 488 493 497 485 492 491 496 496 486 493 492 496 490 494 492 496 497 493 496 496 497 501 503 498 498 495 508 495 495 500 504 500 502 499 498 493 500 502 496 499 505 506 505 507 498 501 499 511 514 508 506 495 484 513 480 516 522 511 482 512 499 503 533 514 502 471 563 517 505 528 512 495 518 539 524 497 499 499 505 0 478 0 0 0 0 0 0 0
0 0 0 0 0 0 0 0 0 0 0 0 0 0 0 0 0 0 0 0 0 470 477 474 490 478 487 479 480 483 483 487 498 486 488 487 486 488 489 488 494 493 488 492 492 494 486 491 503 492 495 499 499 498 501 499 503 494 501 504 497 497 497 496 502 499 498 501 496 500 496 497 496 500 505 498 502 514 488 506 508 499 496 500 513 501 517 484 475 493 488 479 516 527 517 497 502 502 499 485 499 490 496 505 472 482 485 481 531 500 503 498 0 0 0 0 0 0 0 0
0 0 0 0 0 0 0 0 0 0 0 0 0 0 0 0 0 0 0 0 0 446 474 481 487 476 485 487 482 483 483 491 481 490 488 488 486 487 491 495 491 491 493 494 493 492 496 495 497 498 495 498 495 494 497 500 495 493 501 495 501 505 503 502 497 505 507 501 503 505 505 501 502 503 510 503 506 499 504 506 523 524 500 535 531 516 509 526 534 510 528 535 517 511 515 486 493 517 539 535 513 530 513 544 537 549 537 524 545 524 512 583 522 0 535 0 0 0 0 0
0 0 0 0 0 0 0 0 0 0 0 0 0 0 0 0 0 0 0 0 0 445 469 473 486 480 479 483 478 477 475 486 482 491 491 488 490 486 486 494 493 489 491 492 491 491 488 499 494 494 495 499 501 500 501 496 497 497 500 497 494 498 502 501 497 499 503 506 501 502 502 503 509 502 504 501 497 510 499 517 500 491 510 499 508 487 495 488 514 493 520 508 494 509 493 502 487 512 519 491 485 517 493 517 482 517 551 508 495 512 467 531 571 0 0 0 0 0 0 0
0 0 0 0 0 0 0 0 0 0 0 0 0 0 0 0 0 0 0 0 0 470 488 482 479 491 482 480 482 480 485 477 489 490 483 490 482 487 488 489 489 492 492 493 493 486 488 489 499 494 494 506 500 496 496 498 490 499 498 496 501 497 498 495 502 503 503 499 503 501 503 506 496 506 499 501 496 508 511 520 500 507 518 528 537 522 544 518 507 534 502 508 480 500 517 519 479 511 487 505 541 513 497 527 498 501 509 490 486 527 504 512 514 0 0 0 0 0 0 0
0 0 0 0 0 0 0 0 0 0 0 0 0 0 0 0 0 0 0 0 0 486 480 474 482 476 481 483 482 489 490 488 486 483 483 486 484 491 497 486 486 493 487 491 496 495 494 493 497 497 494 496 500 497 497 494 492 494 503 499 495 502 496 500 502 501 501 498 498 505 502 503 499 507 496 497 505 505 501 503 497 513 519 504 527 521 498 532 506 492 504 520 506 508 514 533 520 506 497 529 511 532 508 519 529 519 509 518 545 526 516 492 588 511 0 0 0 0 0 0
0 0 0 0 0 0 0 0 0 0 0 0 0 0 0 0 0 0 0 0 0 437 472 480 477 481 469 478 479 474 482 481 480 480 483 482 483 486 486 488 494 490 483 488 488 492 486 489 490 491 495 493 493 498 496 499 494 499 499 497 504 495 500 498 502 496 500 494 503 502 502 498 503 496 495 502 502 499 498 514 503 493 516 496 488 516 499 510 500 513 502 489 504 505 472 510 506 510 474 513 494 509 512 473 505 485 498 473 501 507 511 510 490 482 0 0 0 0 0 0
0 0 0 0 0 0 0 0 0 0 0 0 0 0 0 0 0 0 0 0 0 486 480 473 474 478 478 479 476 483 478 486 481 486 485 485 489 486 483 485 489 486 490 488 489 499 492 491 491 491 491 493 495 498 495 501 496 497 494 499 499 496 501 502 497 500 502 503 496 503 502 497 493 496 492 500 503 505 493 519 504 509 486 514 517 510 508 513 507 508 514 500 532 530 508 495 505 512 496 531 508 526 519 497 535 517 543 511 556 541 550 536 533 0 0 0 0 0 0 0
0 0 0 0 0 0 0 0 0 0 0 0 0 0 0 0 0 0 0 0 0 438 469 475 476 476 480 478 479 480 478 486 483 478 478 485 485 484 485 485 487 484 486 490 491 492 491 489 494 492 492 494 494 493 493 492 495 494 491 493 495 494 495 499 498 492 502 498 495 496 496 498 499 501 505 498 495 495 487 505 507 475 490 494 498 496 490 495 487 488 473 493 476 489 489 490 478 480 479 504 483 475 486 511 482 495 506 512 476 482 480 489 490 497 0 0 0 0 0 0
0 0 0 0 0 0 0 0 0 0 0 0 0 0 0 0 0 0 0 0 0 437 474 470 470 475 474 474 478 478 474 484 480 486 484 480 487 483 485 489 483 488 487 491 484 486 488 487 484 492 492 494 491 490 499 499 486 492 501 493 494 498 499 493 498 503 501 497 498 496 493 495 497 495 493 497 502 492 505 511 489 512 509 488 482 498 525 484 484 520 518 484 495 512 505 493 497 498 474 489 488 507 494 497 492 462 491 456 458 495 478 514 475 484 0 0 0 0 0 0
0 0 0 0 0 0 0 0 0 0 0 0 0 0 0 0 0 0 0 0 0 489 486 472 474 474 483 474 480 481 478 484 481 486 479 483 482 481 480 484 488 484 493 487 487 491 490 490 491 491 495 499 492 494 496 501 495 495 496 495 501 501 500 505 499 502 495 497 497 497 501 498 497 498 504 496 498 490 497 487 507 512 500 510 509 490 489 484 508 489 498 500 510 499 502 490 493 520 523 506 497 501 517 497 524 487 498 514 511 568 547 548 526 524 0 0 0 0 0 0
0 0 0 0 0 0 0 0 0 0 0 0 0 0 0 0 0 0 0 0 0 0 474 473 473 474 470 476 477 476 476 482 481 479 482 477 481 476 484 481 487 486 488 480 480 491 491 493 500 490 489 495 493 492 495 494 490 493 494 496 498 497 494 495 499 499 494 495 496 492 494 497 495 495 496 499 493 490 490 479 502 490 496 487 499 486 493 487 481 479 511 508 470 503 475 477 472 487 470 471 486 483 508 475 504 472 473 479 503 474 464 458 452 447 0 0 0 0 0 0
0 0 0 0 0 0 0 0 0 0 0 0 0 0 0 0 0 0 0 0 0 0 494 475 471 471 476 477 475 479 477 481 479 485 484 481 478 485 492 485 483 486 485 484 490 487 488 489 490 494 489 492 495 489 494 491 494 495 492 499 496 496 496 496 495 495 499 498 493 498 501 495 500 498 498 497 497 507 502 508 521 516 517 500 518 505 540 523 533 514 525 519 501 547 510 536 512 495 521 512 521 526 488 509 503 521 499 531 520 504 480 504 537 582 0 0 0 0 0 0
0 0 0 0 0 0 0 0 0 0 0 0 0 0 0 0 0 0 0 0 0 0 532 480 473 480 479 472 472 472 480 476 481 480 487 487 483 487 483 484 488 481 487 487 485 488 491 485 491 495 492 495 495 493 492 497 489 496 491 494 497 494 495 496 501 501 496 497 492 497 500 500 495 494 494 493 491 491 509 491 510 514 521 510 524 528 511 522 513 511 552 495 528 516 505 513 501 503 527 520 512 490 502 491 533 529 525 508 472 485 544 539 478 511 507 556 0 0 0 0
0 0 0 0 0 0 0 0 0 0 0 0 0 0 0 0 0 0 0 0 0 0 572 473 474 471 473 478 476 476 472 478 477 480 482 482 478 485 481 486 487 487 485 488 488 487 491 487 494 485 488 491 492 493 496 493 489 490 490 493 491 496 495 495 498 495 499 496 494 496 491 495 493 496 491 492 492 486 491 482 507 491 500 509 514 508 498 497 511 510 504 490 515 509 506 482 474 508 509 483 498 508 507 488 493 451 499 482 499 484 452 483 465 487 443 483 0 0 0 0
0 0 0 0 0 0 0 0 0 0 0 0 0 0 0 0 0 0 0 0 0 0 770 488 469 473 477 475 472 473 473 482 481 484 477 478 479 483 481 485 491 488 485 488 491 485 486 489 494 491 495 488 497 487 495 495 490 494 498 493 495 498 491 496 494 491 495 497 500 494 495 492 496 493 494 500 495 495 508 502 514 515 495 493 519 513 489 507 500 513 496 498 504 520 513 523 514 523 525 552 517 544 533 514 538 496 517 496 516 500 549 509 518 0 554 546 0 0 0 0
0 0 0 0 0 0 0 0 0 0 0 0 0 0 0 0 0 0 0 0 0 0 0 476 471 466 470 473 473 474 473 477 478 476 476 478 474 478 486 477 483 481 489 488 486 484 490 490 484 489 490 488 490 491 489 489 494 489 495 491 492 497 490 495 488 493 495 497 494 491 496 494 493 489 492 492 486 484 483 482 487 491 477 484 486 490 497 499 482 478 488 508 495 514 496 502 471 499 495 483 525 453 519 476 459 460 473 461 486 473 493 471 454 0 0 0 0 0 0 0
0 0 0 0 0 0 0 0 0 0 0 0 0 0 0 0 0 0 0 0 0 0 0 513 468 474 471 472 472 475 474 476 473 471 473 482 481 482 475 484 484 479 488 482 486 490 489 485 486 484 492 493 490 484 490 490 492 488 488 488 496 496 493 492 494 495 492 497 496 491 497 491 492 496 492 487 494 495 482 496 493 513 504 507 487 515 501 511 505 487 509 496 507 489 495 486 518 521 504 496 515 481 524 452 457 444 458 483 456 485 489 470 475 470 477 0 0 0 0 0
0 0 0 0 0 0 0 0 0 0 0 0 0 0 0 0 0 0 0 0 0 0 0 0 478 473 463 470 473 474 472 470 475 476 479 480 479 477 480 478 480 483 482 485 484 484 490 486 493 488 489 489 491 489 492 493 493 491 489 496 496 494 491 494 494 494 496 497 495 493 496 495 494 494 489 487 495 494 488 502 501 505 490 509 504 502 503 505 501 487 525 510 501 512 524 516 507 513 519 493 489 530 485 522 552 524 492 468 483 496 523 500 532 527 493 461 0 0 0 0
0 0 0 0 0 0 0 0 0 0 0 0 0 0 0 0 0 0 0 0 0 0 0 0 484 469 466 475 475 470 471 474 471 471 479 478 478 478 483 477 479 480 484 484 482 482 480 485 482 490 489 489 487 491 488 487 492 491 489 489 492 486 493 493 493 491 493 495 491 485 491 495 490 493 497 483 487 485 480 483 482 499 476 490 487 513 499 499 493 487 478 479 485 472 488 501 494 492 505 466 491 461 470 474 447 456 450 498 446 463 465 493 459 463 459 443 0 0 0 0
0 0 0 0 0 0 0 0 0 0 0 0 0 0 0 0 0 0 0 0 0 0 0 0 0 476 469 471 471 472 464 475 481 475 474 476 477 476 477 478 479 477 482 483 487 479 487 481 488 485 490 485 485 487 483 487 486 488 485 494 489 490 494 491 490 496 489 494 496 496 495 493 492 490 491 492 488 491 485 490 494 488 482 483 495 487 509 499 507 501 505 496 505 493 498 502 497 525 493 523 503 498 516 500 488 472 477 468 466 502 459 497 453 442 0 0 0 0 0 0
0 0 0 0 0 0 0 0 0 0 0 0 0 0 0 0 0 0 0 0 0 0 0 0 0 515 466 463 470 475 467 465 473 478 474 476 478 476 482 476 478 479 480 483 481 482 478 480 486 487 486 484 484 486 487 486 486 487 488 493 490 483 491 489 490 495 493 491 491 490 495 491 493 489 487 486 484 484 487 490 495 497 492 480 495 495 503 489 477 476 500 497 504 479 481 490 502 521 486 524 495 512 516 532 485 512 464 490 492 512 482 480 501 510 0 0 0 0 0 0
0 0 0 0 0 0 0 0 0 0 0 0 0 0 0 0 0 0 0 0 0 0 0 0 0 0 480 469 466 474 467 468 469 472 470 473 476 479 473 475 480 477 485 479 481 485 479 483 481 481 489 482 488 486 482 487 483 486 488 489 491 487 490 491 493 486 487 484 487 488 494 491 489 487 486 492 468 480 473 489 486 484 492 499 492 494 488 473 481 485 488 482 487 491 484 486 459 506 498 482 479 482 497 472 459 509 488 461 461 460 434 482 474 451 0 0 0 0 0 0
0 0 0 0 0 0 0 0 0 0 0 0 0 0 0 0 0 0 0 0 0 0 0 0 0 0 0 466 471 465 473 471 473 475 473 470 475 477 477 478 478 482 478 479 476 479 479 479 481 485 483 483 482 482 485 483 487 486 481 487 485 486 495 487 490 493 488 491 488 487 490 488 486 489 497 482 492 488 488 500 494 490 496 485 492 492 488 498 480 488 487 520 496 503 479 479 519 509 519 517 539 475 506 510 496 533 476 479 496 491 508 515 508 456 447 0 0 0 0 0
0 0 0 0 0 0 0 0 0 0 0 0 0 0 0 0 0 0 0 0 0 0 0 0 0 0 0 475 468 466 466 473 476 471 469 468 474 469 476 472 478 472 478 479 482 479 480 482 473 485 480 477 484 486 479 481 481 479 485 487 485 483 488 487 486 486 484 488 486 483 487 483 479 485 484 470 477 479 492 484 484 480 485 482 491 480 489 472 472 484 486 481 457 492 477 496 464 487 501 489 488 503 492 445 452 474 488 460 473 471 463 461 491 472 451 0 0 0 0 0
0 0 0 0 0 0 0 0 0 0 0 0 0 0 0 0 0 0 0 0 0 0 0 0 0 0 0 0 485 467 464 465 469 470 474 471 473 472 469 479 477 476 477 473 475 479 477 481 478 480 481 477 487 484 484 482 482 484 483 489 484 483 487 485 482 488 491 482 484 489 483 486 485 484 472 478 477 483 482 493 482 478 488 486 496 476 501 479 484 478 479 493 497 502 471 478 474 495 485 467 487 492 474 476 462 470 468 464 459 420 473 497 479 428 446 0 0 0 0 0
0 0 0 0 0 254 239 266 326 0 0 0 0 0 0 0 0 0 0 0 0 2362 0 0 0 0 0 0 0 492 459 464 474 474 464 469 471 472 467 475 471 477 477 475 474 479 482 481 480 477 485 478 478 482 483 478 484 482 485 483 488 488 482 486 483 489 484 486 487 483 481 487 482 465 488 487 492 490 479 494 486 487 482 487 496 494 482 491 484 492 479 500 506 491 523 520 494 484 505 489 483 499 515 478 476 479 460 491 502 477 468 508 479 494 478 0 0 0 0 0
0 0 0 0 240 228 228 237 231 276 336 0 0 0 0 0 0 0 0 0 0 2390 0 0 0 0 0 0 0 0 459 460 471 470 469 469 468 468 474 469 476 478 475 470 478 470 476 476 475 480 475 478 479 482 479 485 479 480 484 483 488 485 483 488 483 481 485 482 482 482 470 482 471 476 482 477 483 471 467 478 479 476 479 486 477 481 474 475 480 481 472 479 478 479 478 468 502 470 486 496 479 467 464 476 424 460 516 458 447 433 454 453 442 0 0 0 0 0 0 0
0 0 0 231 224 226 224 225 232 235 324 0 0 0 0 0 0 0 0 0 0 0 0 0 0 0 0 0 0 0 0 464 467 467 462 468 465 470 464 469 465 473 471 466 475 475 468 476 475 474 477 471 483 478 480 479 484 475 478 480 480 485 480 477 481 478 486 474 473 470 477 486 477 480 475 476 486 477 477 492 486 492 494 485 480 499 492 478 497 490 483 493 478 480 519 506 470 504 504 515 496 489 492 485 462 469 457 472 479 459 501 467 495 452 491 0 0 0 0 0
213 202 263 281 270 266 259 231 240 237 308 0 403 421 407 407 455 422 407 439 456 450 447 426 448 444 450 438 431 457 454 468 465 470 457 464 465 462 474 465 468 474 471 463 471 472 472 471 476 470 470 470 472 475 477 477 473 480 478 481 476 482 474 478 481 482 474 476 475 479 477 482 481 470 477 455 473 463 485 472 479 478 496 460 464 469 460 478 468 471 474 459 481 486 477 489 474 490 466 477 476 479 477 468 488 450 497 451 459 453 448 478 473 483 502 0 0 0 0 0
209 177 174 221 232 228 236 230 228 251 326 367 384 365 375 387 384 401 401 413 407 402 409 412 429 415 421 428 443 442 446 450 451 452 450 453 451 453 455 455 447 453 455 463 461 461 467 465 472 469 468 466 467 463 465 466 466 470 467 467 464 473 467 471 466 464 472 470 466 471 474 471 464 460 456 443 453 451 447 463 449 453 450 454 460 448 455 445 463 451 456 443 434 444 432 445 443 441 439 461 445 452 422 442 430 438 438 444 430 418 421 414 434 419 430 441 412 0 0 0
187 198 224 225 238 227 238 231 234 324 411 381 357 367 369 392 374 382 372 379 385 393 405 395 405 407 409 428 426 439 440 445 440 444 436 440 434 443 443 450 446 451 451 445 447 458 449 461 459 458 456 453 453 455 456 454 461 458 459 459 458 462 461 466 459 456 457 459 457 458 459 454 460 445 444 445 434 435 436 441 439 436 424 445 427 434 432 429 434 434 422 439 442 433 431 419 426 445 432 434 423 421 412 431 436 428 425 416 434 415 409 418 422 440 429 447 449 423 431 459
268 266 246 225 223 223 234 235 246 329 326 326 331 340 336 346 328 333 342 333 345 358 358 367 378 387 390 394 415 410 415 416 425 427 423 426 436 427 427 430 427 433 425 427 437 438 433 438 436 436 440 436 443 441 442 445 440 441 443 434 446 439 443 447 437 444 433 435 436 437 429 435 432 430 416 409 406 390 391 399 394 390 399 393 397 401 390 390 392 388 386 378 390 390 397 391 400 396 379 399 377 397 384 380 403 381 372 394 366 375 387 373 377 378 373 387 409 372 412 0
297 290 278 233 234 236 231 250 282 299 313 297 317 311 318 317 315 320 307 321 323 320 331 332 349 365 374 382 394 387 392 401 406 406 412 408 410 414 408 409 419 412 410 412 411 418 422 423 419 417 416 413 422 424 422 422 422 423 418 424 423 424 413 422 420 420 417 416 411 415 410 408 404 399 400 383 377 363 366 368 362 366 355 357 357 353 357 346 374 353 368 353 360 365 365 366 354 363 355 348 364 358 369 365 363 366 351 365 359 354 345 363 372 361 350 349 358 352 379 331
294 281 276 267 258 257 262 276 274 285 281 287 275 287 282 297 285 294 288 280 299 313 321 321 327 350 362 377 373 379 388 383 383 390 386 387 397 394 398 394 398 391 398 396 392 399 401 396 392 391 393 395 399 402 395 392 391 400 397 399 394 391 398 396 392 388 392 396 392 389 383 391 389 380 376 366 354 352 342 329 335 325 334 332 329 328 341 325 337 334 320 329 330 337 337 335 340 324 328 324 334 345 340 344 334 343 340 347 344 330 326 341 333 356 331 355 309 360 334 322
241 249 243 246 252 252 246 240 253 253 255 259 256 255 251 249 265 270 261 264 270 286 280 297 305 309 326 336 346 355 351 359 365 369 352 357 369 361 365 371 368 372 371 370 377 372 362 367 365 373 376 372 371 368 371 372 371 377 373 376 377 374 371 369 368 368 374 371 373 375 366 361 360 354 334 339 320 322 302 316 300 296 296 303 298 303 302 307 289 300 295 306 299 301 292 297 285 296 292 301 299 305 312 300 305 305 307 308 299 294 309 285 317 307 291 272 316 304 307 288
235 226 222 230 235 235 237 237 244 243 235 242 242 244 247 243 244 240 249 249 253 257 277 284 289 293 315 330 329 332 336 334 342 347 339 336 346 347 346 346 351 348 356 346 348 347 348 346 343 342 340 348 347 356 350 352 348 354 347 350 357 353 354 341 345 352 352 346 346 345 347 338 336 335 326 323 302 292 289 286 279 280 275 276 282 278 282 281 274 273 284 275 281 280 275 277 275 271 271 287 282 275 281 274 268 280 279 270 274 277 264 288 282 271 263 285 293 308 306 291
220 214 219 223 231 221 224 230 222 221 229 227 223 231 221 222 230 226 231 236 242 240 258 255 269 279 290 289 302 306 311 317 320 315 317 327 318 314 324 324 318 321 317 322 329 327 324 326 325 326 323 326 326 325 327 326 328 320 329 326 330 335 328 330 322 327 326 328 323 320 318 323 314 309 304 301 288 273 271 266 265 263 260 262 258 260 262 255 261 256 259 253 268 257 260 253 264 250 263 262 258 260 257 270 261 250 261 253 257 270 254 272 269 259 264 261 249 251 309 264
203 202 200 213 216 214 214 210 205 207 212 206 210 215 216 216 223 223 224 219 220 230 240 249 256 257 274 272 281 279 282 291 294 290 294 297 294 306 302 297 294 298 292 301 299 298 307 301 307 300 304 301 299 300 299 300 307 303 304 303 302 303 308 304 304 311 307 300 302 300 299 299 297 294 284 276 265 260 257 253 246 243 245 249 245 251 250 237 242 244 243 236 239 240 235 234 235 239 237 237 238 250 246 238 246 241 237 244 239 242 239 260 242 256 244 243 242 256 240 279
179 193 198 201 203 198 211 207 205 206 205 198 201 204 203 205 207 211 215 215 215 224 234 228 239 249 254 261 270 264 273 267 266 269 279 277 281 278 285 278 278 282 284 286 280 279 284 284 285 284 282 280 281 285 280 285 284 286 284 289 282 290 286 289 282 283 283 282 283 283 289 284 281 274 269 259 249 246 237 242 233 233 233 232 231 226 219 220 227 230 233 230 228 230 228 222 230 221 228 225 221 225 228 231 231 219 234 232 239 235 238 239 250 244 247 246 246 225 232 257
174 173 191 195 183 181 184 200 179 179 182 178 178 181 186 176 189 191 185 207 212 211 219 224 230 229 236 238 243 252 256 255 255 257 257 258 258 257 266 266 259 260 260 268 265 263 266 268 264 262 266 269 263 263 265 269 265 266 261 273 262 269 263 274 266 266 267 269 266 260 266 258 256 252 249 242 234 227 230 215 223 218 214 218 201 225 217 212 217 218 211 215 219 198 210 211 207 211 210 216 222 214 217 211 216 211 214 208 215 206 210 228 233 210 207 216 225 235 241 229
178 175 169 179 176 175 175 173 180 182 181 181 182 177 180 183 181 177 188 181 183 193 204 212 215 218 227 223 230 229 235 239 240 240 241 242 239 240 248 246 246 241 249 245 254 253 250 248 246 256 247 251 244 251 242 248 249 252 251 251 250 247 254 248 243 249 250 250 245 246 247 239 236 238 232 226 222 218 218 200 193 192 190 184 193 193 193 195 189 188 190 189 191 186 192 187 189 184 189 192 187 206 187 184 205 191 182 201 187 209 208 207 211 205 206 198 203 210 204 235
165 170 177 174 176 175 173 173 177 176 175 176 175 177 178 173 182 179 185 184 187 179 183 197 205 194 214 219 216 222 225 227 217 226 229 230 229 226 230 228 229 230 237 232 233 235 228 230 235 234 231 233 234 235 234 232 236 239 236 235 235 237 234 237 234 235 234 230 232 229 234 237 226 222 217 215 192 197 186 196 196 194 189 193 194 194 186 193 194 193 191 181 182 191 191 182 189 185 189 181 177 184 181 181 185 179 179 178 179 186 182 201 200 184 196 196 197 220 203 201
163 163 170 169 172 166 169 168 168 169 167 163 168 169 171 167 172 169 173 181 175 183 188 180 185 192 190 187 189 207 209 212 209 214 211 216 216 214 212 198 214 217 216 217 200 220 216 219 219 216 219 218 216 217 219 219 218 219 217 220 217 223 220 218 215 215 215 214 222 219 226 215 215 197 190 193 188 190 192 187 187 178 184 185 182 183 181 182 180 185 184 178 180 181 180 180 179 178 178 183 185 178 180 183 174 175 180 178 176 174 179 174 176 178 180 178 179 177 180 205
149 155 163 157 161 165 157 166 163 162 157 160 162 158 161 160 162 168 168 177 175 174 179 182 181 184 184 184 182 191 183 186 184 184 186 194 189 186 186 190 192 194 191 191 195 196 197 194 194 194 196 195 199 198 197 193 197 193 192 195 203 196 194 193 194 195 193 193 191 189 193 198 194 192 187 195 194 189 185 179 178 175 173 176 175 174 175 175 176 177 176 175 173 174 177 170 169 168 169 172 168 172 176 174 175 172 173 164 171 173 169 174 171 177 173 171 168 176 166 176
145 148 151 156 152 155 158 157 159 155 160 159 153 152 156 155 156 161 158 165 164 167 179 177 175 176 179 180 183 185 187 183 186 188 189 189 188 193 192 191 190 191 191 195 190 194 195 195 196 191 192 198 188 196 198 194 196 198 198 198 197 198 196 199 196 194 195 198 198 193 194 193 192 191 190 184 188 182 175 170 175 170 163 164 166 166 168 167 168 166 166 168 172 167 167 165 163 162 163 168 170 168 171 167 166 161 160 166 168 163 166 167 171 169 177 170 159 169 171 166
144 141 142 146 148 152 149 150 149 147 148 154 150 152 148 147 153 149 155 158 160 164 164 172 171 170 174 173 174 179 178 179 181 183 178 179 182 176 183 180 181 181 187 185 179 189 183 184 186 185 183 185 189 188 189 187 188 189 0 189 189 185 183 186 190 186 188 184 184 186 182 183 181 182 176 173 174 171 166 167 161 157 164 160 160 160 162 162 166 159 159 160 161 161 159 160 157 156 161 160 158 167 161 156 157 156 155 157 158 165 156 165 151 161 157 167 147 161 152 162
134 138 133 140 140 146 147 147 147 147 146 145 142 145 144 143 144 147 147 150 160 162 163 164 166 167 167 168 169 171 169 171 175 171 170 171 174 173 173 178 175 179 176 177 174 176 176 178 173 178 181 177 180 181 182 181 180 0 0 178 180 181 180 182 179 175 176 179 179 174 175 177 173 175 168 171 167 161 164 160 161 155 155 155 158 155 156 156 154 153 150 155 157 157 152 151 152 155 156 157 156 157 151 153 152 145 148 152 161 154 145 145 151 153 148 160 148 157 162 158
140 131 131 135 141 144 149 137 138 140 138 140 144 144 141 140 138 145 143 145 149 151 155 155 161 159 163 158 169 165 164 167 164 167 164 167 165 170 168 171 172 0 173 170 170 173 173 170 174 171 175 169 175 174 176 0 174 174 0 173 172 0 174 175 172 166 172 167 172 172 169 164 166 169 163 161 165 156 157 155 150 151 150 150 152 148 150 146 149 153 148 152 149 150 148 144 152 150 153 146 146 148 145 149 145 143 142 141 150 147 144 145 148 153 150 150 148 165 155 172
129 125 128 123 133 134 143 138 133 128 135 133 131 131 134 132 136 139 136 140 141 146 146 153 151 157 158 153 156 161 160 158 158 162 158 158 160 162 0 0 0 0 0 0 0 0 0 163 166 165 167 163 166 165 0 0 170 166 164 0 0 0 0 0 162 164 164 0 162 161 165 161 160 158 153 159 156 153 146 148 154 143 148 148 142 147 139 144 143 145 142 145 142 147 141 140 138 147 140 141 138 140 143 138 139 135 135 140 135 143 142 144 144 146 140 145 141 140 139 133
123 125 124 115 126 132 134 129 136 128 133 132 126 127 132 126 120 139 136 136 141 141 145 145 146 150 152 151 152 153 153 156 157 155 153 152 154 0 0 0 0 0 0 0 0 0 0 0 0 160 162 160 0 0 0 0 0 0 0 0 0 0 0 0 160 160 0 0 0 0 0 156 162 155 155 149 150 153 146 143 140 137 143 143 140 142 142 141 147 141 137 139 138 143 137 136 141 143 139 137 135 134 141 134 132 133 135 136 135 143 140 143 138 148 135 141 134 127 140 160
115 102 120 124 127 126 128 129 127 126 132 120 123 120 118 128 133 133 131 135 127 133 135 142 140 139 142 144 146 146 151 148 151 151 152 145 0 0 0 0 0 0 0 0 0 0 0 0 150 153 155 0 0 0 0 0 0 0 0 0 0 0 0 0 0 0 0 0 0 0 0 0 147 150 148 147 145 143 140 140 129 139 127 129 128 127 136 141 136 130 139 138 132 135 119 130 141 138 134 135 125 139 136 130 125 133 132 131 133 138 131 139 137 134 136 126 137 116 123 144
103 111 109 111 120 110 121 119 112 121 116 111 118 115 128 122 124 119 116 118 130 122 134 124 135 141 137 140 144 141 141 142 141 144 144 141 0 0 0 0 0 0 0 0 0 0 0 0 0 0 0 0 0 0 0 0 0 0 0 0 0 0 0 0 0 0 0 0 0 0 0 0 0 140 141 139 139 132 127 138 126 123 120 124 124 123 125 124 122 130 121 125 116 128 125 128 126 124 119 122 118 129 131 118 119 121 127 120 134 129 130 133 114 129 126 125 124 108 116 123
109 110 114 115 115 113 115 116 117 116 114 119 115 117 117 123 118 127 122 112 119 115 122 116 128 135 137 131 0 134 0 0 0 138 141 0 0 0 0 0 0 0 0 0 0 0 0 0 0 0 0 0 0 0 0 0 0 0 0 0 0 0 0 0 0 0 0 0 0 0 0 0 0 143 124 123 126 122 120 125 119 117 122 125 116 121 117 122 116 113 116 122 117 116 112 120 115 121 118 122 120 125 120 123 118 113 117 123 106 133 120 123 126 115 128 117 109 128 142 145
103 100 106 109 104 100 105 103 102 101 108 104 102 108 107 109 107 111 115 112 110 115 110 117 121 120 124 119 118 126 0 0 0 0 0 0 0 0 0 0 0 0 0 0 0 0 0 0 0 0 0 0 0 0 0 0 0 0 0 0 0 0 0 0 0 0 0 0 0 0 0 0 129 0 0 125 121 119 119 114 114 113 107 111 112 116 110 110 111 115 112 117 107 109 109 106 111 111 111 109 115 112 111 114 114 116 109 109 121 108 111 109 101 116 114 97 106 121 112 134
99 101 90 96 102 102 101 102 105 102 104 103 104 105 106 102 105 110 114 106 110 110 108 106 114 110 118 117 120 119 0 126 0 0 0 0 0 0 0 0 0 0 0 0 0 0 0 0 0 0 0 0 0 0 0 0 0 0 0 0 0 0 0 0 0 0 0 0 0 0 0 0 0 121 0 116 120 117 113 112 108 109 104 105 111 109 107 115 106 106 115 111 111 115 103 117 107 106 101 118 112 106 111 106 108 112 110 110 116 115 94 100 114 108 107 120 126 135 124 138
98 102 97 103 96 99 104 92 95 100 94 96 101 93 103 93 103 104 114 117 110 106 96 107 113 107 115 111 111 122 118 118 121 0 0 0 0 0 0 0 0 0 0 0 0 0 0 0 0 0 0 0 0 0 0 0 0 0 0 0 0 0 0 0 0 0 0 0 0 0 0 0 122 121 110 120 111 115 117 116 108 108 101 117 107 108 103 100 102 102 105 108 109 94 97 99 107 101 112 106 103 106 108 105 109 107 111 96 106 98 100 101 105 99 105 95 136 128 122 119
86 84 84 84 84 86 82 94 88 83 90 94 96 97 88 90 78 93 91 90 93 86 104 102 101 104 113 107 0 114 105 105 114 0 108 0 0 0 0 0 0 0 0 0 0 0 0 0 0 0 0 0 0 0 0 0 0 0 0 0 0 0 0 0 0 0 0 0 0 0 0 115 110 110 105 113 104 103 100 100 99 101 97 91 100 96 88 103 109 101 94 96 104 82 85 94 94 100 85 97 89 101 93 91 83 90 94 90 92 87 79 88 82 96 92 93 94 86 102 131
93 86 89 88 95 95 98 108 92 94 94 94 90 89 96 95 97 90 101 97 96 105 104 102 104 101 110 107 0 103 110 110 115 112 119 110 110 0 111 0 0 117 0 0 0 0 0 0 0 0 0 0 0 0 0 0 0 0 0 0 0 0 0 0 114 0 0 0 110 0 106 109 114 112 114 108 106 109 102 98 110 104 104 88 95 101 106 101 99 102 104 105 106 99 99 104 98 94 97 110 100 100 92 96 95 102 97 91 94 87 91 92 91 101 103 96 124 104 122 137
86 92 91 86 95 94 91 92 84 96 85 89 86 95 88 85 94 98 97 95 100 95 97 111 89 101 105 100 102 106 96 0 105 103 97 100 0 116 116 0 108 0 0 0 0 0 0 0 0 0 0 0 0 0 0 0 0 111 0 0 0 105 109 109 111 110 104 100 112 105 109 104 102 98 112 108 100 92 100 95 93 92 97 82 92 90 90 102 101 92 96 101 109 83 95 94 86 93 96 85 90 83 89 98 87 84 98 92 94 89 87 89 89 92 93 93 94 104 98 114
83 85 83 87 92 92 103 89 83 80 88 89 84 91 89 89 89 89 88 89 77 91 98 84 85 92 91 90 105 90 96 99 95 96 93 111 99 103 103 100 103 96 98 111 109 89 0 0 98 0 0 106 105 93 103 111 106 103 107 103 101 104 111 101 101 113 101 94 101 108 98 107 105 101 102 93 92 96 97 87 95 90 92 94 94 92 88 91 96 90 99 86 95 95 92 90 87 85 91 81 85 88 89 89 83 79 93 85 80 94 88 98 96 101 84 100 121 103 132 130
85 80 84 85 84 82 100 99 87 84 88 80 83 88 86 93 90 96 90 97 84 95 92 93 91 94 91 88 94 96 94 82 98 97 97 97 96 100 93 109 102 94 98 105 99 94 105 0 105 100 96 105 98 99 98 100 101 106 98 108 104 96 93 106 102 100 97 100 93 104 98 100 101 92 105 90 93 95 95 94 96 94 95 93 94 97 87 84 94 85 83 98 85 93 91 93 92 96 96 84 82 99 80 89 90 96 94 98 93 83 94 89 104 96 99 119 125 85 122 137
82 72 67 67 80 82 88 88 88 78 85 83 87 78 87 82 83 88 85 85 93 84 93 88 84 84 92 93 94 92 92 92 80 93 97 94 97 83 90 97 91 91 83 92 93 93 90 101 97 88 90 98 95 89 89 82 100 85 95 96 93 82 83 96 97 97 96 91 96 98 94 89 97 90 96 93 92 94 96 96 84 90 82 88 85 90 89 84 85 88 92 77 86 78 86 86 81 77 80 91 79 84 81 72 80 79 83 83 80 79 74 88 80 93 83 100 105 82 76 72
72 71 81 88 72 84 81 88 84 84 87 77 83 84 83 84 89 90 83 89 85 89 83 92 86 87 92 87 93 88 83 98 91 97 86 92 85 93 87 93 94 96 92 89 87 99 90 96 100 91 91 97 97 85 102 94 89 98 86 97 101 84 89 95 87 97 87 95 108 94 84 94 84 96 98 82 95 95 84 94 91 93 90 88 77 88 90 82 93 90 77 88 80 80 93 84 95 86 79 81 84 80 82 75 76 86 84 81 86 97 83 85 78 110 109 103 139 127 117 214
