0 0 0 0 0 0 0 0 0 0 0 0 0 0 0 0 0 0 0 0 0 0 0 0 0 0 0 0 0 0 0 0 0 0 0 0 0 0 0 0 0 0 0 0 0 0 0 0 0 0 0 0 0 0 0 0 0 0 0 0 0 0 0 0 0 0 0 0 0 0 0 0 0 0 0 0 0 0 0 0 0 0 0 0 0 0 0 0 0 0 0 0 0 0 0 0 0 0 0 0 0 0 0 0 0 0 0 0 0 0 0 0 0 0 0 0 0 0 0 0
0 0 0 0 0 0 0 0 0 0 0 0 0 0 0 0 0 0 0 0 0 0 0 0 0 0 0 0 0 0 0 0 0 0 0 0 0 0 0 0 0 0 0 0 0 0 0 0 0 0 0 0 0 0 0 0 0 0 0 0 0 0 0 0 0 0 0 0 0 0 0 0 0 0 0 0 0 0 0 0 0 0 0 0 0 0 0 0 0 0 0 0 0 0 0 0 0 0 0 0 0 0 0 0 0 0 0 0 0 0 0 0 0 0 0 0 0 0 0 0
0 0 0 0 0 0 0 0 0 0 0 0 0 0 0 0 0 0 0 0 0 0 0 0 0 0 0 0 0 0 0 0 0 0 0 0 0 0 0 0 0 0 0 0 0 0 0 0 0 0 0 0 0 0 0 0 0 0 0 0 0 0 0 0 0 0 0 0 0 0 0 0 0 0 0 0 0 0 0 0 0 0 0 0 0 0 0 0 0 0 0 0 0 0 0 0 0 0 0 0 0 0 0 0 0 0 0 0 0 0 0 0 0 0 0 0 0 0 0 0
0 0 0 0 0 0 0 0 0 0 0 0 0 0 0 0 0 0 0 0 0 0 0 0 0 0 0 0 0 0 0 0 0 0 0 0 0 0 0 0 0 0 0 0 0 0 0 0 0 0 0 0 0 0 0 0 0 0 0 0 0 0 0 0 0 0 0 0 0 0 0 0 0 0 0 0 0 0 0 0 0 0 0 0 0 0 0 0 0 0 0 0 0 0 0 0 0 0 0 0 0 0 0 0 0 0 0 0 0 0 0 0 0 0 0 0 0 0 0 0
0 0 0 0 0 0 0 0 0 0 0 0 0 0 0 0 0 0 0 0 0 0 0 0 0 0 0 0 0 0 0 0 0 0 0 0 0 0 0 0 0 0 0 0 0 0 0 0 0 0 0 0 0 0 0 0 0 0 0 0 0 0 0 0 0 0 0 0 0 0 0 0 0 0 0 0 0 0 0 0 0 0 0 0 0 0 0 0 0 0 0 0 0 0 0 0 0 0 0 0 0 0 0 0 0 0 0 0 0 0 0 0 0 0 0 0 0 0 0 0
0 0 0 0 0 0 0 0 0 0 0 0 0 0 0 0 0 0 0 0 0 0 0 0 0 0 0 0 0 0 0 0 0 0 0 0 0 0 0 498 515 508 517 522 509 531 528 509 530 517 516 520 527 521 525 545 0 0 0 0 0 0 0 0 0 0 0 0 0 0 0 0 0 0 0 0 0 0 0 0 0 0 0 0 0 0 0 0 0 0 0 0 0 0 0 0 0 0 0 0 0 0 0 0 0 0 0 0 0 0 0 0 0 0 0 0 0 0 0 0
0 0 0 0 0 0 0 0 0 0 0 0 0 0 0 0 0 0 0 0 0 0 0 0 0 0 0 0 0 0 0 0 0 0 0 0 0 488 522 501 502 516 485 514 506 500 514 507 510 515 509 489 492 518 505 509 523 510 520 489 0 0 0 0 0 0 0 0 0 0 0 0 0 0 0 0 0 0 0 0 0 0 0 0 0 0 0 0 0 0 0 0 0 0 0 0 0 0 0 0 0 0 0 0 0 0 0 0 0 0 0 0 0 0 0 0 0 0 0 0
0 0 0 0 0 0 0 0 0 0 0 0 0 0 0 0 0 0 0 0 0 0 0 0 0 0 0 0 0 0 0 0 0 0 0 472 494 509 490 486 497 492 497 490 489 492 489 507 502 501 508 500 506 495 504 500 499 485 490 489 494 508 481 495 495 0 0 0 0 0 0 0 0 0 0 0 0 0 0 0 0 0 0 0 0 0 0 0 0 0 0 0 0 0 0 0 0 0 0 0 0 0 0 0 0 0 0 0 0 0 0 0 0 0 0 0 0 0 0 0
0 0 0 0 0 0 0 0 0 0 0 0 0 0 0 0 0 0 0 0 0 0 0 0 0 0 0 0 0 0 0 0 0 491 491 495 495 526 501 503 507 499 494 505 505 513 496 510 502 512 509 505 518 508 506 526 495 513 512 515 504 510 510 513 525 514 526 559 596 622 585 553 582 0 589 587 565 612 621 631 0 0 0 0 0 0 0 0 0 0 0 0 0 0 0 0 0 0 0 0 0 0 0 0 0 0 0 0 0 0 0 0 0 0 0 0 0 0 0 0
0 0 0 0 0 0 0 0 0 0 0 0 0 0 0 0 0 0 0 0 0 0 0 0 0 0 0 0 0 0 0 484 500 479 488 491 495 489 510 481 497 489 492 489 496 491 509 508 493 490 504 491 499 500 498 489 498 496 493 492 509 489 512 497 495 499 500 498 523 487 522 530 516 564 511 521 528 503 489 512 483 478 556 534 0 496 0 482 521 492 472 482 509 518 475 538 532 516 520 533 529 507 487 466 0 0 0 0 0 0 0 0 0 0 0 0 0 0 0 0
0 0 0 0 0 0 0 0 0 0 0 0 0 0 0 0 0 0 0 0 0 0 0 0 0 0 0 0 0 0 504 497 498 490 504 496 508 484 495 500 505 494 507 499 504 507 510 500 498 498 503 509 508 500 507 508 499 506 502 513 504 506 507 509 508 503 514 513 514 518 561 586 573 559 547 592 557 597 524 569 591 525 566 583 598 610 550 607 576 580 557 521 585 569 598 580 550 582 505 599 548 557 594 549 553 602 555 0 559 0 0 0 0 0 0 0 0 0 0 0
0 0 0 0 0 0 0 0 0 0 0 0 0 0 0 0 0 0 0 0 0 0 0 0 0 0 0 0 488 513 505 498 502 511 517 492 501 502 521 506 512 508 495 502 515 516 505 508 505 507 505 508 515 503 502 502 500 505 505 507 512 513 520 506 511 514 516 509 520 521 527 577 578 581 593 578 531 584 565 593 582 568 574 585 613 587 600 597 613 571 588 571 616 609 608 642 598 587 611 599 615 613 602 591 633 627 616 596 564 0 0 0 0 0 0 0 0 0 0 0
0 0 0 0 0 0 0 0 0 0 0 0 0 0 0 0 0 0 0 0 0 0 0 0 0 0 0 479 489 504 500 483 495 500 495 510 497 507 507 496 501 510 494 505 502 506 504 501 502 498 510 505 505 500 503 513 505 521 515 510 509 513 502 510 505 507 514 516 507 506 506 500 529 544 542 563 537 560 530 559 552 532 545 582 519 552 557 505 527 562 501 564 532 529 591 544 574 556 541 565 548 545 530 545 525 514 582 537 0 0 0 0 0 0 0 0 0 0 0 0
0 0 0 0 0 0 0 0 0 0 0 0 0 0 0 0 0 0 0 0 0 0 0 0 0 0 521 501 500 500 501 500 503 505 502 513 502 499 509 503 505 504 512 513 504 509 512 509 499 506 516 518 514 503 504 503 511 511 513 515 503 513 512 506 512 506 515 508 515 515 511 517 521 583 555 566 553 570 589 552 621 553 586 586 576 597 566 608 576 606 610 578 566 582 576 570 600 565 546 586 594 589 585 584 613 607 583 570 618 0 0 0 0 0 0 0 0 0 0 0
0 0 0 0 0 0 0 0 0 0 0 0 0 0 0 0 0 0 0 0 0 0 0 0 0 511 491 481 504 491 504 501 502 490 503 493 501 488 498 495 503 498 496 506 500 509 500 504 494 508 503 508 509 500 505 505 499 500 502 504 510 510 504 509 505 499 509 507 500 513 507 515 495 511 503 542 525 565 559 553 566 534 532 556 538 547 553 569 559 559 539 559 558 560 577 525 534 545 545 545 530 543 503 568 526 551 504 541 540 0 0 0 0 0 0 0 0 0 0 0
0 0 0 0 0 0 0 0 0 0 0 0 0 0 0 0 0 0 0 0 0 0 0 0 0 467 489 484 493 493 497 491 489 491 490 487 499 498 497 496 500 487 500 497 498 496 504 505 497 505 499 502 506 502 503 495 508 500 504 503 508 501 507 507 510 505 521 513 497 505 516 507 497 499 506 496 501 526 515 528 517 543 518 511 486 493 537 517 522 520 513 526 514 499 515 531 497 537 522 515 517 542 494 478 495 525 509 491 512 507 0 480 501 499 0 0 0 0 0 0
0 0 0 0 0 0 0 0 0 0 0 0 0 0 0 0 0 0 0 0 0 0 0 0 457 492 499 495 496 501 499 490 494 495 500 503 498 496 506 497 503 495 490 505 492 504 508 507 493 507 504 500 495 506 502 506 500 508 505 506 502 506 498 512 505 506 507 516 510 512 514 510 508 508 527 539 558 566 557 553 554 541 551 556 538 520 539 537 557 541 546 553 539 560 572 539 546 549 575 565 582 553 531 551 539 572 568 553 567 567 580 0 0 0 0 0 0 0 0 0
0 0 0 0 0 0 0 0 0 0 0 0 0 0 0 0 0 0 0 0 0 0 0 0 469 490 487 481 484 489 493 487 493 494 485 486 490 480 487 497 489 496 497 500 491 498 504 498 500 501 509 500 496 509 502 501 513 500 500 505 498 501 500 507 508 510 509 504 498 509 495 501 507 511 496 510 495 489 519 526 511 506 525 519 509 490 517 527 511 495 508 531 523 497 519 508 479 523 534 525 509 521 512 510 529 504 551 512 464 486 0 0 0 0 0 0 0 0 0 0
0 0 0 0 0 0 0 0 0 0 0 0 0 0 0 0 0 0 0 0 0 0 0 509 492 499 492 499 484 503 494 496 497 495 500 492 505 502 499 500 496 495 495 507 495 506 498 503 502 505 506 505 500 504 513 508 503 509 505 502 508 498 504 505 500 504 512 501 514 502 508 513 506 500 505 507 527 535 528 531 503 557 521 526 524 504 527 526 523 534 548 532 540 549 530 550 547 535 527 539 535 538 532 561 529 507 550 513 559 529 529 0 0 0 0 0 0 0 0 0
0 0 0 0 0 0 0 0 0 0 0 0 0 0 0 0 0 0 0 0 0 0 0 486 491 499 492 493 496 499 498 496 503 490 484 497 483 488 491 491 496 495 494 504 509 498 509 510 508 505 506 501 505 504 497 502 505 513 508 502 506 497 506 510 509 504 505 515 508 503 508 511 519 518 509 513 524 533 564 554 547 528 555 516 571 566 564 554 554 552 543 552 573 548 562 564 593 546 550 530 572 547 547 575 548 556 585 564 579 585 503 0 0 0 0 0 0 0 0 0
0 0 0 0 0 0 0 0 0 0 0 0 0 0 0 0 0 0 0 0 0 0 466 497 489 486 481 492 490 486 486 500 494 491 488 490 493 491 493 492 501 494 493 498 496 494 498 500 496 498 501 500 494 505 499 500 504 499 508 506 505 505 496 500 498 503 502 510 501 511 513 506 510 509 500 502 531 526 524 526 487 550 493 544 517 541 580 484 529 513 500 525 506 544 519 564 525 514 560 540 489 534 531 525 525 524 529 551 509 519 525 496 505 0 0 0 0 0 0 0
0 0 0 0 0 0 0 0 0 0 0 0 0 0 0 0 0 0 0 0 0 0 515 507 494 490 494 487 501 493 491 493 496 492 496 498 495 496 503 495 501 500 495 508 495 505 501 508 502 497 499 506 502 509 502 509 504 508 502 506 513 508 502 504 514 507 509 515 512 500 507 514 518 512 515 514 530 553 525 559 556 544 543 513 523 550 574 563 546 563 552 568 532 570 545 572 544 567 562 554 555 577 543 538 561 557 529 590 547 594 609 603 0 0 0 0 0 0 0 0
0 0 0 0 0 0 0 0 0 0 0 0 0 0 0 0 0 0 0 0 0 0 470 486 489 490 489 499 493 489 488 482 487 486 494 491 491 497 488 496 494 500 497 489 495 493 494 501 494 501 491 505 499 493 505 505 500 511 507 509 506 507 506 509 502 508 510 502 501 507 504 500 511 505 500 508 511 519 514 497 503 534 522 531 526 536 503 500 505 541 517 496 518 499 530 526 534 534 532 528 513 529 540 529 483 529 551 499 564 509 552 525 551 546 0 0 0 0 0 0
0 0 0 0 0 0 0 0 0 0 0 0 0 0 0 0 0 0 0 0 0 0 495 477 484 483 488 488 485 493 488 490 487 488 487 487 484 487 494 494 494 500 495 495 493 490 497 499 497 499 496 495 498 498 502 497 496 499 496 500 506 503 495 507 500 502 501 501 495 507 512 508 502 503 498 509 495 521 500 499 501 499 496 519 526 519 511 506 491 496 511 512 511 501 456 501 462 506 507 527 506 502 505 482 485 473 473 494 485 484 479 484 525 0 0 0 0 0 0 0
0 0 0 0 0 0 0 0 0 0 0 0 0 0 0 0 0 0 0 0 0 0 482 488 479 486 494 483 493 493 491 487 492 491 485 492 488 496 495 492 489 489 502 494 495 494 498 506 499 497 498 504 497 499 500 507 502 501 498 499 503 498 503 506 507 506 506 501 500 504 512 500 511 508 512 519 514 524 539 517 515 538 504 544 554 524 538 494 524 514 523 534 534 527 531 519 508 506 533 519 537 518 533 566 546 528 527 521 513 581 514 506 464 0 0 0 0 0 0 0
0 0 0 0 0 0 0 0 0 0 0 0 0 0 0 0 0 0 0 0 0 0 471 470 477 485 479 482 485 480 488 480 482 487 492 485 485 485 494 492 488 489 492 494 485 483 490 502 496 494 496 493 495 501 497 501 501 499 496 500 498 497 503 501 497 500 497 502 492 497 496 496 501 509 495 494 502 495 510 515 497 495 509 505 502 503 495 503 473 490 502 497 501 484 478 486 510 503 479 498 512 483 466 470 476 473 455 451 506 0 453 480 479 0 0 0 0 0 0 0
0 0 0 0 0 0 0 0 0 0 0 0 0 0 0 0 0 0 0 0 0 418 477 493 482 487 490 487 501 489 487 496 492 491 488 485 498 491 496 499 493 494 493 493 497 494 498 502 494 494 497 497 497 505 502 496 498 502 504 503 499 499 507 501 503 497 502 504 505 508 499 503 506 508 508 503 503 508 500 514 512 505 498 518 518 518 537 539 507 531 495 534 499 525 506 514 536 535 509 556 571 547 491 522 495 510 497 522 530 545 543 0 0 0 0 0 0 0 0 0
0 0 0 0 0 0 0 0 0 0 0 0 0 0 0 0 0 0 0 0 0 463 480 477 489 487 496 485 483 487 488 485 488 486 492 500 487 488 486 491 496 493 500 490 492 494 492 498 501 495 500 500 497 500 506 499 499 502 505 509 505 496 501 502 502 504 507 501 501 506 508 502 500 511 513 513 506 524 553 514 525 551 507 543 533 558 529 535 552 520 517 529 536 546 522 525 558 560 531 543 543 536 572 569 513 535 570 558 506 539 556 595 0 0 0 0 0 0 0 0
0 0 0 0 0 0 0 0 0 0 0 0 0 0 0 0 0 0 0 0 0 459 479 492 477 477 480 473 480 484 486 488 484 480 488 484 484 484 491 485 493 488 493 492 488 494 492 493 497 495 494 497 493 493 497 501 497 503 500 498 505 503 501 500 504 498 502 507 511 501 499 501 511 511 505 497 509 497 510 508 518 515 510 510 516 516 487 520 511 510 509 515 494 539 494 476 491 514 530 519 531 498 525 496 517 505 497 489 489 500 516 526 509 0 0 0 0 0 0 0
0 0 0 0 0 0 0 0 0 0 0 0 0 0 0 0 0 0 0 0 0 480 493 479 481 486 485 479 489 483 479 492 489 491 490 491 486 491 486 493 495 494 489 498 499 496 493 502 496 497 494 496 501 502 503 498 504 499 505 501 497 499 501 503 510 505 507 505 502 512 501 511 503 509 509 511 507 512 529 529 508 533 523 504 534 523 537 518 538 528 549 531 524 539 538 536 536 549 564 559 510 537 532 555 547 534 538 539 551 568 517 585 525 570 0 0 0 0 0 0
0 0 0 0 0 0 0 0 0 0 0 0 0 0 0 0 0 0 0 0 0 432 483 479 477 477 478 483 483 476 482 480 490 486 489 482 480 490 487 486 487 491 488 491 490 491 494 490 492 497 497 495 493 496 491 492 493 503 500 493 505 507 500 497 499 499 502 503 496 500 507 507 496 500 499 499 500 495 514 513 471 510 501 509 504 496 520 492 513 522 487 506 480 504 489 485 505 503 504 487 502 535 480 488 479 517 496 490 480 488 489 502 507 0 0 0 0 0 0 0
0 0 0 0 0 0 0 0 0 0 0 0 0 0 0 0 0 0 0 0 0 448 478 477 476 487 472 479 481 482 481 483 479 484 486 484 483 487 487 489 485 487 487 486 493 488 488 495 492 490 490 494 495 495 492 496 498 498 498 503 493 498 496 500 496 499 496 498 500 504 508 503 502 500 496 496 497 493 507 487 489 480 489 485 492 493 497 497 482 485 484 501 496 488 502 509 470 480 523 504 508 504 505 491 473 488 474 482 477 517 488 444 495 447 0 0 0 0 0 0
0 0 0 0 0 0 0 0 0 0 0 0 0 0 0 0 0 0 0 0 0 454 484 483 473 477 482 479 480 479 489 483 482 477 487 487 484 490 484 486 492 489 491 494 486 488 494 491 492 499 498 491 494 501 492 502 494 500 502 500 504 498 502 498 507 500 497 492 503 503 503 497 508 499 498 503 500 503 490 491 506 495 486 512 510 508 481 500 505 514 520 524 500 513 520 493 535 485 519 524 518 495 535 492 501 502 483 517 507 512 499 482 505 518 0 0 0 0 0 0
0 0 0 0 0 0 0 0 0 0 0 0 0 0 0 0 0 0 0 0 0 422 473 465 475 473 483 475 475 474 481 479 482 480 482 480 482 481 484 485 487 486 483 489 491 490 486 494 490 491 490 495 492 496 495 496 495 500 496 493 494 493 498 495 500 498 498 493 496 497 496 491 490 502 494 493 500 496 498 485 496 472 492 491 480 486 486 514 513 479 479 495 489 485 486 489 463 487 487 470 496 466 485 470 482 476 466 467 481 458 488 489 436 0 0 0 0 0 0 0
0 0 0 0 0 0 0 0 0 0 0 0 0 0 0 0 0 0 0 0 0 454 482 474 471 475 478 477 483 473 482 487 482 481 476 486 483 484 489 489 488 487 485 489 491 494 491 495 494 497 494 494 496 500 496 496 491 497 498 498 495 499 497 491 499 502 500 494 494 496 501 498 498 500 507 494 495 501 506 496 494 497 518 502 498 491 484 507 487 510 486 490 470 494 509 498 495 517 503 484 489 519 523 517 508 500 504 512 515 480 483 510 502 480 0 0 0 0 0 0
0 0 0 0 0 0 0 0 0 0 0 0 0 0 0 0 0 0 0 0 0 446 473 477 479 475 478 479 475 482 483 478 481 480 485 486 488 482 485 486 487 489 489 489 491 488 496 492 490 495 492 495 496 493 500 497 497 501 499 499 496 498 499 498 496 499 502 504 498 499 501 496 496 500 497 497 499 497 526 513 517 509 513 523 497 511 520 501 544 529 524 524 540 535 520 529 531 526 521 509 514 529 522 522 537 509 534 510 531 566 522 549 556 570 0 0 0 0 0 0
0 0 0 0 0 0 0 0 0 0 0 0 0 0 0 0 0 0 0 0 0 511 471 469 480 468 482 478 478 478 474 487 481 485 484 485 478 481 480 492 485 489 493 488 492 494 485 494 492 495 491 492 494 494 495 496 494 494 497 497 491 501 497 498 499 498 496 497 494 495 499 497 496 500 495 499 489 495 506 482 503 484 489 506 508 488 510 476 473 478 489 517 484 490 503 512 511 495 508 525 498 522 491 481 489 508 478 529 503 499 517 491 473 478 0 0 0 0 0 0
0 0 0 0 0 0 0 0 0 0 0 0 0 0 0 0 0 0 0 0 0 0 485 480 476 481 475 487 483 481 481 478 489 484 484 482 484 489 490 491 481 485 492 491 488 491 492 495 496 497 491 498 497 502 501 497 495 500 493 495 498 499 495 501 498 504 499 497 502 499 497 500 499 497 498 500 498 495 503 516 518 513 520 504 519 517 539 518 526 526 522 518 536 503 523 516 525 527 518 519 528 513 519 550 589 515 550 518 505 513 551 572 555 553 0 0 0 0 0 0
0 0 0 0 0 0 0 0 0 0 0 0 0 0 0 0 0 0 0 0 0 0 497 477 465 472 478 476 476 479 480 478 474 478 476 482 481 482 484 483 488 492 485 485 491 489 488 489 489 490 491 487 493 492 495 490 495 487 495 498 501 489 490 498 492 497 498 494 491 495 503 492 492 491 495 493 497 496 492 489 496 513 517 501 518 496 491 517 504 499 505 502 505 494 517 477 510 502 505 487 479 480 488 508 482 505 478 508 480 474 523 487 466 441 0 0 0 0 0 0
0 0 0 0 0 0 0 0 0 0 0 0 0 0 0 0 0 0 0 0 0 0 516 474 465 479 481 477 476 472 476 481 479 482 480 486 484 484 479 484 481 484 485 486 488 485 488 486 490 486 491 491 490 487 489 488 495 491 493 496 492 491 498 493 494 495 497 498 495 496 494 494 494 497 494 493 495 488 507 489 484 489 485 499 520 501 501 486 499 511 519 527 492 504 523 489 481 470 482 503 482 487 484 466 474 466 506 460 507 436 478 460 491 460 476 415 0 0 0 0
0 0 0 0 0 0 0 0 0 0 0 0 0 0 0 0 0 0 0 0 0 0 575 472 475 474 475 476 473 477 474 475 480 483 483 483 481 483 481 484 485 488 487 484 490 484 489 485 490 482 486 494 489 490 494 493 492 491 498 496 497 495 498 494 494 494 494 492 499 491 496 494 493 497 492 499 499 488 491 500 501 484 497 524 506 515 511 497 498 499 512 512 520 529 554 503 522 526 496 505 510 511 473 488 481 478 501 527 481 484 488 443 527 524 474 0 0 0 0 0
0 0 0 0 0 0 0 0 0 0 0 0 0 0 0 0 0 0 0 0 0 0 0 472 470 472 474 469 470 477 469 480 478 475 476 477 479 481 480 479 486 484 485 485 486 482 489 488 485 486 489 484 493 488 492 492 489 494 494 492 491 493 488 495 494 491 489 497 494 490 494 493 493 492 492 493 489 484 491 484 486 497 484 478 493 475 480 504 472 485 466 483 493 511 500 501 501 494 486 501 483 473 499 476 470 464 465 455 458 461 444 464 450 0 0 0 0 0 0 0
0 0 0 0 0 0 0 0 0 0 0 0 0 0 0 0 0 0 0 0 0 0 0 494 474 470 473 471 470 476 474 479 476 480 481 476 478 486 486 478 483 482 488 488 483 483 490 488 492 490 488 491 489 492 492 494 493 491 494 495 492 492 494 494 492 500 494 500 494 490 498 494 494 489 489 490 493 489 482 506 486 499 489 497 504 488 498 488 482 506 479 495 516 496 486 487 499 493 500 496 511 508 498 498 490 483 471 515 470 476 495 454 470 0 0 0 0 0 0 0
0 0 0 0 0 0 0 0 0 0 0 0 0 0 0 0 0 0 0 0 0 0 0 521 468 476 475 469 474 471 480 475 482 477 475 480 476 481 478 482 487 483 487 487 488 487 492 486 489 483 493 493 485 486 494 489 492 497 488 493 497 491 494 496 498 495 495 497 492 495 492 494 495 497 494 493 501 486 505 505 499 537 512 504 531 535 510 517 499 518 488 519 529 514 513 508 509 520 504 515 534 499 518 487 494 497 504 502 529 512 511 492 493 516 0 0 0 0 0 0
0 0 0 0 0 0 0 0 0 0 0 0 0 0 0 0 0 0 0 0 0 0 0 0 473 466 469 470 471 472 476 469 475 476 475 474 478 476 481 480 482 488 483 483 486 488 483 483 485 489 490 487 488 494 490 493 492 490 489 494 496 492 493 493 498 490 492 491 495 494 496 494 491 494 489 493 496 492 487 493 484 500 490 491 495 509 498 490 487 515 518 495 503 496 504 525 493 497 488 498 490 488 483 488 485 467 527 509 456 482 474 461 464 481 461 477 0 0 0 0
0 0 0 0 0 0 0 0 0 0 0 0 0 0 0 0 0 0 0 0 0 0 0 0 558 473 473 475 473 474 480 476 473 478 477 481 479 477 483 484 482 485 483 489 486 488 491 486 486 489 491 489 493 495 495 492 496 489 496 489 498 490 493 496 493 494 492 495 495 491 495 495 490 490 493 498 501 518 499 509 498 519 520 498 520 511 525 520 511 526 532 519 541 523 537 520 532 564 533 508 506 538 498 491 551 496 512 499 549 536 523 470 546 514 485 0 0 0 0 0
0 0 0 0 0 0 0 0 0 0 0 0 0 0 0 0 0 0 0 0 0 0 0 0 0 473 465 469 466 468 472 480 479 470 471 477 479 480 478 480 481 480 481 485 484 485 487 483 483 483 486 485 488 490 486 490 493 488 487 491 491 490 491 493 497 489 490 492 493 492 490 490 494 490 494 480 486 469 489 484 501 501 491 488 498 503 508 485 491 483 496 496 483 475 491 510 508 505 494 484 495 491 482 468 468 461 475 492 476 484 485 506 497 485 0 0 0 0 0 0
0 0 0 0 0 0 0 0 0 0 0 0 0 0 0 0 0 0 0 0 0 0 0 0 0 491 471 462 463 470 467 467 472 471 475 477 472 474 474 476 477 477 483 481 479 484 481 485 481 484 483 484 490 490 490 492 487 492 489 489 491 489 491 485 485 492 492 490 488 487 494 488 492 489 487 485 487 470 479 474 470 483 488 477 478 486 483 477 485 489 492 484 481 484 474 496 473 488 473 456 476 465 480 424 433 454 473 445 441 429 443 425 465 478 405 0 0 0 0 0
0 0 0 0 0 0 0 0 0 0 0 0 0 0 0 0 0 0 0 0 0 0 0 0 0 0 477 466 462 467 464 475 468 472 470 476 474 475 471 475 476 479 482 483 484 484 484 484 487 483 487 483 491 488 489 488 492 489 489 491 486 486 490 486 493 494 495 490 492 491 501 491 489 490 479 490 483 489 493 491 490 491 484 499 485 507 482 482 478 495 500 482 498 507 477 495 492 506 520 487 507 495 515 462 487 488 482 486 472 489 452 482 500 532 0 0 0 0 0 0
0 0 0 0 0 0 0 0 0 0 0 0 0 0 0 0 0 0 0 0 0 0 0 0 0 0 0 458 467 466 464 467 464 468 473 473 468 476 475 476 477 478 476 475 479 482 481 473 483 481 480 486 484 485 482 481 487 485 479 488 486 484 487 487 492 487 486 486 489 490 488 485 485 480 478 476 462 479 473 464 468 478 483 471 472 495 477 463 463 458 477 488 469 483 460 476 459 462 487 467 461 465 494 444 470 443 451 434 424 429 442 436 420 430 0 0 0 0 0 0
0 0 0 0 0 0 0 0 0 0 0 0 0 0 0 0 0 0 0 0 0 0 0 0 0 0 0 522 470 468 470 468 472 473 474 477 473 471 472 478 476 475 482 479 478 480 484 482 481 485 482 482 490 489 485 488 489 486 484 482 488 487 486 491 488 490 491 490 491 487 486 488 484 474 484 497 486 495 474 485 495 474 487 479 510 467 509 467 492 502 481 511 483 484 487 488 489 497 497 500 498 486 493 470 466 464 480 462 450 455 526 443 475 514 501 0 0 0 0 0
0 0 0 0 0 0 0 0 0 0 0 0 0 0 0 0 0 0 0 0 0 0 0 0 0 0 0 0 527 469 466 464 472 466 477 473 477 472 474 474 476 482 478 475 481 482 480 482 480 482 486 487 484 488 487 487 485 485 487 483 486 485 492 485 480 491 486 486 490 491 486 488 476 496 486 490 489 486 485 494 485 494 492 499 488 499 508 484 506 495 487 495 507 488 515 511 492 498 506 504 490 515 499 512 506 495 478 497 493 520 533 500 565 529 0 0 0 0 0 0
0 0 0 0 0 256 233 255 310 0 0 0 0 0 0 0 0 0 0 0 0 0 0 0 0 0 0 0 0 483 461 465 460 473 465 472 471 473 471 472 473 475 480 472 479 479 481 481 479 480 481 481 477 485 487 483 483 484 486 480 482 484 486 486 485 491 489 485 483 486 477 489 483 491 476 479 484 478 482 476 487 467 482 490 475 479 478 475 498 486 479 488 522 487 473 496 495 475 474 475 485 477 487 456 461 480 459 486 476 454 453 450 458 442 460 0 0 0 0 0
0 0 0 0 251 230 233 238 240 294 377 0 0 0 0 0 0 0 0 0 0 2270 0 0 0 0 0 0 0 0 464 463 467 471 472 477 474 474 475 472 479 479 472 473 479 474 481 480 481 483 483 483 483 485 479 484 481 485 486 482 482 481 485 490 487 487 488 488 489 489 482 493 490 485 493 494 497 485 483 493 495 481 490 493 498 496 487 501 492 487 491 478 506 497 517 509 509 501 498 521 487 515 508 500 494 512 515 490 501 498 499 547 470 546 0 0 0 0 0 0
0 0 0 230 215 222 226 222 234 241 330 0 0 0 0 0 0 0 0 0 0 0 0 0 0 0 0 0 0 0 0 476 464 464 466 466 465 468 465 470 469 469 471 472 475 471 471 469 475 473 474 473 479 472 480 478 481 477 479 481 480 487 480 484 477 481 483 478 465 491 476 467 486 475 485 473 472 474 479 483 485 483 489 472 486 484 462 470 492 478 482 477 507 469 470 487 481 460 497 482 465 457 514 493 457 443 493 481 487 446 448 456 495 453 461 0 0 0 0 0
199 242 234 255 253 275 272 230 231 235 319 0 371 401 404 402 430 440 397 410 445 444 425 429 438 429 440 425 440 469 432 459 463 467 462 467 465 465 463 465 468 468 479 470 470 473 476 472 474 473 475 476 470 478 478 482 479 472 483 478 476 476 477 476 479 480 480 483 477 478 472 459 462 477 477 455 468 474 481 477 470 469 462 459 457 472 469 477 475 467 456 470 464 473 465 446 459 460 451 482 460 460 447 438 448 461 430 443 439 447 420 475 420 419 436 397 0 0 0 0
207 206 220 219 240 256 249 230 229 267 383 420 384 407 403 407 410 398 402 414 412 413 421 425 430 436 437 443 447 446 460 457 453 454 454 459 455 464 462 456 464 464 459 467 463 469 471 472 471 466 471 468 473 473 466 465 470 470 471 469 478 468 470 476 474 472 476 479 471 474 466 467 463 464 463 456 463 462 465 457 467 452 460 458 465 452 449 462 463 464 460 461 450 465 459 461 451 454 453 452 451 456 464 477 451 450 461 443 457 434 433 437 471 466 458 483 486 464 0 0
165 175 179 207 219 216 233 222 221 290 332 343 356 351 357 354 357 358 363 373 378 383 387 395 396 397 418 409 415 433 433 438 440 439 438 437 436 440 442 450 444 450 446 449 449 448 449 448 449 453 453 451 452 457 452 456 453 455 460 459 459 460 456 457 458 455 453 453 451 452 447 446 454 440 438 433 431 423 416 431 419 430 418 426 405 427 417 421 404 419 427 408 419 410 420 410 416 406 421 418 409 417 404 419 406 401 409 400 403 391 405 393 417 393 394 396 390 361 0 0
292 269 241 220 235 228 233 234 267 371 328 335 344 326 345 331 350 349 346 350 347 358 368 366 373 388 391 401 418 420 415 422 427 426 431 434 435 431 435 424 423 437 432 431 435 434 438 436 442 440 446 447 442 447 445 443 446 443 443 442 446 442 444 444 437 439 440 442 440 436 435 438 428 429 418 419 408 411 410 401 397 397 398 396 411 404 391 388 395 388 392 383 398 390 399 399 402 398 387 389 393 393 392 412 406 374 376 388 366 387 383 401 399 390 392 416 407 370 402 423
319 320 303 242 233 235 234 244 307 307 307 314 328 312 302 324 305 320 322 327 335 327 331 334 355 366 384 384 405 395 407 405 411 412 409 410 408 413 416 421 419 418 419 417 416 416 419 429 419 416 415 413 419 424 429 427 419 433 422 422 422 420 417 420 420 419 421 414 419 418 417 412 411 402 412 396 386 382 373 365 369 382 359 360 371 365 361 368 372 366 368 374 367 381 368 368 367 363 368 382 359 374 371 371 383 371 369 372 367 373 362 373 383 365 393 387 371 376 381 385
267 267 294 262 267 259 261 269 289 296 277 294 271 287 286 291 285 293 283 283 294 314 321 323 335 347 359 368 367 384 388 389 386 382 392 387 398 395 389 396 392 397 396 394 395 394 396 386 398 392 393 396 397 398 402 396 398 401 400 398 393 394 397 398 399 393 397 402 392 394 389 388 390 380 379 367 361 345 331 338 331 329 328 326 333 327 336 335 334 327 334 332 327 336 343 333 323 330 337 325 331 323 333 334 330 340 327 342 343 327 333 330 332 345 347 328 339 350 328 313
260 243 258 256 263 252 259 259 276 265 266 267 262 271 261 269 274 281 277 277 278 299 298 304 316 315 330 340 350 364 365 370 371 370 364 364 366 373 375 372 377 376 374 378 370 380 372 367 364 370 379 378 381 381 383 377 382 384 377 376 383 379 374 376 374 374 374 373 374 376 373 368 366 357 344 342 333 329 323 325 310 303 314 304 318 312 305 311 305 312 309 299 309 327 319 307 305 305 299 298 320 311 307 311 321 319 330 320 327 317 328 326 337 315 321 327 331 349 340 352
220 226 229 220 229 237 237 236 246 239 233 244 240 239 238 235 247 239 251 253 258 265 269 278 288 306 312 321 328 329 329 336 344 336 341 340 342 336 339 343 353 347 353 348 348 348 347 347 348 342 343 358 354 352 345 350 347 346 350 348 354 350 350 347 345 350 343 349 350 349 344 343 340 335 327 321 307 295 293 291 283 279 284 274 276 275 283 285 279 278 280 283 287 279 284 276 275 273 286 282 285 280 275 271 278 274 280 266 275 291 267 276 270 299 288 262 289 277 258 286
217 222 217 225 225 211 223 225 225 229 224 219 225 227 226 230 227 223 236 238 239 246 255 259 274 283 291 298 300 300 311 316 321 318 317 320 312 319 321 327 321 318 318 316 319 324 327 320 323 323 322 319 331 324 331 328 327 320 332 325 320 321 324 329 324 328 327 324 320 315 316 325 322 314 303 297 281 274 274 269 263 265 265 268 260 262 250 254 254 253 259 259 256 253 260 255 259 252 266 263 253 253 257 258 249 249 251 261 252 263 268 258 253 266 264 251 254 272 244 261
210 204 206 217 213 218 210 212 212 210 207 213 208 215 214 218 219 221 218 222 221 236 247 257 251 264 269 272 285 286 286 294 293 291 298 297 299 295 303 306 298 297 299 297 304 295 310 304 303 303 309 300 303 302 296 306 299 303 304 306 303 299 309 306 308 305 304 303 305 309 295 298 300 293 288 281 272 264 264 257 247 247 252 241 240 248 241 243 243 243 244 246 240 241 246 236 235 239 250 236 235 246 248 244 245 243 236 246 246 251 250 250 258 273 249 253 266 237 240 238
170 193 196 195 203 205 203 188 181 189 184 182 187 189 184 190 186 193 204 211 215 217 234 229 236 243 245 257 266 264 272 265 269 270 278 282 278 279 282 282 273 279 277 287 284 277 281 282 279 286 286 279 281 284 278 286 287 283 285 286 282 285 281 287 285 285 283 281 282 282 285 281 279 268 263 259 254 244 235 231 228 226 233 224 228 227 222 223 224 226 228 228 227 222 232 226 222 217 222 222 227 224 219 225 227 220 225 223 224 229 223 238 239 208 219 227 221 220 233 203
182 173 190 193 185 182 188 201 181 181 182 180 182 182 191 182 188 189 188 208 207 211 216 226 227 232 237 241 245 250 260 253 261 259 258 260 260 259 265 268 264 265 269 270 261 264 263 266 262 264 264 265 268 269 266 266 267 269 265 274 267 269 265 274 270 269 267 270 267 260 269 256 259 254 251 245 238 235 224 223 215 218 219 216 221 221 216 214 215 203 214 222 217 210 212 208 213 197 209 217 219 216 213 210 213 215 217 212 219 218 217 220 221 236 210 225 226 218 223 232
173 176 169 169 173 173 180 178 181 179 174 179 179 183 177 184 182 178 182 179 181 190 204 214 215 224 222 224 227 230 232 242 239 241 242 242 240 246 246 246 246 249 249 248 255 249 248 246 245 252 248 252 247 249 243 245 250 251 249 251 251 243 252 251 242 253 251 249 246 250 242 245 241 242 234 226 224 222 198 212 199 197 189 190 198 192 191 194 192 190 194 209 197 189 210 189 191 187 191 208 207 207 205 193 194 189 184 206 208 207 212 209 209 206 219 206 209 217 223 222
170 171 175 174 170 172 172 175 173 180 174 174 175 174 173 175 180 183 185 187 184 179 182 194 211 192 196 218 216 220 229 223 222 226 228 225 230 230 227 231 231 232 236 231 229 235 230 228 234 236 236 232 236 234 236 236 236 239 237 239 232 235 239 235 231 233 233 231 231 233 234 235 229 223 215 218 211 194 186 196 197 185 195 185 189 195 184 194 189 189 193 190 192 190 180 181 179 184 185 186 175 182 181 187 188 189 186 176 176 179 186 187 195 186 203 205 203 193 191 176
162 168 172 174 173 168 172 168 168 167 168 169 170 173 174 172 173 172 176 184 177 186 189 185 184 186 190 190 209 207 209 213 214 211 214 217 216 215 215 212 218 219 222 217 221 223 224 216 222 221 218 223 222 224 220 219 224 219 223 222 224 222 219 221 221 217 220 220 220 220 227 220 217 213 193 194 187 197 190 190 186 186 187 185 187 186 185 183 187 188 186 182 183 183 180 179 181 179 185 183 182 181 177 181 180 182 182 179 179 179 173 178 176 192 185 197 207 179 205 215
152 155 160 162 160 158 161 162 158 161 153 158 159 162 162 162 161 169 165 172 171 172 176 182 183 188 183 185 193 192 194 188 181 195 187 194 184 189 187 192 192 196 190 195 197 191 198 195 193 195 195 195 198 192 197 191 193 195 194 194 202 195 195 200 197 197 193 195 195 198 195 196 197 193 190 197 198 191 185 180 176 176 178 176 177 173 175 175 174 175 178 175 168 170 173 173 167 168 169 172 167 171 169 164 175 171 172 164 165 171 173 171 170 171 171 166 161 176 166 160
145 151 152 152 155 158 161 158 160 156 159 155 155 151 159 157 154 162 157 165 167 167 176 175 179 179 177 181 182 184 188 186 187 189 188 189 194 196 188 190 192 195 189 187 193 197 195 196 197 192 194 199 197 195 198 194 194 197 197 200 197 198 200 199 192 194 193 198 198 193 192 191 189 194 187 184 188 181 178 172 173 168 167 165 169 170 170 167 167 169 166 167 169 168 166 164 161 168 158 170 167 167 169 164 163 158 158 160 168 159 160 158 174 161 166 158 158 172 164 157
145 143 147 146 150 147 148 150 151 153 148 149 151 155 154 148 154 148 158 158 158 163 169 173 171 170 174 175 176 182 178 178 183 180 179 184 184 180 184 182 184 182 187 186 183 185 183 185 189 185 185 188 187 188 189 187 186 189 0 190 190 187 187 186 191 189 190 185 184 187 183 183 181 178 175 175 175 170 171 166 159 158 163 160 159 160 164 160 164 161 158 163 160 157 159 162 156 160 162 161 161 164 166 158 157 162 161 155 163 160 154 163 160 154 165 168 160 152 161 171
131 138 133 137 138 148 147 145 144 145 144 144 142 144 143 145 143 148 148 150 156 157 161 163 167 164 167 166 169 170 172 171 175 173 170 171 174 172 173 175 174 180 175 175 175 178 173 177 176 177 179 177 179 177 179 180 181 0 0 176 177 174 178 184 178 177 176 180 180 175 176 175 176 173 171 172 164 162 162 160 164 151 152 150 158 159 157 158 153 153 149 153 155 151 155 149 153 155 153 153 157 150 153 151 155 149 147 148 155 151 154 150 148 148 141 147 150 146 165 140
138 136 131 140 143 143 148 140 139 140 140 141 145 145 142 143 146 148 146 150 149 153 153 155 158 159 159 161 167 166 160 165 172 166 165 165 168 169 167 169 172 0 169 169 172 173 171 171 171 172 177 173 175 174 178 0 172 170 0 176 174 0 0 174 172 171 173 170 171 171 168 168 170 170 165 165 165 160 157 154 151 156 155 150 155 153 151 145 151 156 145 151 150 149 149 146 153 151 155 152 154 144 146 149 147 148 142 145 153 148 150 146 146 160 149 154 141 153 158 168
130 123 125 115 132 137 141 140 129 130 133 131 126 132 137 132 134 139 136 139 140 145 144 151 147 156 159 154 156 160 163 155 154 161 157 156 159 159 0 0 0 0 0 0 0 0 0 166 164 166 167 162 164 167 0 0 0 169 166 0 0 0 0 0 164 0 167 0 161 161 164 161 159 162 155 159 153 157 149 150 148 145 149 148 142 149 145 145 147 144 142 147 145 144 138 139 142 146 139 142 139 138 139 137 137 139 137 136 134 143 146 142 150 152 147 144 142 146 144 132
123 128 124 124 127 134 133 131 137 131 127 131 132 133 132 125 122 138 135 138 139 140 146 146 146 150 152 151 152 154 153 155 156 156 153 152 158 0 0 0 0 0 0 0 0 0 0 0 0 162 164 163 0 0 0 0 0 0 0 0 0 0 0 0 161 161 0 0 0 0 0 155 160 154 152 150 154 154 149 143 141 138 143 142 140 144 143 138 146 141 135 140 138 140 139 136 142 138 139 139 137 134 139 135 133 136 132 136 140 140 140 150 139 134 141 140 137 133 140 147
114 108 119 122 128 127 127 129 127 126 132 124 120 118 122 130 134 124 129 135 127 126 135 143 141 140 144 145 147 150 151 147 151 151 151 150 0 0 0 0 0 0 0 0 0 0 0 0 152 152 157 0 0 0 0 0 0 0 0 0 0 0 0 0 0 0 0 0 0 0 0 0 150 153 149 150 145 143 141 147 129 142 137 137 125 137 139 138 139 132 139 141 139 128 118 127 139 141 133 138 135 137 134 130 128 133 134 134 136 143 142 140 141 146 150 139 137 133 130 159
105 105 115 112 109 113 120 118 118 121 116 115 119 115 127 123 124 129 118 117 131 123 126 124 136 139 140 139 142 144 143 142 146 146 143 140 0 0 0 0 0 0 0 0 0 0 0 0 0 0 0 0 0 0 0 0 0 0 0 0 0 0 0 0 0 0 0 0 0 0 0 0 145 140 140 140 139 131 130 131 126 122 122 122 125 123 124 126 122 127 125 123 116 126 125 125 123 132 122 120 118 128 133 122 128 129 126 123 131 136 129 132 118 133 111 126 111 103 122 135
110 109 118 115 116 114 118 117 119 117 114 116 119 118 119 122 120 119 123 114 117 114 120 118 131 128 138 140 0 135 0 0 0 137 141 0 0 0 0 0 0 0 0 0 0 0 0 0 0 0 0 0 0 0 0 0 0 0 0 0 0 0 0 0 0 0 0 0 0 0 0 0 0 141 124 126 125 123 121 123 122 116 119 124 115 119 118 123 119 116 116 122 117 120 113 124 118 122 119 116 118 123 118 121 119 113 126 119 109 129 120 104 125 121 132 114 115 129 148 149
101 98 108 112 107 103 106 102 103 102 111 104 108 107 102 110 108 110 115 110 114 115 112 119 121 123 125 119 119 135 0 0 0 0 126 0 0 0 0 0 0 0 0 0 0 0 0 0 0 0 0 0 0 0 0 0 0 0 0 0 0 0 0 0 0 0 0 0 0 0 0 0 131 0 121 127 123 117 119 113 118 118 108 112 112 119 112 116 112 114 115 117 110 112 110 109 110 111 114 107 113 111 112 113 112 116 108 107 108 102 107 103 98 124 116 95 113 129 113 147
97 100 90 92 101 100 99 101 99 106 99 103 103 103 105 100 107 109 116 107 107 109 108 110 115 109 113 117 119 121 0 123 0 0 0 0 0 0 0 0 0 0 0 0 0 0 0 0 0 0 0 0 0 0 0 0 0 0 0 0 0 0 0 0 0 0 0 0 0 0 0 0 0 120 0 115 119 114 112 109 111 112 105 102 108 109 110 116 105 109 113 110 114 111 109 117 107 105 100 120 111 104 110 102 98 113 103 102 114 104 100 100 104 90 96 116 112 99 86 96
95 102 98 102 98 101 102 92 95 99 99 100 102 94 101 95 108 105 114 115 111 111 98 107 113 110 116 115 113 121 116 119 121 0 0 0 0 0 0 0 0 0 0 0 0 0 0 0 0 0 0 0 0 0 0 0 0 0 0 0 0 0 0 0 0 0 0 0 0 0 0 0 121 122 110 122 114 116 119 117 105 111 106 118 108 109 103 105 103 105 106 107 110 96 100 102 107 102 117 108 108 106 110 105 112 107 111 94 104 103 103 99 96 100 126 99 135 134 122 130
86 86 79 84 78 84 83 95 91 83 91 92 95 95 93 90 76 93 91 90 91 85 103 102 100 100 111 106 0 0 104 106 118 0 0 0 0 0 0 0 0 0 0 0 0 0 0 0 0 0 0 0 0 0 0 0 0 0 0 0 0 0 0 0 0 0 0 0 0 0 0 116 109 112 104 112 108 107 102 101 101 103 95 93 99 98 90 99 105 102 91 95 103 85 87 97 94 104 82 99 94 94 95 95 80 90 92 95 93 89 91 90 85 92 87 92 94 90 101 133
93 87 89 90 96 98 96 108 92 94 95 95 92 93 94 97 97 92 101 100 93 104 105 104 104 106 110 108 0 101 110 107 117 113 119 108 0 0 0 0 0 116 0 0 0 0 0 0 0 0 0 0 0 0 0 0 0 0 0 0 117 0 0 0 112 0 0 0 110 0 109 113 113 111 113 109 109 111 101 97 110 103 103 91 97 101 104 103 100 102 107 105 111 95 101 104 101 93 98 112 98 96 97 101 93 102 98 87 88 82 89 90 92 106 101 102 94 105 132 133
86 92 93 88 97 96 92 95 88 98 86 89 91 91 90 87 93 100 96 93 100 92 95 112 90 101 104 102 105 108 90 0 110 102 99 105 0 116 118 0 110 0 0 0 0 0 0 0 0 0 0 0 0 0 0 0 0 109 0 0 109 108 104 114 114 112 109 99 113 108 106 103 102 102 110 109 101 93 103 98 95 96 100 88 94 94 95 103 107 94 98 107 109 88 86 85 91 93 93 88 97 83 93 97 89 88 97 94 102 92 92 93 89 94 109 99 135 147 142 127
84 83 81 87 91 92 102 84 89 82 87 88 84 93 93 90 89 87 89 86 78 95 94 83 85 91 89 94 102 93 96 99 97 97 90 110 99 101 103 100 102 98 101 111 106 90 0 0 95 102 0 107 105 90 102 108 107 102 105 105 101 107 110 103 101 110 103 98 100 106 97 106 105 102 105 93 95 99 97 92 96 93 90 96 92 94 88 90 95 94 98 94 95 92 92 89 95 94 88 83 85 86 91 90 87 81 96 81 79 95 84 95 96 93 82 84 98 97 103 109
84 80 86 83 86 83 100 101 89 83 83 81 84 85 85 88 90 92 89 96 83 100 94 95 91 97 93 87 97 98 94 89 94 92 95 96 98 99 95 106 101 96 100 104 102 96 104 0 105 103 97 105 100 98 100 99 102 108 97 104 104 93 95 104 104 102 98 104 95 109 100 101 99 96 106 86 94 96 94 85 98 97 87 93 98 94 87 87 92 88 85 101 87 92 90 81 90 92 97 84 90 96 83 89 84 100 89 97 91 87 86 87 105 101 102 103 103 95 127 116
82 76 71 67 80 84 87 89 86 79 83 83 88 80 90 84 86 84 85 85 84 84 92 90 86 86 93 93 86 94 91 90 79 93 91 96 97 85 91 84 90 90 85 91 95 94 89 105 96 89 97 97 96 92 89 99 102 86 98 95 101 98 81 98 94 97 98 92 77 96 94 88 92 92 97 95 91 95 94 94 89 95 81 87 84 94 89 89 85 87 95 76 90 81 86 86 84 79 86 90 81 86 81 71 83 81 86 81 80 94 89 95 78 82 83 104 120 108 130 80
74 73 80 86 69 84 88 85 85 79 81 89 77 81 83 88 86 87 79 90 84 91 83 92 87 86 90 86 92 91 94 94 90 99 86 91 85 93 89 93 94 96 94 91 87 98 96 86 101 90 92 96 95 83 98 97 89 84 89 96 97 97 93 93 98 96 88 95 101 92 95 95 81 96 96 84 97 95 96 93 93 87 83 88 79 85 90 79 92 90 78 89 77 80 88 78 90 85 78 82 82 80 80 78 75 80 78 80 78 86 84 80 87 85 103 81 78 70 71 135
