0 0 0 0 0 0 0 0 0 0 0 0 0 0 0 0 0 0 0 0 0 0 0 0 0 0 0 0 0 0 0 0 0 0 0 0 0 0 0 0 0 0 0 0 0 0 0 0 0 0 0 0 0 0 0 0 0 0 0 0 0 0 0 0 0 0 0 0 0 0 0 0 0 0 0 0 0 0 0 0 0 0 0 0 0 0 0 0 0 0 0 0 0 0 0 0 0 0 0 0 0 0 0 0 0 0 0 0 0 0 0 0 0 0 0 0 0 0 0 0
0 0 0 0 0 0 0 0 0 0 0 0 0 0 0 0 0 0 0 0 0 0 0 0 0 0 0 0 0 0 0 0 0 0 0 0 0 0 0 0 0 0 0 0 0 0 0 0 0 0 0 0 0 0 0 0 0 0 0 0 0 0 0 0 0 0 0 0 0 0 0 0 0 0 0 0 0 0 0 0 0 0 0 0 0 0 0 0 0 0 0 0 0 0 0 0 0 0 0 0 0 0 0 0 0 0 0 0 0 0 0 0 0 0 0 0 0 0 0 0
0 0 0 0 0 0 0 0 0 0 0 0 0 0 0 0 0 0 0 0 0 0 0 0 0 0 0 0 0 0 0 0 0 0 0 0 0 0 0 0 0 0 0 0 0 0 0 0 0 0 0 0 0 0 0 0 0 0 0 0 0 0 0 0 0 0 0 0 0 0 0 0 0 0 0 0 0 0 0 0 0 0 0 0 0 0 0 0 0 0 0 0 0 0 0 0 0 0 0 0 0 0 0 0 0 0 0 0 0 0 0 0 0 0 0 0 0 0 0 0
0 0 0 0 0 0 0 0 0 0 0 0 0 0 0 0 0 0 0 0 0 0 0 0 0 0 0 0 0 0 0 0 0 0 0 0 0 0 0 0 0 0 0 0 0 0 0 0 0 0 0 0 0 0 0 0 0 0 0 0 0 0 0 0 0 0 0 0 0 0 0 0 0 0 0 0 0 0 0 0 0 0 0 0 0 0 0 0 0 0 0 0 0 0 0 0 0 0 0 0 0 0 0 0 0 0 0 0 0 0 0 0 0 0 0 0 0 0 0 0
0 0 0 0 0 0 0 0 0 0 0 0 0 0 0 0 0 0 0 0 0 0 0 0 0 0 0 0 0 0 0 0 0 0 0 0 0 0 0 0 0 0 0 0 0 0 0 0 0 0 0 0 0 0 0 0 0 0 0 0 0 0 0 0 0 0 0 0 0 0 0 0 0 0 0 0 0 0 0 0 0 0 0 0 0 0 0 0 0 0 0 0 0 0 0 0 0 0 0 0 0 0 0 0 0 0 0 0 0 0 0 0 0 0 0 0 0 0 0 0
0 0 0 0 0 0 0 0 0 0 0 0 0 0 0 0 0 0 0 0 0 0 0 0 0 0 0 0 0 0 0 0 0 0 0 0 0 0 0 524 515 542 489 522 514 536 504 517 511 511 499 525 509 546 483 0 0 0 0 0 0 0 0 0 0 0 0 0 0 0 0 0 0 0 0 0 0 0 0 0 0 0 0 0 0 0 0 0 0 0 0 0 0 0 0 0 0 0 0 0 0 0 0 0 0 0 0 0 0 0 0 0 0 0 0 0 0 0 0 0
0 0 0 0 0 0 0 0 0 0 0 0 0 0 0 0 0 0 0 0 0 0 0 0 0 0 0 0 0 0 0 0 0 0 0 0 0 479 497 495 506 498 486 489 488 495 490 517 506 515 491 496 515 514 494 507 507 488 470 472 0 0 0 0 0 0 0 0 0 0 0 0 0 0 0 0 0 0 0 0 0 0 0 0 0 0 0 0 0 0 0 0 0 0 0 0 0 0 0 0 0 0 0 0 0 0 0 0 0 0 0 0 0 0 0 0 0 0 0 0
0 0 0 0 0 0 0 0 0 0 0 0 0 0 0 0 0 0 0 0 0 0 0 0 0 0 0 0 0 0 0 0 0 0 0 512 500 506 498 485 505 492 503 506 505 514 507 511 525 502 501 511 509 518 523 524 505 500 508 505 492 522 529 538 525 0 0 0 0 0 0 0 0 0 0 0 0 0 0 0 0 0 0 0 0 0 0 0 0 0 0 0 0 0 0 0 0 0 0 0 0 0 0 0 0 0 0 0 0 0 0 0 0 0 0 0 0 0 0 0
0 0 0 0 0 0 0 0 0 0 0 0 0 0 0 0 0 0 0 0 0 0 0 0 0 0 0 0 0 0 0 0 0 492 517 509 516 507 509 504 514 508 506 498 493 504 513 503 504 520 490 511 519 504 502 512 512 509 504 519 513 521 513 526 525 522 534 556 583 624 638 584 596 0 596 619 596 573 0 624 0 0 0 0 0 0 0 0 0 0 0 0 0 0 0 0 0 0 0 0 0 0 0 0 0 0 0 0 0 0 0 0 0 0 0 0 0 0 0 0
0 0 0 0 0 0 0 0 0 0 0 0 0 0 0 0 0 0 0 0 0 0 0 0 0 0 0 0 0 0 0 514 499 498 492 497 486 492 503 480 501 502 507 497 497 505 510 507 512 498 504 506 500 504 499 501 514 508 503 505 506 504 502 516 503 519 507 519 523 547 532 578 526 600 561 560 548 554 538 591 569 596 533 560 547 589 531 602 549 574 553 579 551 587 552 618 588 581 615 594 533 541 557 569 0 0 0 0 0 0 0 0 0 0 0 0 0 0 0 0
0 0 0 0 0 0 0 0 0 0 0 0 0 0 0 0 0 0 0 0 0 0 0 0 0 0 0 0 0 0 552 511 511 510 494 511 512 499 505 519 523 498 521 514 501 513 514 503 510 509 510 510 516 517 510 515 513 510 497 508 508 502 518 509 510 513 527 517 521 523 555 580 591 597 599 602 671 582 580 621 606 609 615 609 618 591 591 579 582 617 650 580 601 627 594 605 597 619 602 611 651 654 639 600 621 619 593 620 603 0 0 0 0 0 0 0 0 0 0 0
0 0 0 0 0 0 0 0 0 0 0 0 0 0 0 0 0 0 0 0 0 0 0 0 0 0 0 0 539 521 515 488 494 501 502 496 506 499 508 500 508 499 497 497 517 513 505 506 506 502 509 493 508 511 504 511 500 498 502 508 515 497 509 501 510 508 509 510 507 514 511 576 581 584 596 578 561 573 580 547 591 586 599 560 600 547 614 563 562 580 524 588 584 592 582 551 587 558 568 577 568 557 595 539 588 577 548 574 538 0 0 0 0 0 0 0 0 0 0 0
0 0 0 0 0 0 0 0 0 0 0 0 0 0 0 0 0 0 0 0 0 0 0 0 0 0 0 469 503 497 504 490 501 491 497 501 480 491 504 494 500 510 497 507 501 513 501 507 493 496 496 501 506 501 508 501 498 508 513 499 506 501 508 507 508 504 509 511 512 508 506 512 528 541 554 534 545 533 532 576 503 521 583 558 564 549 503 532 551 562 568 552 514 560 574 556 526 511 552 546 571 537 565 534 518 554 531 514 534 0 567 0 0 0 0 0 0 0 0 0
0 0 0 0 0 0 0 0 0 0 0 0 0 0 0 0 0 0 0 0 0 0 0 0 0 0 510 494 496 498 498 492 490 502 494 493 494 495 499 503 504 504 508 509 512 508 509 499 507 500 509 504 509 504 513 503 499 511 511 510 516 507 502 508 522 515 510 509 498 508 505 521 525 547 523 540 540 522 563 541 581 591 563 534 564 528 570 545 588 539 540 540 546 552 563 569 574 574 560 566 561 555 592 517 592 567 531 547 524 0 0 0 0 0 0 0 0 0 0 0
0 0 0 0 0 0 0 0 0 0 0 0 0 0 0 0 0 0 0 0 0 0 0 0 0 484 477 491 501 480 504 488 500 495 488 485 491 492 499 489 494 506 490 502 496 497 500 495 502 502 497 507 506 503 496 505 496 504 499 494 505 499 505 507 498 503 495 504 508 498 506 507 497 513 497 521 524 512 564 507 504 503 512 519 502 466 564 559 541 500 545 528 557 539 521 516 547 507 535 548 558 518 517 498 496 510 487 533 450 469 0 0 0 0 0 0 0 0 0 0
0 0 0 0 0 0 0 0 0 0 0 0 0 0 0 0 0 0 0 0 0 0 0 0 0 490 502 483 505 500 492 498 503 511 489 502 490 498 497 504 504 494 511 498 496 501 513 503 500 497 512 504 503 499 505 498 504 505 508 508 504 496 509 507 506 509 513 514 508 513 510 516 508 519 549 571 520 531 528 565 548 564 563 562 533 541 569 547 559 583 554 537 562 513 542 558 592 555 540 543 542 577 583 530 600 573 556 579 576 537 544 0 548 577 0 0 0 0 0 0
0 0 0 0 0 0 0 0 0 0 0 0 0 0 0 0 0 0 0 0 0 0 0 0 505 507 507 495 486 490 505 501 495 497 500 494 495 488 499 500 507 497 501 507 507 508 506 504 494 504 496 501 498 505 509 507 506 505 510 507 505 500 500 509 507 508 510 505 503 511 510 516 510 516 539 540 550 580 556 558 555 553 572 539 567 558 562 590 560 560 554 580 551 565 580 568 567 576 562 570 560 579 592 596 608 566 593 574 563 599 0 0 0 0 0 0 0 0 0 0
0 0 0 0 0 0 0 0 0 0 0 0 0 0 0 0 0 0 0 0 0 0 0 0 493 487 495 494 497 498 493 490 496 493 488 494 500 493 488 501 506 495 501 491 495 501 498 494 504 501 508 509 499 501 502 496 500 500 505 503 507 494 508 511 506 506 514 505 507 507 506 506 513 508 508 524 546 551 504 531 533 542 580 534 523 522 563 538 515 522 511 567 554 542 538 522 507 530 547 563 527 558 569 524 502 551 569 562 558 543 0 0 0 0 0 0 0 0 0 0
0 0 0 0 0 0 0 0 0 0 0 0 0 0 0 0 0 0 0 0 0 0 0 511 501 500 496 499 491 494 496 507 491 494 497 493 501 488 502 501 502 500 505 502 497 511 506 505 503 503 505 501 502 510 506 504 506 503 507 509 506 501 504 500 505 502 516 517 504 515 507 507 504 509 504 522 552 545 576 569 542 528 539 583 537 565 541 569 537 543 552 558 568 531 509 533 553 534 522 544 558 560 565 577 571 581 540 606 549 530 505 0 0 0 0 0 0 0 0 0
0 0 0 0 0 0 0 0 0 0 0 0 0 0 0 0 0 0 0 0 0 0 0 509 493 491 490 493 486 495 497 493 494 498 487 490 484 491 491 497 491 498 495 500 504 496 490 496 497 500 497 499 493 494 505 503 501 507 499 504 501 505 499 499 502 502 497 508 506 505 514 501 500 509 501 506 529 520 516 533 532 533 515 502 531 516 545 528 536 555 538 539 571 549 535 552 556 537 501 564 559 557 519 569 559 556 530 547 563 523 589 0 0 0 0 0 0 0 0 0
0 0 0 0 0 0 0 0 0 0 0 0 0 0 0 0 0 0 0 0 0 0 460 508 488 478 494 481 483 490 487 496 495 490 486 496 491 495 491 491 491 496 490 493 486 494 494 500 501 497 496 490 504 498 501 495 493 499 501 493 504 500 505 503 498 502 500 502 501 507 506 506 507 498 505 497 497 517 534 515 500 497 521 542 508 506 475 531 510 509 501 523 519 521 523 516 483 501 522 519 476 515 494 511 483 529 512 498 485 470 528 485 522 0 0 0 0 0 0 0
0 0 0 0 0 0 0 0 0 0 0 0 0 0 0 0 0 0 0 0 0 0 508 485 486 490 479 489 498 503 486 495 495 487 494 496 486 499 487 491 505 491 499 500 500 503 501 497 502 499 509 506 502 503 499 507 505 504 499 506 505 499 503 511 502 515 505 508 512 506 506 510 508 505 507 515 521 533 531 527 543 535 507 528 549 542 525 534 544 513 509 528 551 568 515 513 532 553 555 525 550 559 522 526 532 535 553 536 538 538 545 0 0 0 0 0 0 0 0 0
0 0 0 0 0 0 0 0 0 0 0 0 0 0 0 0 0 0 0 0 0 0 472 471 485 481 494 489 497 483 482 478 480 485 484 487 488 495 490 487 487 490 497 492 497 500 495 492 498 497 492 501 495 499 494 501 506 503 504 501 502 510 500 498 509 499 499 500 502 496 508 493 500 504 502 502 502 516 518 506 499 515 508 474 496 499 508 515 474 481 493 502 498 501 518 508 527 528 491 482 491 482 490 494 462 497 532 476 501 463 506 516 436 0 0 0 0 0 0 0
0 0 0 0 0 0 0 0 0 0 0 0 0 0 0 0 0 0 0 0 0 0 507 495 495 485 483 489 487 486 492 487 489 491 491 489 487 493 493 494 499 491 494 497 495 501 501 498 499 494 501 500 499 499 496 497 507 500 504 504 502 502 501 503 503 497 504 504 505 500 510 502 503 503 507 518 506 523 541 525 488 507 516 528 511 515 507 519 544 530 517 528 503 502 540 501 507 555 569 529 536 549 498 523 521 531 520 526 576 528 500 494 516 0 0 0 0 0 0 0
0 0 0 0 0 0 0 0 0 0 0 0 0 0 0 0 0 0 0 0 0 0 505 490 478 489 501 490 498 497 495 488 490 487 484 489 492 487 497 495 495 495 499 504 497 497 499 505 499 498 502 497 499 500 508 510 502 506 504 503 509 505 501 515 514 505 509 493 504 508 510 506 508 509 506 503 514 515 547 533 545 513 553 548 538 556 535 543 565 520 507 576 557 558 550 549 535 511 553 545 550 516 521 507 577 534 562 524 552 536 567 550 573 0 0 0 0 0 0 0
0 0 0 0 0 0 0 0 0 0 0 0 0 0 0 0 0 0 0 0 0 0 472 476 486 481 485 483 486 482 487 490 485 492 488 484 487 494 498 495 492 496 491 495 491 489 493 501 495 492 503 496 502 501 496 502 502 502 496 497 506 498 501 502 503 501 504 506 500 500 504 496 501 502 500 500 504 516 511 531 533 500 500 508 532 520 484 521 524 526 494 510 518 519 511 481 523 532 513 498 509 513 494 500 522 519 458 538 532 513 532 569 543 574 0 0 0 0 0 0
0 0 0 0 0 0 0 0 0 0 0 0 0 0 0 0 0 0 0 0 0 477 488 493 488 489 487 494 498 484 489 492 494 498 492 482 503 489 493 500 489 503 496 497 494 491 501 497 492 497 498 496 497 497 506 510 499 506 510 505 510 498 507 503 507 501 508 501 507 513 501 501 503 511 509 513 500 518 516 518 530 543 537 541 528 548 537 527 526 543 528 526 553 546 545 560 514 559 557 564 566 548 532 544 565 550 517 564 509 502 585 0 0 0 0 0 0 0 0 0
0 0 0 0 0 0 0 0 0 0 0 0 0 0 0 0 0 0 0 0 0 452 485 480 481 481 486 483 475 480 478 480 487 487 482 485 490 487 490 486 491 498 488 488 495 496 496 495 502 490 498 504 499 501 505 501 504 500 502 506 502 497 503 498 499 505 502 497 505 499 504 495 501 507 507 510 501 504 529 517 510 518 520 536 526 495 517 521 521 501 494 505 535 489 528 484 537 506 492 534 500 503 517 525 541 525 485 525 506 495 527 511 507 0 0 0 0 0 0 0
0 0 0 0 0 0 0 0 0 0 0 0 0 0 0 0 0 0 0 0 0 437 471 481 488 478 485 484 477 474 476 483 483 486 482 484 487 488 485 491 488 494 492 500 487 495 496 490 494 495 493 493 495 490 496 499 496 502 500 499 501 502 500 501 498 501 501 496 499 501 501 496 494 498 509 497 504 493 489 498 493 510 494 500 495 505 476 478 497 496 484 488 478 501 467 475 479 488 498 539 496 503 481 486 469 485 487 438 509 468 448 437 488 516 434 0 0 0 0 0
0 0 0 0 0 0 0 0 0 0 0 0 0 0 0 0 0 0 0 0 0 477 484 481 485 479 485 485 495 483 481 485 486 490 487 487 480 490 481 491 491 488 488 494 494 493 497 498 497 493 491 495 497 493 498 498 497 497 502 496 495 501 498 497 501 495 501 505 498 505 500 502 513 507 507 507 507 503 522 497 502 502 502 488 517 498 478 529 504 483 501 512 509 507 498 521 509 515 518 490 514 514 508 532 513 486 505 487 523 511 520 485 530 0 0 0 0 0 0 0
0 0 0 0 0 0 0 0 0 0 0 0 0 0 0 0 0 0 0 0 0 432 477 474 482 476 477 483 481 483 482 481 484 488 484 480 484 485 481 490 488 493 486 496 493 490 491 492 490 496 493 497 495 498 499 493 501 498 495 495 492 505 501 497 497 501 498 496 503 495 496 502 495 499 492 498 501 513 491 494 471 483 500 515 488 492 500 480 464 491 495 500 501 496 497 496 468 483 499 494 494 493 511 515 471 503 472 482 476 485 488 470 451 0 0 0 0 0 0 0
0 0 0 0 0 0 0 0 0 0 0 0 0 0 0 0 0 0 0 0 0 465 476 481 476 476 474 476 484 482 482 483 485 479 487 488 483 490 485 490 492 491 490 494 488 491 494 498 494 490 489 494 496 501 494 496 493 495 503 502 498 498 502 501 494 503 501 500 504 505 500 503 506 504 506 494 498 503 500 509 492 527 512 498 511 517 505 489 527 478 502 508 515 506 500 510 508 541 526 509 507 532 492 530 512 488 544 530 515 505 513 481 516 524 0 0 0 0 0 0
0 0 0 0 0 0 0 0 0 0 0 0 0 0 0 0 0 0 0 0 0 469 472 489 473 479 480 479 489 484 488 482 490 493 484 485 484 490 488 489 494 495 491 496 497 496 495 493 495 498 502 497 491 496 495 499 494 497 501 499 499 501 507 508 498 498 499 493 507 500 497 500 504 506 497 506 498 505 504 526 519 522 507 525 536 521 534 518 536 487 525 530 523 530 534 510 524 532 516 510 516 523 544 525 538 498 537 516 531 521 539 565 578 0 0 0 0 0 0 0
0 0 0 0 0 0 0 0 0 0 0 0 0 0 0 0 0 0 0 0 0 443 473 472 475 475 480 476 477 482 479 483 484 485 483 480 487 486 486 486 487 485 483 491 489 494 489 489 492 489 490 495 501 497 496 500 492 495 496 493 492 494 499 497 495 500 498 497 498 502 505 498 492 505 494 497 498 495 510 505 502 519 527 502 498 493 496 518 523 513 507 497 491 475 502 498 481 495 494 506 473 483 479 508 496 478 505 499 477 516 477 511 517 0 0 0 0 0 0 0
0 0 0 0 0 0 0 0 0 0 0 0 0 0 0 0 0 0 0 0 0 456 477 474 474 481 486 476 480 482 476 492 485 486 484 482 487 486 489 490 491 489 487 491 488 493 494 493 494 492 493 490 498 494 493 496 499 496 497 495 502 496 499 499 503 501 506 497 499 499 501 496 500 499 497 499 501 501 512 520 487 493 522 506 517 517 514 534 515 517 536 537 501 506 520 501 500 506 529 530 520 544 538 576 530 521 568 554 588 553 512 544 510 545 0 0 0 0 0 0
0 0 0 0 0 0 0 0 0 0 0 0 0 0 0 0 0 0 0 0 0 411 470 470 470 474 472 473 480 476 478 481 478 479 479 484 480 486 482 479 483 485 488 488 487 487 490 488 491 492 495 494 489 494 501 492 492 499 497 497 494 500 499 494 496 499 499 504 492 498 500 496 495 500 500 492 501 498 511 492 497 510 501 506 495 494 494 490 490 505 513 481 517 488 497 501 483 484 513 511 481 506 475 489 481 502 510 516 503 491 468 484 480 489 0 0 0 0 0 0
0 0 0 0 0 0 0 0 0 0 0 0 0 0 0 0 0 0 0 0 0 471 474 467 473 477 478 469 476 474 476 481 481 480 477 488 485 481 480 485 485 484 488 492 486 491 489 489 488 491 499 493 492 493 497 495 490 495 492 490 487 493 500 495 498 499 495 499 493 494 495 489 497 494 496 498 494 494 498 487 494 499 484 475 494 483 482 481 489 482 482 500 492 484 481 489 464 495 474 478 493 506 501 429 493 483 472 464 472 499 509 475 490 499 491 0 0 0 0 0
0 0 0 0 0 0 0 0 0 0 0 0 0 0 0 0 0 0 0 0 0 0 484 471 479 474 474 479 481 480 488 481 480 480 486 477 481 484 487 489 489 487 484 486 486 490 490 493 494 496 494 496 490 494 500 494 494 493 494 494 498 499 496 497 498 500 494 500 495 497 498 498 497 500 496 496 496 503 499 494 491 503 515 497 502 486 496 516 512 507 515 503 499 492 500 531 514 533 502 503 516 529 512 490 528 493 530 528 533 505 472 495 510 532 0 0 0 0 0 0
0 0 0 0 0 0 0 0 0 0 0 0 0 0 0 0 0 0 0 0 0 0 494 475 464 473 476 472 471 480 476 478 482 479 480 479 479 482 487 483 488 488 484 483 487 486 487 487 492 487 488 492 492 491 490 493 487 489 491 491 495 492 491 491 497 494 498 497 493 498 495 491 493 496 496 493 495 483 495 496 498 508 494 490 494 498 494 486 486 493 483 494 505 512 496 499 471 481 497 494 492 461 491 464 463 463 477 476 494 499 480 492 460 456 0 0 0 0 0 0
0 0 0 0 0 0 0 0 0 0 0 0 0 0 0 0 0 0 0 0 0 0 532 475 469 475 475 479 476 473 478 477 485 482 482 482 484 489 479 485 487 482 489 493 488 490 488 491 489 495 489 497 488 491 489 496 489 484 493 491 500 491 493 494 495 500 497 493 487 496 500 495 494 495 496 491 492 501 508 510 503 502 481 502 521 512 516 502 490 502 532 507 526 510 503 500 518 512 512 502 491 493 522 504 477 473 510 506 500 482 485 517 535 485 516 488 0 0 0 0
0 0 0 0 0 0 0 0 0 0 0 0 0 0 0 0 0 0 0 0 0 0 637 467 473 482 477 475 478 477 480 479 481 479 479 482 486 488 487 484 487 486 490 487 491 488 490 490 491 490 491 496 498 492 492 499 497 498 499 495 500 495 501 502 498 498 493 501 498 500 492 493 495 495 494 492 498 504 501 526 497 513 513 514 523 524 522 516 529 523 540 525 540 537 537 520 531 529 505 522 526 503 535 500 493 500 521 520 510 498 514 559 481 531 513 0 0 0 0 0
0 0 0 0 0 0 0 0 0 0 0 0 0 0 0 0 0 0 0 0 0 0 0 471 472 469 482 470 471 472 475 484 482 476 472 477 476 478 482 482 487 488 484 485 486 488 486 485 486 492 491 487 493 491 489 492 491 493 491 497 495 495 494 500 496 497 488 495 494 497 499 495 502 494 490 490 493 488 493 498 490 496 480 500 501 511 495 514 484 517 485 498 509 507 510 495 507 491 495 518 507 514 504 478 484 505 496 485 475 508 500 486 445 0 0 0 0 0 0 0
0 0 0 0 0 0 0 0 0 0 0 0 0 0 0 0 0 0 0 0 0 0 0 495 479 473 478 475 478 479 480 476 482 477 483 478 481 481 485 480 481 484 488 488 483 486 486 489 490 490 490 491 490 493 492 496 498 492 495 494 494 492 496 494 495 496 497 501 496 494 496 491 494 496 495 491 490 492 501 503 492 497 492 513 519 501 520 500 509 515 506 514 495 520 531 515 547 547 551 527 550 556 513 550 534 506 486 491 506 513 522 514 507 511 0 0 0 0 0 0
0 0 0 0 0 0 0 0 0 0 0 0 0 0 0 0 0 0 0 0 0 0 0 499 470 471 474 469 470 471 478 473 479 477 476 479 474 478 474 483 482 485 485 486 488 489 485 487 486 486 487 488 489 485 494 490 494 492 491 488 494 497 486 496 491 493 485 495 492 496 493 487 494 498 495 490 493 498 500 494 509 501 488 502 518 497 509 485 490 501 508 505 513 495 520 501 467 484 506 482 522 500 485 460 483 461 468 458 467 454 500 508 476 513 0 0 0 0 0 0
0 0 0 0 0 0 0 0 0 0 0 0 0 0 0 0 0 0 0 0 0 0 0 0 464 472 469 472 468 471 476 473 476 479 478 473 476 480 479 477 481 484 484 485 488 484 486 484 489 486 489 489 490 492 489 489 490 492 490 493 491 492 488 490 492 495 494 493 491 496 497 495 494 492 487 487 483 496 505 492 482 497 508 492 504 492 504 495 492 492 516 518 506 493 511 495 471 496 475 496 481 527 479 470 497 455 452 472 499 462 449 441 457 442 511 425 0 0 0 0
0 0 0 0 0 0 0 0 0 0 0 0 0 0 0 0 0 0 0 0 0 0 0 0 507 466 472 472 471 472 479 473 478 475 476 474 482 477 483 479 486 479 480 485 485 486 491 489 484 485 489 491 492 490 491 488 494 490 491 487 491 488 494 495 493 492 495 493 491 494 495 489 495 492 492 491 491 486 496 494 495 500 488 507 499 516 507 501 498 502 510 496 520 506 533 497 508 533 513 465 493 505 487 482 480 466 456 487 485 501 512 490 483 530 494 493 0 0 0 0
0 0 0 0 0 0 0 0 0 0 0 0 0 0 0 0 0 0 0 0 0 0 0 0 0 463 469 464 469 470 470 467 477 475 471 474 476 476 474 482 480 480 479 484 486 482 485 480 485 487 490 483 486 492 489 486 490 487 484 489 484 490 490 488 495 494 488 498 493 499 489 488 492 488 493 483 485 473 482 484 479 488 485 481 482 487 487 485 483 489 493 478 489 490 507 482 494 503 470 497 476 507 481 474 459 453 432 477 447 485 447 447 476 489 0 0 0 0 0 0
0 0 0 0 0 0 0 0 0 0 0 0 0 0 0 0 0 0 0 0 0 0 0 0 0 522 471 474 468 476 468 471 476 475 476 478 475 473 479 478 478 476 482 479 481 484 480 485 484 489 486 487 486 486 495 490 495 489 488 489 493 491 490 489 489 492 496 491 493 491 498 486 490 494 486 485 483 493 507 496 495 488 486 484 484 488 509 486 492 480 492 478 505 490 514 507 510 505 524 516 522 507 505 543 490 489 500 509 469 460 491 458 490 481 483 0 0 0 0 0
0 0 0 0 0 0 0 0 0 0 0 0 0 0 0 0 0 0 0 0 0 0 0 0 0 0 499 472 466 473 470 467 470 470 478 474 473 475 478 480 478 480 479 484 485 484 481 485 483 484 488 492 496 489 490 489 488 492 491 486 488 486 490 489 495 492 491 489 495 492 497 487 492 495 490 495 487 485 501 501 502 496 492 500 476 504 505 488 494 495 499 505 477 506 495 501 523 514 505 516 486 486 519 498 499 500 492 507 484 505 500 492 502 466 0 0 0 0 0 0
0 0 0 0 0 0 0 0 0 0 0 0 0 0 0 0 0 0 0 0 0 0 0 0 0 0 0 462 469 462 462 469 472 471 471 474 471 477 471 476 475 477 479 477 480 483 482 483 481 484 486 484 486 490 484 484 489 490 486 485 487 486 490 489 486 489 487 492 493 489 489 485 480 487 487 481 476 499 489 480 505 471 492 472 491 482 490 498 484 487 480 497 531 484 497 478 518 506 503 474 495 490 462 487 448 492 450 486 488 459 453 438 441 497 0 0 0 0 0 0
0 0 0 0 0 0 0 0 0 0 0 0 0 0 0 0 0 0 0 0 0 0 0 0 0 0 0 542 468 465 467 466 471 474 474 475 472 473 473 478 474 480 482 480 481 474 479 481 477 487 481 480 488 489 481 490 487 484 482 484 490 484 483 489 487 488 495 486 489 489 489 484 487 484 499 483 498 488 494 505 493 486 518 502 503 511 516 504 520 501 482 475 494 496 523 513 480 506 507 504 509 496 503 518 503 462 516 525 487 472 479 498 504 505 521 0 0 0 0 0
0 0 0 0 0 0 0 0 0 0 0 0 0 0 0 0 0 0 0 0 0 0 0 0 0 0 0 0 507 471 464 465 467 466 467 463 471 477 474 475 477 477 480 479 479 481 474 481 477 480 481 483 484 487 484 485 484 483 483 483 489 487 484 484 483 486 488 485 483 484 487 481 479 486 473 482 478 476 487 484 485 490 482 484 494 481 501 477 484 503 495 481 473 484 490 481 483 475 474 476 491 474 478 493 455 471 435 477 450 475 515 455 424 473 450 0 0 0 0 0
0 0 0 0 0 233 228 247 326 0 0 0 0 0 0 0 0 0 0 0 0 0 0 0 0 0 0 0 0 500 462 464 464 469 465 463 472 468 470 470 471 476 478 470 475 477 481 477 476 478 478 478 481 482 486 480 481 484 484 481 484 481 484 481 483 483 485 481 478 483 472 479 475 478 477 486 477 481 482 480 482 475 484 485 477 484 482 479 462 479 483 488 448 464 487 466 478 461 471 474 470 470 469 468 454 473 443 464 465 434 447 442 421 417 420 0 0 0 0 0
0 0 0 0 253 229 235 234 231 294 370 0 0 0 0 0 0 0 0 0 0 0 0 0 0 0 0 0 0 0 465 464 462 465 468 473 472 468 473 473 473 479 474 474 477 472 481 473 478 478 476 482 480 482 483 481 487 483 482 479 478 484 488 484 482 489 481 480 482 474 480 471 473 478 481 480 487 475 469 483 477 469 491 487 478 482 489 490 482 497 477 489 471 477 480 495 490 504 469 492 457 495 478 487 455 472 465 461 500 466 477 487 473 457 0 0 0 0 0 0
0 0 0 196 214 225 228 223 231 230 313 0 0 0 0 0 0 0 0 0 0 0 0 0 0 0 0 0 0 0 0 457 460 465 462 468 462 464 468 465 470 472 468 468 468 472 467 475 470 477 476 473 476 469 476 475 480 475 477 478 481 480 478 478 478 477 478 473 470 470 462 475 467 477 482 481 463 467 454 466 468 474 467 468 476 473 464 458 470 465 473 462 495 446 451 465 475 456 454 485 477 469 455 462 454 444 445 447 454 437 447 470 451 451 0 0 0 0 0 0
232 254 279 254 291 294 269 231 232 235 317 0 417 420 424 396 429 454 442 436 468 449 450 446 426 450 455 447 436 454 446 465 458 466 461 468 466 468 470 465 466 470 474 465 478 471 472 475 471 476 471 478 477 473 478 476 478 477 475 474 476 482 471 479 478 483 483 485 477 474 477 471 475 472 483 466 480 476 479 473 482 471 478 473 474 476 463 470 457 482 488 471 476 482 475 492 480 467 463 486 473 472 463 470 460 459 460 464 481 454 482 450 450 449 439 465 0 0 0 0
216 213 239 220 230 251 274 231 230 266 322 414 402 399 413 411 431 413 421 416 413 415 417 413 417 438 426 431 444 452 451 453 456 459 456 460 455 466 465 460 461 463 460 464 460 466 475 474 471 481 473 474 473 472 474 475 471 477 467 475 471 473 473 477 466 469 472 476 470 467 465 472 479 466 462 465 470 464 457 456 460 453 458 459 455 462 465 454 466 461 471 466 453 443 452 450 453 442 464 467 461 467 468 476 470 470 471 444 446 447 445 453 448 512 477 478 0 0 0 0
171 202 219 216 237 225 227 226 229 302 387 370 376 373 364 362 380 376 362 372 369 385 379 400 403 398 417 425 422 446 440 448 434 446 442 442 439 440 444 447 440 449 443 455 445 450 452 454 460 455 454 458 455 460 458 457 455 457 458 461 460 458 455 454 459 451 456 459 456 457 456 456 453 444 435 436 432 437 421 429 420 424 425 422 421 420 426 430 432 426 427 433 428 428 428 415 426 427 402 424 413 412 425 426 416 406 407 420 415 399 421 392 408 416 419 398 387 430 434 0
317 287 254 225 244 229 229 231 260 339 354 355 344 356 350 343 359 358 355 357 361 379 385 393 388 385 396 413 425 415 419 430 422 436 433 431 436 430 430 429 438 436 430 437 432 438 440 442 440 443 445 441 438 443 446 439 451 441 442 443 446 443 444 452 440 446 443 438 441 440 433 431 433 433 424 419 411 409 405 401 407 402 400 404 407 405 405 404 412 400 399 397 413 410 399 415 409 409 401 406 405 421 407 403 404 400 391 397 412 405 405 400 396 427 425 418 418 400 436 0
308 288 279 239 227 234 233 248 273 306 311 294 309 300 308 305 308 305 306 319 321 317 339 334 348 361 381 381 390 399 396 402 405 412 401 405 408 408 410 413 417 413 412 407 407 415 414 417 424 417 414 415 422 418 420 421 418 419 420 421 416 412 422 423 421 417 420 418 414 410 414 404 406 398 395 387 378 363 363 358 365 351 363 374 357 349 363 360 366 374 363 354 356 365 369 369 357 371 355 366 360 354 361 362 364 369 354 362 352 346 352 366 361 355 351 328 350 372 340 337
259 261 267 260 273 239 250 256 269 276 283 282 272 286 276 278 284 272 283 285 293 312 313 312 332 345 355 364 366 380 384 382 392 387 387 387 388 394 394 399 391 392 389 393 384 393 394 387 392 395 382 399 400 398 400 389 391 403 399 397 396 388 394 395 395 385 400 393 395 388 386 387 383 381 366 355 355 356 341 333 330 324 333 325 329 332 332 326 327 321 319 335 324 322 330 326 338 314 322 328 323 315 321 332 328 339 334 329 314 305 322 335 310 318 306 289 288 318 335 301
248 239 251 249 250 248 254 253 259 253 255 264 262 263 249 259 270 270 274 264 277 278 292 299 307 315 325 337 353 364 367 365 367 359 362 355 361 377 370 366 369 374 372 370 374 371 371 366 364 375 370 379 377 374 376 381 377 382 376 374 373 373 381 377 373 375 373 372 370 370 365 365 363 366 342 343 332 322 317 311 307 299 314 291 304 308 304 304 297 305 298 300 304 314 297 303 310 293 297 308 313 310 314 300 298 309 304 298 300 294 311 308 288 306 301 289 299 312 309 307
225 234 226 231 235 235 229 246 240 242 231 238 238 241 241 241 244 231 244 246 248 261 273 275 291 294 314 326 329 331 328 337 338 340 341 339 348 338 340 340 348 344 352 342 344 346 345 353 346 341 346 349 346 352 351 351 351 343 351 343 350 349 343 340 348 344 349 352 341 343 342 340 339 339 329 323 302 296 283 283 280 267 279 272 277 277 280 284 270 275 266 278 280 275 269 273 269 267 268 280 276 272 276 271 264 268 271 271 283 275 279 268 266 272 262 254 261 262 259 265
223 222 228 220 221 226 234 223 222 232 232 219 236 228 230 229 227 232 234 242 239 245 258 258 272 278 293 299 303 309 318 316 318 316 312 322 317 321 329 327 323 320 318 323 326 322 325 331 324 325 323 326 328 327 328 325 329 318 334 328 330 325 331 330 324 323 328 323 330 322 325 327 322 314 310 299 289 272 272 272 268 268 264 268 261 266 254 260 259 256 263 257 259 256 265 252 266 252 266 260 256 257 256 263 255 255 264 263 262 265 265 271 279 259 264 278 253 272 283 280
197 213 203 217 213 207 218 220 214 215 209 216 213 215 223 214 219 221 220 226 228 239 245 250 251 267 271 277 281 283 286 296 293 294 297 299 296 301 305 300 302 294 298 299 304 302 308 297 303 301 308 304 303 302 300 303 310 306 309 304 306 304 307 305 308 310 302 302 300 305 296 300 300 293 289 281 269 261 256 255 248 244 245 246 249 248 247 238 250 245 248 250 242 248 241 246 244 243 243 245 236 254 250 243 240 249 237 239 241 241 247 252 258 261 266 245 270 267 243 291
196 195 204 206 199 205 204 202 202 200 210 202 203 190 204 207 207 205 204 208 214 218 226 234 236 248 249 256 269 264 267 267 269 269 272 277 280 276 282 280 278 283 283 289 283 280 278 282 282 286 280 285 279 284 281 284 283 284 282 288 286 282 285 289 284 285 286 284 284 283 281 285 277 274 263 260 248 248 240 231 234 233 230 233 225 226 227 222 226 230 225 228 226 225 233 222 222 227 225 224 228 232 215 229 223 220 217 223 230 229 242 228 239 245 238 233 239 226 222 232
192 194 192 192 201 184 187 204 185 183 181 199 180 199 187 183 183 192 206 210 213 214 221 231 231 233 239 242 247 248 256 257 255 261 263 259 263 263 269 270 265 265 262 268 265 266 269 269 265 268 266 265 268 268 267 272 268 273 266 272 267 273 267 274 270 268 265 268 271 268 266 256 259 256 252 243 243 235 231 222 224 222 217 222 221 225 219 215 212 217 222 222 226 218 218 218 214 217 221 221 218 225 218 216 215 212 214 223 225 225 229 230 249 245 218 231 246 263 251 243
177 172 166 176 179 175 177 178 180 176 181 175 181 180 184 184 180 185 189 189 188 187 189 212 213 216 220 224 227 234 229 244 241 241 244 244 241 242 246 244 246 245 246 246 248 251 243 247 245 254 249 248 248 250 242 247 249 250 246 252 247 247 253 249 241 251 250 249 243 250 240 241 240 243 234 226 219 217 197 199 197 193 187 187 194 188 193 198 189 186 197 195 190 181 194 191 191 186 181 192 187 212 208 188 189 190 190 197 202 186 188 211 211 197 208 213 196 197 217 205
170 171 177 173 170 173 173 172 171 177 179 174 172 173 174 178 177 182 178 185 186 179 191 186 194 209 214 214 215 221 227 226 223 227 226 228 231 222 227 229 228 230 237 231 232 234 228 226 234 233 236 230 234 233 235 237 234 234 239 234 234 237 238 235 232 233 235 232 230 231 234 231 228 221 219 215 197 195 190 187 195 195 193 190 190 195 192 191 192 191 187 191 189 182 184 191 188 186 187 184 188 187 186 176 183 181 180 183 177 181 178 176 200 187 200 198 188 170 175 201
163 163 172 166 172 170 167 165 167 166 170 166 169 165 169 173 177 174 180 181 174 183 188 191 187 186 190 189 191 208 209 212 206 211 208 211 218 201 210 195 217 220 220 218 220 221 220 219 221 224 214 220 219 220 224 220 223 221 220 221 218 223 225 219 217 215 218 222 219 220 220 213 216 212 188 189 186 196 193 191 187 184 190 185 186 181 185 187 184 185 185 181 183 180 182 184 180 177 184 186 182 185 181 185 180 182 179 179 177 178 172 174 182 197 180 176 176 177 205 194
147 151 156 159 157 162 156 159 160 160 159 157 156 154 161 158 163 165 164 176 170 172 178 184 180 181 184 187 188 185 182 184 185 184 183 189 184 183 186 191 190 190 189 190 196 195 198 193 192 194 194 192 193 197 191 190 194 194 192 193 202 195 196 192 194 192 192 199 195 191 199 198 197 189 194 196 192 185 186 172 176 174 179 171 170 172 174 176 176 175 174 178 169 172 173 164 168 166 171 169 168 165 173 168 168 167 172 168 170 171 165 171 167 167 173 166 167 175 164 161
145 149 150 152 157 155 154 158 157 159 157 155 157 158 158 156 158 162 156 164 167 169 176 173 179 178 179 180 181 187 188 183 190 188 189 189 190 194 194 190 197 194 190 194 193 196 195 198 195 193 194 196 197 196 198 195 194 197 196 199 198 196 198 187 192 194 195 197 196 196 197 195 192 195 190 184 184 186 176 174 173 172 168 165 165 168 170 167 169 167 165 167 173 169 168 170 166 163 164 169 168 165 170 168 172 160 164 163 166 164 168 165 171 167 175 177 163 167 175 169
141 143 147 146 149 148 148 153 146 148 148 148 153 156 151 149 154 150 157 157 156 166 164 170 171 172 172 173 175 178 177 180 182 179 180 181 181 179 181 184 185 182 186 186 182 187 184 184 187 185 186 187 186 185 186 188 188 189 0 187 190 190 186 186 187 186 189 186 184 186 184 186 183 182 175 174 174 175 167 163 164 157 160 157 160 161 162 161 163 163 158 160 162 161 161 162 155 163 164 159 162 161 162 156 152 156 160 161 159 164 154 161 153 161 163 170 164 166 170 164
136 137 136 139 140 149 147 143 145 145 141 145 143 148 145 146 143 145 146 152 158 159 159 164 168 165 168 166 167 167 172 170 177 172 169 176 175 174 175 174 177 179 176 176 174 178 174 181 177 179 178 176 181 180 181 179 182 0 0 178 179 179 181 182 177 177 177 177 178 173 172 176 174 172 171 169 168 168 162 158 161 156 154 155 156 156 154 155 154 154 148 154 156 152 153 154 155 154 157 153 156 153 153 153 151 151 145 152 162 157 154 149 151 148 148 156 155 155 152 155
141 135 130 135 144 143 152 142 143 139 139 142 143 145 144 138 139 148 147 148 148 151 155 158 160 157 163 160 166 164 165 165 166 167 164 167 165 170 167 171 172 0 171 0 171 175 172 173 171 173 176 175 175 174 179 0 173 174 0 178 176 0 178 173 170 173 175 166 173 172 166 166 170 172 165 163 163 157 157 155 154 155 155 153 156 152 152 146 145 157 150 153 150 153 151 147 150 147 158 149 150 142 143 153 152 148 144 146 150 153 155 146 155 162 149 158 151 166 157 171
128 124 125 123 131 136 143 137 133 122 130 133 134 124 136 136 135 136 137 139 138 147 148 151 148 156 157 156 157 162 160 155 156 159 156 154 162 162 0 0 0 0 0 0 0 0 162 163 166 167 166 162 166 164 0 0 169 167 168 0 0 0 0 0 164 166 166 0 162 162 160 164 160 158 153 158 154 154 148 150 150 147 145 149 144 149 142 147 147 146 142 143 145 146 144 140 142 144 144 140 140 140 142 132 134 136 135 138 142 143 141 148 144 158 144 134 139 141 149 133
124 126 124 116 128 133 134 130 134 130 135 130 126 126 132 125 131 137 134 134 143 141 148 144 149 149 153 151 152 152 153 155 157 157 151 154 153 0 0 0 0 0 0 0 0 0 0 0 0 160 165 160 0 0 0 0 0 0 0 0 0 0 0 0 158 0 0 0 0 0 0 157 162 156 152 149 147 151 146 144 139 139 144 141 140 139 143 139 143 140 138 137 141 137 138 137 145 141 139 138 140 133 135 133 132 133 134 134 139 138 133 142 139 143 135 139 132 127 136 146
111 105 117 122 128 125 126 128 120 128 131 120 116 119 121 130 132 131 132 134 134 133 131 143 139 141 146 143 144 148 149 148 153 152 149 145 0 0 0 0 0 0 0 0 0 0 0 0 152 152 156 0 0 0 0 0 0 0 0 0 0 0 0 0 0 0 0 0 0 0 0 0 149 148 149 149 148 142 141 142 138 141 128 138 126 124 136 136 128 131 141 129 129 134 119 129 138 139 134 135 128 137 133 131 127 129 130 133 136 141 142 134 137 143 146 131 132 127 121 137
101 106 111 110 107 110 119 116 114 119 113 113 114 116 122 121 123 116 126 114 129 123 124 123 135 141 140 138 141 142 142 142 141 143 143 140 0 0 0 0 0 0 0 0 0 0 0 0 144 0 0 0 0 0 0 0 0 0 0 0 0 0 0 0 0 0 0 0 0 0 0 0 142 140 140 139 139 139 127 129 124 120 120 121 126 117 122 122 120 126 120 119 116 126 122 125 121 123 120 117 115 120 130 114 117 119 115 115 129 131 120 128 115 109 113 113 107 103 103 110
109 106 116 118 115 114 115 114 119 115 114 119 117 114 118 122 122 130 120 116 117 118 122 117 136 127 137 140 0 140 138 0 135 139 139 0 0 0 0 0 0 0 0 0 0 0 0 0 0 0 0 0 0 0 0 0 0 0 0 0 0 0 0 0 0 0 0 0 0 0 0 0 0 143 121 124 129 124 117 123 119 119 119 123 117 119 117 120 121 117 118 125 118 114 113 122 121 120 122 116 120 132 132 121 130 116 126 121 113 130 128 112 120 117 140 113 109 136 137 153
102 102 108 111 101 103 107 106 100 99 108 106 105 105 107 108 105 114 112 109 115 112 111 117 121 121 125 121 118 127 0 0 0 0 127 0 0 0 0 0 0 0 0 0 0 0 0 0 0 0 0 0 0 0 0 0 0 0 0 0 0 0 0 0 0 0 0 0 0 0 0 0 129 0 0 126 122 119 124 117 115 113 108 112 113 114 108 111 111 114 114 114 111 111 109 106 109 114 114 107 109 108 109 110 110 111 104 108 110 107 109 108 110 122 123 103 109 116 119 147
97 101 92 94 102 102 103 99 104 102 101 105 104 106 107 104 105 105 115 103 108 109 107 104 117 114 118 118 119 121 0 128 0 0 0 0 0 0 0 0 0 0 0 0 0 0 0 0 0 0 0 0 0 0 0 0 0 0 0 0 0 0 0 0 0 0 0 0 0 0 0 0 0 121 0 112 118 116 114 110 112 114 108 103 111 106 109 117 105 110 110 112 110 114 106 113 108 110 101 120 111 104 109 104 107 116 110 113 111 111 107 99 111 101 96 114 123 108 122 128
96 103 95 102 100 99 103 91 93 99 98 99 103 98 98 93 104 103 111 117 113 105 98 110 112 109 113 113 112 123 120 119 122 0 0 0 0 0 0 0 0 0 0 0 0 0 0 0 0 0 0 0 0 0 0 0 0 0 0 0 0 0 0 0 0 0 0 0 0 0 0 0 123 121 110 124 114 117 117 117 105 114 102 119 110 108 104 102 103 106 105 106 112 96 100 100 107 102 112 104 108 115 108 107 107 112 113 99 107 104 104 105 111 101 126 96 137 140 145 139
87 84 81 85 80 84 81 92 91 85 88 94 93 94 92 86 77 94 93 87 87 85 101 104 100 101 113 109 0 113 106 103 117 0 110 0 0 0 0 0 0 0 0 0 0 0 0 0 0 0 0 0 0 0 0 0 0 0 0 0 0 0 0 0 0 0 0 0 0 0 0 116 109 110 104 111 109 107 103 101 102 103 96 92 102 97 88 98 103 100 91 97 104 84 83 91 94 101 86 97 88 97 93 89 86 89 92 96 91 81 85 75 76 92 101 94 98 85 103 106
93 84 89 88 100 98 94 105 88 92 96 92 90 90 95 96 97 91 104 95 96 106 105 105 101 104 110 108 0 105 110 109 116 111 122 109 112 0 115 0 0 117 0 0 0 0 0 0 0 0 0 0 0 0 0 0 0 0 0 0 116 0 0 112 110 0 0 0 110 0 110 107 116 111 113 107 108 111 101 97 107 103 105 88 98 101 107 104 101 101 103 106 107 100 102 99 99 92 99 110 100 98 97 102 91 100 100 89 89 86 92 89 89 94 102 88 106 115 129 138
82 89 93 89 93 94 91 90 84 94 87 89 87 91 91 84 95 96 98 93 98 95 98 111 91 104 106 98 103 102 93 0 105 100 99 104 0 114 114 0 107 0 0 0 0 0 0 0 0 0 0 0 0 0 0 0 0 109 0 0 108 104 106 110 110 111 103 100 114 107 109 102 102 99 114 107 101 92 105 95 94 94 100 88 91 94 93 103 104 94 96 102 108 86 85 83 89 93 90 88 91 83 91 99 93 89 98 89 98 88 90 88 83 90 92 96 115 119 117 97
82 84 83 85 88 91 100 85 89 82 87 86 91 89 90 88 87 88 89 88 93 93 96 81 84 89 91 85 103 89 94 97 98 93 93 109 99 101 100 104 105 96 102 108 107 89 0 0 94 100 0 108 104 94 101 107 106 101 108 105 101 104 110 101 98 110 101 95 94 107 98 105 106 96 101 94 93 97 94 87 91 97 97 95 88 95 86 90 94 95 101 86 93 91 92 88 94 93 92 82 85 88 88 89 87 90 93 82 79 89 86 99 86 85 77 89 84 77 90 84
82 80 83 82 83 89 100 102 86 83 87 79 84 87 86 90 90 95 90 98 84 96 94 92 89 95 94 88 97 98 94 84 96 93 97 98 95 99 95 109 104 95 100 107 102 94 104 0 102 101 97 105 97 98 102 102 101 105 100 108 104 94 96 103 104 101 95 102 96 107 96 105 100 93 102 84 95 93 95 89 99 96 84 91 95 95 89 88 93 91 88 101 87 92 92 94 95 92 101 87 91 95 84 90 90 104 93 92 90 85 91 98 101 88 100 130 100 100 140 110
82 75 69 67 79 82 88 89 86 82 84 81 87 78 88 84 88 84 85 85 93 85 92 87 87 83 92 90 84 93 91 92 84 90 94 95 96 84 88 93 92 97 83 90 96 93 92 102 94 90 94 97 97 93 90 83 100 90 95 94 96 83 83 77 96 97 95 90 97 97 96 87 90 93 96 95 96 94 95 94 89 93 82 90 83 91 90 88 82 86 91 78 90 81 85 86 82 93 79 91 81 82 81 69 84 78 82 86 81 76 70 89 85 88 117 96 130 128 120 72
74 74 82 87 71 86 89 82 84 82 86 78 79 81 80 84 84 85 81 86 83 88 83 84 87 94 94 83 86 89 94 95 92 94 87 90 95 93 88 95 92 83 94 88 89 98 87 87 97 88 91 86 95 97 102 94 87 84 91 93 97 85 89 94 92 96 89 94 105 94 97 94 83 96 94 95 84 95 95 93 90 88 88 87 77 84 88 75 91 89 78 87 76 82 93 81 93 86 81 82 81 82 82 76 76 81 82 82 87 86 86 87 82 96 90 103 105 81 126 198
