0 0 0 0 0 0 0 0 0 0 0 0 0 0 0 0 0 0 0 0 0 0 0 0 0 0 0 0 0 0 0 0 0 0 0 0 0 0 0 0 0 0 0 0 0 0 0 0 0 0 0 0 0 0 0 0 0 0 0 0 0 0 0 0 0 0 0 0 0 0 0 0 0 0 0 0 0 0 0 0 0 0 0 0 0 0 0 0 0 0 0 0 0 0 0 0 0 0 0 0 0 0 0 0 0 0 0 0 0 0 0 0 0 0 0 0 0 0 0 0
0 0 0 0 0 0 0 0 0 0 0 0 0 0 0 0 0 0 0 0 0 0 0 0 0 0 0 0 0 0 0 0 0 0 0 0 0 0 0 0 0 0 0 0 0 0 0 0 0 0 0 0 0 0 0 0 0 0 0 0 0 0 0 0 0 0 0 0 0 0 0 0 0 0 0 0 0 0 0 0 0 0 0 0 0 0 0 0 0 0 0 0 0 0 0 0 0 0 0 0 0 0 0 0 0 0 0 0 0 0 0 0 0 0 0 0 0 0 0 0
0 0 0 0 0 0 0 0 0 0 0 0 0 0 0 0 0 0 0 0 0 0 0 0 0 0 0 0 0 0 0 0 0 0 0 0 0 0 0 0 0 0 0 0 0 0 0 0 0 0 0 0 0 0 0 0 0 0 0 0 0 0 0 0 0 0 0 0 0 0 0 0 0 0 0 0 0 0 0 0 0 0 0 0 0 0 0 0 0 0 0 0 0 0 0 0 0 0 0 0 0 0 0 0 0 0 0 0 0 0 0 0 0 0 0 0 0 0 0 0
0 0 0 0 0 0 0 0 0 0 0 0 0 0 0 0 0 0 0 0 0 0 0 0 0 0 0 0 0 0 0 0 0 0 0 0 0 0 0 0 0 0 0 0 0 0 0 0 0 0 0 0 0 0 0 0 0 0 0 0 0 0 0 0 0 0 0 0 0 0 0 0 0 0 0 0 0 0 0 0 0 0 0 0 0 0 0 0 0 0 0 0 0 0 0 0 0 0 0 0 0 0 0 0 0 0 0 0 0 0 0 0 0 0 0 0 0 0 0 0
0 0 0 0 0 0 0 0 0 0 0 0 0 0 0 0 0 0 0 0 0 0 0 0 0 0 0 0 0 0 0 0 0 0 0 0 0 0 0 0 0 0 0 0 0 0 0 0 0 0 0 0 0 0 0 0 0 0 0 0 0 0 0 0 0 0 0 0 0 0 0 0 0 0 0 0 0 0 0 0 0 0 0 0 0 0 0 0 0 0 0 0 0 0 0 0 0 0 0 0 0 0 0 0 0 0 0 0 0 0 0 0 0 0 0 0 0 0 0 0
0 0 0 0 0 0 0 0 0 0 0 0 0 0 0 0 0 0 0 0 0 0 0 0 0 0 0 0 0 0 0 0 0 0 0 0 0 0 0 490 505 523 490 511 510 526 504 517 498 502 499 503 490 503 502 0 0 0 0 0 0 0 0 0 0 0 0 0 0 0 0 0 0 0 0 0 0 0 0 0 0 0 0 0 0 0 0 0 0 0 0 0 0 0 0 0 0 0 0 0 0 0 0 0 0 0 0 0 0 0 0 0 0 0 0 0 0 0 0 0
0 0 0 0 0 0 0 0 0 0 0 0 0 0 0 0 0 0 0 0 0 0 0 0 0 0 0 0 0 0 0 0 0 0 0 0 0 470 513 503 499 509 503 493 495 502 491 511 509 523 492 488 496 504 508 499 493 481 525 473 0 0 0 0 0 0 0 0 0 0 0 0 0 0 0 0 0 0 0 0 0 0 0 0 0 0 0 0 0 0 0 0 0 0 0 0 0 0 0 0 0 0 0 0 0 0 0 0 0 0 0 0 0 0 0 0 0 0 0 0
0 0 0 0 0 0 0 0 0 0 0 0 0 0 0 0 0 0 0 0 0 0 0 0 0 0 0 0 0 0 0 0 0 0 0 529 497 510 500 494 502 502 493 525 506 505 508 505 501 510 508 509 516 500 516 510 504 512 509 514 493 514 551 547 560 0 0 0 0 0 0 0 0 0 0 0 0 0 0 0 0 0 0 0 0 0 0 0 0 0 0 0 0 0 0 0 0 0 0 0 0 0 0 0 0 0 0 0 0 0 0 0 0 0 0 0 0 0 0 0
0 0 0 0 0 0 0 0 0 0 0 0 0 0 0 0 0 0 0 0 0 0 0 0 0 0 0 0 0 0 0 0 0 477 478 492 489 479 495 494 505 498 503 507 508 488 495 514 504 506 504 489 507 495 504 510 506 496 505 505 494 493 490 504 505 503 502 538 512 522 514 570 580 0 512 573 515 557 0 499 0 0 0 0 0 0 0 0 0 0 0 0 0 0 0 0 0 0 0 0 0 0 0 0 0 0 0 0 0 0 0 0 0 0 0 0 0 0 0 0
0 0 0 0 0 0 0 0 0 0 0 0 0 0 0 0 0 0 0 0 0 0 0 0 0 0 0 0 0 0 0 563 500 506 499 490 501 503 504 503 499 489 498 498 494 517 506 510 508 505 517 511 509 499 494 505 507 510 500 518 511 509 500 513 501 509 513 532 524 569 522 566 591 577 600 581 586 567 594 571 545 588 548 565 0 557 602 571 568 595 567 542 591 582 566 551 615 608 538 621 542 585 594 620 0 0 0 0 0 0 0 0 0 0 0 0 0 0 0 0
0 0 0 0 0 0 0 0 0 0 0 0 0 0 0 0 0 0 0 0 0 0 0 0 0 0 0 0 0 0 523 510 509 504 487 508 508 510 495 525 505 505 519 513 506 511 515 500 498 509 503 512 515 508 507 509 509 502 492 519 508 504 508 519 505 507 527 516 528 525 571 529 548 572 591 577 592 574 591 583 582 606 639 616 589 574 615 608 574 588 583 650 561 618 638 622 562 590 604 594 601 571 609 619 605 630 607 621 631 0 0 0 0 0 0 0 0 0 0 0
0 0 0 0 0 0 0 0 0 0 0 0 0 0 0 0 0 0 0 0 0 0 0 0 0 0 0 0 473 490 501 500 493 499 500 500 498 490 502 500 506 499 503 500 507 514 498 497 500 504 496 503 505 501 497 497 498 508 495 509 509 497 505 507 509 508 505 509 508 502 514 534 520 538 568 560 553 546 548 592 618 563 540 553 572 583 559 484 574 567 558 566 574 535 555 537 557 578 528 558 547 585 560 560 555 547 553 578 575 0 0 0 0 0 0 0 0 0 0 0
0 0 0 0 0 0 0 0 0 0 0 0 0 0 0 0 0 0 0 0 0 0 0 0 0 0 0 487 510 507 505 499 503 512 503 501 508 504 521 504 510 505 508 516 502 509 499 510 500 514 505 511 506 497 515 503 505 505 506 511 513 511 519 501 516 499 511 512 515 513 509 517 551 555 552 553 601 535 573 570 571 586 589 557 571 584 547 609 552 591 535 598 567 623 602 577 579 611 594 573 577 571 556 541 576 570 566 575 620 0 0 0 0 0 0 0 0 0 0 0
0 0 0 0 0 0 0 0 0 0 0 0 0 0 0 0 0 0 0 0 0 0 0 0 0 0 486 495 497 500 505 504 500 498 496 492 496 505 502 504 500 510 500 508 503 504 505 502 512 491 505 503 508 501 505 499 499 509 517 510 505 506 515 500 507 513 509 501 515 507 515 527 537 549 542 557 549 565 573 568 550 550 565 582 564 566 570 553 570 543 517 543 562 531 545 580 558 538 553 574 571 482 612 563 532 588 593 553 469 0 0 0 0 0 0 0 0 0 0 0
0 0 0 0 0 0 0 0 0 0 0 0 0 0 0 0 0 0 0 0 0 0 0 0 0 452 500 493 506 484 491 499 496 489 495 496 504 494 505 492 505 498 503 501 499 502 501 496 500 505 506 499 504 500 498 508 499 501 501 503 511 506 507 508 507 511 504 499 514 510 509 511 490 511 529 526 523 525 523 551 505 508 522 533 498 521 556 508 535 496 530 511 494 539 540 510 523 538 489 511 530 525 535 504 510 540 519 543 530 498 519 0 0 0 0 0 0 0 0 0
0 0 0 0 0 0 0 0 0 0 0 0 0 0 0 0 0 0 0 0 0 0 0 0 0 501 502 495 503 492 496 493 493 506 491 502 492 500 505 499 492 500 505 497 499 497 506 508 492 497 497 512 506 508 501 506 509 510 510 508 509 502 511 512 505 505 508 512 502 506 514 519 508 522 561 529 564 552 563 540 565 538 548 555 524 497 543 567 566 539 568 545 580 556 514 553 530 589 560 551 566 529 527 538 557 582 560 575 557 540 474 0 566 579 0 0 0 0 0 0
0 0 0 0 0 0 0 0 0 0 0 0 0 0 0 0 0 0 0 0 0 0 0 0 458 482 496 488 497 489 484 496 488 487 491 498 499 496 507 502 497 504 487 497 498 500 501 505 489 496 498 505 504 505 501 510 507 501 503 503 503 505 501 505 502 503 502 504 509 507 500 499 510 501 520 503 521 512 534 528 529 564 523 555 549 527 555 531 489 517 518 504 543 502 529 549 512 549 518 550 537 519 499 494 537 535 536 559 474 537 0 0 0 0 0 0 0 0 0 0
0 0 0 0 0 0 0 0 0 0 0 0 0 0 0 0 0 0 0 0 0 0 0 0 484 488 488 493 503 496 498 492 501 479 494 496 497 501 498 499 496 494 502 502 499 507 501 495 497 500 501 502 510 505 502 502 501 500 505 503 504 505 508 507 501 503 505 507 511 506 510 511 506 503 514 521 533 533 527 527 523 556 575 535 532 519 554 556 525 538 543 537 518 561 529 536 552 558 553 533 511 538 524 549 534 579 508 553 535 587 0 0 0 0 0 0 0 0 0 0
0 0 0 0 0 0 0 0 0 0 0 0 0 0 0 0 0 0 0 0 0 0 0 508 495 496 496 499 490 490 501 500 496 499 498 489 506 498 499 507 503 495 502 498 498 510 507 510 502 509 512 512 512 506 514 509 502 507 506 502 506 494 505 510 502 503 509 514 511 511 517 506 501 503 516 520 557 541 537 539 534 574 571 543 564 545 559 545 590 556 556 531 579 548 551 562 542 574 550 563 552 539 553 525 554 579 550 615 531 619 543 0 0 0 0 0 0 0 0 0
0 0 0 0 0 0 0 0 0 0 0 0 0 0 0 0 0 0 0 0 0 0 0 488 491 482 492 489 484 492 496 496 490 492 490 490 490 499 492 501 495 494 509 497 507 497 499 501 499 501 501 500 504 499 495 505 508 501 503 501 496 508 504 502 502 499 506 503 496 504 516 513 507 509 503 501 518 521 522 530 508 504 529 526 502 503 554 527 541 529 516 540 536 527 532 542 544 543 537 557 519 571 494 535 531 540 521 525 536 559 490 0 0 0 0 0 0 0 0 0
0 0 0 0 0 0 0 0 0 0 0 0 0 0 0 0 0 0 0 0 0 0 498 500 488 485 496 482 488 492 489 497 494 499 496 495 495 497 491 495 501 497 495 501 492 497 507 504 507 502 496 498 507 496 505 505 509 507 512 506 504 510 515 502 501 509 513 503 508 506 504 509 503 501 514 502 521 551 553 558 561 569 522 531 552 530 541 545 569 543 565 546 551 557 555 536 556 557 557 525 558 561 520 565 557 556 538 540 597 556 574 573 567 0 0 0 0 0 0 0
0 0 0 0 0 0 0 0 0 0 0 0 0 0 0 0 0 0 0 0 0 0 487 491 491 485 493 491 494 497 491 487 491 485 495 488 491 493 500 492 501 499 497 499 507 492 503 500 504 498 494 496 503 508 500 508 500 502 501 504 508 514 501 502 503 509 510 511 515 494 504 506 513 508 512 517 521 514 531 538 524 536 528 531 530 517 546 536 538 505 542 526 499 541 541 544 520 534 538 507 516 549 553 528 526 518 501 544 530 524 564 517 0 0 0 0 0 0 0 0
0 0 0 0 0 0 0 0 0 0 0 0 0 0 0 0 0 0 0 0 0 0 468 480 485 481 487 496 487 488 491 482 486 483 486 484 486 494 493 491 498 491 499 489 491 500 500 497 492 500 494 500 504 496 498 495 495 502 507 496 504 503 502 503 503 505 506 505 502 502 500 504 510 500 508 502 508 521 493 525 512 544 497 500 486 524 512 495 521 536 526 491 503 514 544 534 476 531 526 480 507 480 494 540 489 532 499 514 495 493 534 516 490 0 0 0 0 0 0 0
0 0 0 0 0 0 0 0 0 0 0 0 0 0 0 0 0 0 0 0 0 0 506 490 486 487 487 486 495 500 495 495 490 487 485 493 494 490 495 497 498 494 491 492 496 494 498 506 499 496 503 503 499 507 499 505 505 504 504 510 504 498 498 502 497 502 500 502 501 507 510 508 508 502 502 514 495 545 530 519 542 535 526 543 519 510 507 520 514 513 512 542 535 506 520 547 542 516 536 529 557 538 552 522 543 562 497 534 520 496 577 528 526 0 0 0 0 0 0 0
0 0 0 0 0 0 0 0 0 0 0 0 0 0 0 0 0 0 0 0 0 0 485 482 479 483 489 483 486 496 484 486 489 487 486 491 492 482 489 488 495 497 510 494 494 494 494 501 496 502 501 497 497 493 500 504 502 507 501 498 503 502 498 502 501 505 502 496 501 506 506 499 502 500 495 499 510 498 505 517 511 519 497 494 492 494 512 476 490 505 505 523 474 505 517 527 498 506 529 511 494 501 479 524 505 515 528 482 457 433 490 518 445 0 0 0 0 0 0 0
0 0 0 0 0 0 0 0 0 0 0 0 0 0 0 0 0 0 0 0 0 0 486 476 494 491 487 483 487 495 487 485 487 490 496 482 490 497 499 496 493 497 493 495 490 486 495 498 496 493 500 495 499 504 498 510 507 501 501 500 505 501 498 513 507 497 504 504 499 509 497 504 508 503 504 500 501 507 505 515 519 499 517 524 527 487 500 510 504 488 516 520 520 487 516 500 483 524 485 509 502 539 526 519 550 528 534 515 507 0 514 536 505 458 0 0 0 0 0 0
0 0 0 0 0 0 0 0 0 0 0 0 0 0 0 0 0 0 0 0 0 498 480 494 494 493 495 494 489 495 493 494 484 500 503 486 501 492 493 496 498 503 500 498 495 501 499 498 497 502 502 498 502 505 504 503 500 502 507 500 504 509 502 505 510 503 504 501 506 510 505 504 500 496 508 513 502 508 529 524 534 518 535 533 527 520 518 493 521 551 542 540 536 516 555 537 555 524 558 579 562 530 572 575 549 507 507 545 530 571 591 0 0 0 0 0 0 0 0 0
0 0 0 0 0 0 0 0 0 0 0 0 0 0 0 0 0 0 0 0 0 452 471 481 486 487 485 480 482 479 470 486 485 490 496 491 493 489 486 488 503 496 488 496 496 494 493 495 495 495 499 496 501 497 501 500 503 500 499 501 501 499 499 499 503 509 505 506 504 500 500 501 499 495 515 504 501 506 518 512 541 535 507 506 491 546 512 507 476 503 479 489 517 500 522 535 479 518 519 502 487 515 508 499 524 518 544 497 474 547 489 468 0 0 0 0 0 0 0 0
0 0 0 0 0 0 0 0 0 0 0 0 0 0 0 0 0 0 0 0 0 463 480 475 492 477 492 490 486 486 483 498 486 489 495 490 484 488 492 494 493 492 489 494 494 495 500 503 492 496 495 496 497 499 498 503 498 495 503 498 508 503 504 509 503 510 500 517 502 498 502 497 504 513 505 495 501 504 511 539 519 525 526 526 508 519 524 520 528 524 525 498 486 510 517 484 512 506 524 497 536 518 499 550 503 566 544 561 512 564 501 532 499 0 510 0 0 0 0 0
0 0 0 0 0 0 0 0 0 0 0 0 0 0 0 0 0 0 0 0 0 467 476 478 483 486 485 477 488 483 483 481 482 489 488 486 491 485 485 493 491 487 485 493 494 498 491 501 497 493 494 503 500 494 500 500 502 499 499 498 501 505 498 503 495 497 503 503 499 499 501 503 506 500 496 507 504 507 494 525 506 517 509 516 500 507 510 503 508 504 515 478 513 528 514 484 500 502 518 520 491 482 497 503 502 514 482 498 468 479 522 470 471 0 0 0 0 0 0 0
0 0 0 0 0 0 0 0 0 0 0 0 0 0 0 0 0 0 0 0 0 438 484 475 479 481 476 482 483 481 480 486 489 480 479 486 484 488 486 492 490 491 491 492 491 489 496 488 488 496 496 496 500 496 498 499 495 496 498 495 498 499 500 499 499 502 498 501 498 499 501 508 497 504 502 496 499 507 508 505 497 504 509 508 495 483 498 506 501 485 495 505 514 489 491 500 488 508 513 502 495 523 531 498 472 512 517 476 488 519 509 500 469 0 0 0 0 0 0 0
0 0 0 0 0 0 0 0 0 0 0 0 0 0 0 0 0 0 0 0 0 455 476 482 490 480 477 483 481 482 483 487 481 485 485 495 488 488 489 489 491 491 492 491 493 497 492 494 492 504 493 498 494 499 495 496 498 495 500 500 496 500 501 504 501 505 499 506 499 506 501 501 500 508 503 497 503 506 493 497 507 501 510 519 521 538 495 506 506 492 515 504 518 509 497 493 495 508 514 517 509 508 525 550 524 521 492 540 507 516 468 493 484 482 0 0 0 0 0 0
0 0 0 0 0 0 0 0 0 0 0 0 0 0 0 0 0 0 0 0 0 432 481 475 475 481 475 480 483 476 484 487 482 482 477 483 480 490 487 488 489 487 487 490 489 488 493 492 491 493 494 498 493 501 491 498 492 496 496 497 498 495 504 499 496 494 497 498 496 500 500 504 505 499 500 510 497 495 483 500 493 481 486 507 509 498 490 489 510 492 494 481 482 477 479 477 466 513 498 491 517 507 500 491 483 496 488 472 503 495 466 454 476 492 0 0 0 0 0 0
0 0 0 0 0 0 0 0 0 0 0 0 0 0 0 0 0 0 0 0 0 451 480 473 477 476 479 475 483 482 477 484 479 484 484 481 482 480 486 494 490 487 485 497 491 493 487 490 494 489 492 497 496 493 494 497 496 501 493 494 492 500 499 498 501 501 501 502 497 498 504 497 495 498 495 501 508 501 500 504 490 497 504 486 489 507 503 519 488 499 502 522 491 482 487 527 507 512 507 496 468 513 517 476 519 513 536 504 504 470 499 533 481 0 0 0 0 0 0 0
0 0 0 0 0 0 0 0 0 0 0 0 0 0 0 0 0 0 0 0 0 455 476 476 476 478 479 477 478 484 482 482 481 486 484 485 491 485 487 488 487 486 486 483 497 496 492 491 497 496 497 496 496 495 498 493 498 497 495 498 497 499 505 493 504 500 499 504 498 498 500 501 497 500 498 497 504 504 514 509 497 503 513 502 541 491 513 530 534 516 491 501 490 505 529 516 516 484 518 518 525 527 518 540 543 550 513 544 549 549 548 530 550 499 0 0 0 0 0 0
0 0 0 0 0 0 0 0 0 0 0 0 0 0 0 0 0 0 0 0 0 428 468 469 469 477 473 471 475 482 479 479 481 482 483 483 485 488 480 483 488 489 491 491 491 485 490 491 490 498 493 492 494 490 499 495 495 496 498 494 493 498 495 497 498 504 501 504 497 496 498 496 497 493 498 498 500 495 506 490 503 507 510 496 498 488 482 494 485 478 504 503 496 501 502 501 479 524 510 509 465 497 463 515 469 527 504 482 500 543 491 497 471 521 0 0 0 0 0 0
0 0 0 0 0 0 0 0 0 0 0 0 0 0 0 0 0 0 0 0 0 508 478 475 479 472 479 478 483 477 476 487 486 481 488 487 487 485 488 487 482 485 493 491 487 490 491 494 489 494 494 498 497 497 496 496 493 495 494 494 496 502 503 500 499 503 500 500 500 498 500 493 504 500 505 497 492 498 495 509 501 507 492 508 490 507 492 502 520 489 519 531 509 504 509 521 510 501 523 525 523 516 516 540 534 503 510 536 497 534 516 476 459 457 0 0 0 0 0 0
0 0 0 0 0 0 0 0 0 0 0 0 0 0 0 0 0 0 0 0 0 0 477 473 478 477 475 480 482 475 484 480 487 477 483 482 484 489 484 483 488 481 489 491 487 490 489 491 496 497 491 501 493 495 496 494 495 497 500 491 492 500 497 500 503 499 493 497 498 498 495 499 501 500 500 498 495 501 506 499 510 498 507 511 508 515 502 519 505 496 503 501 496 494 505 488 496 514 508 522 511 509 497 510 503 502 495 492 525 511 529 485 523 564 0 0 0 0 0 0
0 0 0 0 0 0 0 0 0 0 0 0 0 0 0 0 0 0 0 0 0 0 493 473 470 480 479 476 474 479 477 473 476 479 479 483 475 483 487 480 483 485 485 482 487 487 492 489 495 488 491 493 496 489 493 494 492 491 491 492 490 493 496 496 494 493 499 498 496 495 497 494 498 497 495 494 494 497 506 494 501 495 493 493 512 525 533 523 515 489 494 518 499 499 529 488 501 496 488 490 490 486 478 487 480 515 508 491 499 477 486 456 463 473 0 0 0 0 0 0
0 0 0 0 0 0 0 0 0 0 0 0 0 0 0 0 0 0 0 0 0 0 527 470 468 478 476 480 476 480 477 478 481 481 483 481 480 484 482 484 489 485 487 487 490 491 490 483 494 492 496 494 489 494 495 498 496 493 492 499 496 496 495 501 500 499 499 504 495 497 497 494 499 492 497 489 493 509 495 500 510 513 490 510 514 502 535 518 509 514 554 513 503 499 497 499 508 511 498 504 501 502 505 510 514 512 548 474 508 475 515 482 462 479 515 544 0 0 0 0
0 0 0 0 0 0 0 0 0 0 0 0 0 0 0 0 0 0 0 0 0 0 614 468 475 473 481 475 473 475 473 476 477 475 479 485 483 483 483 484 482 490 484 490 487 486 490 488 492 490 492 497 490 494 496 495 494 492 494 491 495 494 502 500 497 497 497 496 494 491 495 492 496 493 492 491 494 488 497 490 504 490 498 503 497 505 494 495 496 486 502 485 507 508 495 524 497 500 514 505 480 508 502 489 477 482 492 497 506 479 478 460 491 469 465 0 0 0 0 0
0 0 0 0 0 0 0 0 0 0 0 0 0 0 0 0 0 0 0 0 0 0 770 485 470 470 477 477 475 474 476 483 483 481 473 483 478 485 479 483 483 486 486 491 485 483 484 490 487 492 498 492 497 491 490 491 492 491 493 492 493 501 489 490 495 499 492 502 490 492 499 492 502 492 492 489 496 492 498 509 500 486 494 503 506 514 501 517 487 504 502 484 495 517 535 482 497 512 500 544 503 505 524 513 495 499 519 506 514 455 517 496 533 0 0 0 0 0 0 0
0 0 0 0 0 0 0 0 0 0 0 0 0 0 0 0 0 0 0 0 0 0 0 494 477 473 476 475 478 473 483 479 476 482 481 483 480 484 485 483 489 484 488 487 489 487 492 495 494 491 495 492 488 492 490 490 496 489 496 491 488 491 493 496 492 492 497 499 497 490 501 496 495 493 498 492 492 488 500 504 513 506 494 500 503 509 512 495 490 514 523 503 485 522 507 536 507 556 530 542 531 516 520 489 506 494 464 529 516 478 495 531 502 0 0 0 0 0 0 0
0 0 0 0 0 0 0 0 0 0 0 0 0 0 0 0 0 0 0 0 0 0 0 492 470 476 467 469 474 475 476 480 482 476 477 482 474 479 479 483 483 481 486 484 488 490 488 486 489 485 494 493 491 488 491 488 495 495 489 493 490 497 493 494 492 494 492 496 491 493 492 494 493 496 494 490 484 498 487 518 492 496 491 501 511 504 501 507 509 492 488 490 514 482 475 492 505 485 502 497 503 493 505 520 516 462 476 477 471 490 482 447 496 432 0 0 0 0 0 0
0 0 0 0 0 0 0 0 0 0 0 0 0 0 0 0 0 0 0 0 0 0 0 0 472 470 466 478 469 475 473 476 480 475 480 478 472 484 479 479 479 484 489 486 486 487 490 487 495 490 484 490 494 492 492 493 499 494 491 499 489 495 492 492 497 494 495 493 493 491 502 493 494 494 489 488 511 512 513 509 511 512 496 507 511 530 512 509 513 516 499 501 524 496 513 528 507 514 510 501 508 510 523 522 492 493 496 493 501 482 478 525 490 518 485 478 0 0 0 0
0 0 0 0 0 0 0 0 0 0 0 0 0 0 0 0 0 0 0 0 0 0 0 0 512 467 469 479 469 476 481 469 475 474 478 481 478 478 481 481 483 478 479 484 489 487 490 486 487 489 491 496 489 495 493 488 491 493 494 490 498 488 492 495 493 495 498 492 493 490 498 493 495 495 494 496 491 511 489 487 487 507 491 512 503 500 496 511 494 503 506 499 494 532 546 502 526 548 487 481 485 509 505 508 464 463 454 468 473 483 504 509 495 460 519 0 0 0 0 0
0 0 0 0 0 0 0 0 0 0 0 0 0 0 0 0 0 0 0 0 0 0 0 0 0 480 461 472 471 472 471 476 476 473 475 473 476 473 477 480 482 476 483 488 483 482 486 485 485 488 488 484 484 488 484 488 490 486 485 492 492 493 496 493 498 489 488 490 494 490 489 491 492 491 492 488 480 477 488 489 494 481 485 485 483 488 484 480 481 492 488 501 504 482 510 517 481 507 473 495 502 494 488 462 477 455 445 445 494 476 471 453 474 470 471 0 0 0 0 0
0 0 0 0 0 0 0 0 0 0 0 0 0 0 0 0 0 0 0 0 0 0 0 0 0 565 475 469 468 474 473 473 473 472 473 477 480 472 483 477 479 479 484 477 483 483 483 485 486 487 484 482 488 486 486 489 488 488 491 492 489 489 492 489 491 494 494 489 494 490 492 488 497 495 489 493 478 487 497 485 508 497 496 485 495 485 503 491 500 481 513 506 498 502 519 508 506 514 497 512 489 513 491 486 489 495 496 497 489 497 491 504 485 465 501 0 0 0 0 0
0 0 0 0 0 0 0 0 0 0 0 0 0 0 0 0 0 0 0 0 0 0 0 0 0 0 470 469 462 477 468 471 469 471 475 474 469 477 472 476 475 478 478 485 483 483 483 482 485 482 483 483 485 487 487 487 488 489 492 484 487 485 489 488 491 486 486 485 493 491 492 493 489 488 485 481 473 475 486 486 485 487 476 490 475 489 481 478 462 461 470 474 474 479 471 504 467 474 480 469 496 497 484 508 452 483 471 467 450 459 466 446 436 406 0 0 0 0 0 0
0 0 0 0 0 0 0 0 0 0 0 0 0 0 0 0 0 0 0 0 0 0 0 0 0 0 0 476 473 467 472 471 476 475 472 470 473 477 475 481 479 482 480 479 478 482 480 481 480 477 482 483 488 485 488 487 485 487 484 486 488 490 486 489 492 489 488 491 492 489 488 490 491 487 482 484 472 485 480 488 497 483 478 491 497 492 492 486 474 484 492 489 482 483 489 516 501 502 500 492 512 503 493 493 501 475 491 485 478 472 457 447 472 437 493 0 0 0 0 0
0 0 0 0 0 0 0 0 0 0 0 0 0 0 0 0 0 0 0 0 0 0 0 0 0 0 0 510 468 468 464 465 475 470 470 472 476 475 473 477 475 479 476 481 479 479 478 483 479 486 486 486 487 485 482 488 484 482 486 492 486 490 486 485 486 488 490 487 492 491 486 486 486 481 489 495 487 490 495 489 505 497 493 512 503 511 506 516 492 506 494 507 509 509 506 502 488 507 503 522 503 459 521 506 502 487 492 516 520 496 465 533 527 495 0 0 0 0 0 0
0 0 0 0 0 0 0 0 0 0 0 0 0 0 0 0 0 0 0 0 0 0 0 0 0 0 0 0 515 467 467 467 467 474 473 466 474 469 476 474 472 477 474 471 475 482 472 476 481 479 484 482 482 485 484 480 488 484 485 486 487 482 488 490 484 485 489 478 488 481 481 484 476 473 476 489 485 472 478 484 478 483 486 494 494 475 486 487 484 489 480 496 489 484 497 495 476 494 494 494 492 497 493 469 460 483 470 474 486 446 482 485 476 451 481 0 0 0 0 0
0 0 0 0 0 252 245 266 331 0 0 0 0 0 0 0 0 0 0 0 0 2319 0 0 0 0 0 0 0 524 459 466 467 472 469 472 472 470 476 473 472 477 477 476 475 477 479 480 480 482 483 487 481 486 487 477 482 487 486 481 489 487 484 487 483 489 482 485 486 484 477 491 489 488 484 490 496 496 494 487 497 517 494 502 502 491 491 496 503 523 504 508 477 503 524 500 506 489 479 516 516 521 525 513 512 497 514 492 502 507 465 475 502 517 517 0 0 0 0 0
0 0 0 0 235 232 227 231 233 292 391 0 0 0 0 0 0 0 0 0 0 2338 0 0 0 0 0 0 0 0 450 464 466 467 470 471 473 471 473 473 473 474 471 475 478 476 477 475 480 478 476 484 483 482 477 480 482 482 480 482 485 483 486 489 478 484 480 480 478 479 469 469 479 477 483 475 475 474 480 484 468 478 483 483 490 480 486 486 486 479 461 497 478 462 467 481 473 481 478 493 470 500 493 460 480 452 460 494 481 476 463 476 418 0 0 0 0 0 0 0
200 0 0 219 218 229 224 228 229 243 331 0 0 0 0 0 0 0 0 0 0 0 0 0 0 0 0 0 0 0 0 453 462 472 462 468 465 468 468 471 469 469 467 468 469 476 476 479 477 472 478 474 475 475 481 475 482 474 475 480 478 483 477 480 482 474 478 477 478 481 478 468 466 485 472 486 473 471 472 464 471 474 482 463 472 472 481 472 466 474 467 462 461 467 485 479 467 473 473 505 465 477 468 451 444 432 437 442 444 447 446 446 425 441 430 0 0 0 0 0
217 230 291 274 272 288 254 231 240 238 327 0 433 442 430 397 420 433 442 430 472 445 454 448 458 460 468 461 460 457 452 455 464 472 462 466 466 466 467 467 470 472 473 468 474 469 476 477 478 473 479 482 473 479 482 474 479 477 480 482 482 479 478 480 481 476 479 486 485 470 481 478 468 481 487 465 480 486 476 474 469 480 486 468 473 475 472 486 476 469 471 504 475 488 484 487 464 479 473 472 481 483 464 486 442 503 468 478 491 440 456 455 498 509 453 492 0 0 0 0
180 206 176 201 200 236 248 234 224 242 321 343 383 390 400 382 398 404 395 396 398 423 408 406 424 420 424 433 425 449 447 452 455 457 449 452 462 460 452 447 459 457 458 460 461 461 464 463 470 469 465 466 468 472 474 467 467 475 467 464 473 466 472 466 464 470 473 471 464 465 461 461 470 456 463 452 457 452 450 452 458 451 451 449 446 446 445 438 454 447 437 444 432 437 461 439 441 444 452 436 449 436 437 444 445 439 413 455 435 414 443 424 451 433 432 420 418 0 0 0
180 200 225 209 246 225 232 224 236 302 394 359 357 378 386 362 378 365 388 385 382 398 384 398 413 415 422 419 430 434 440 444 440 441 443 440 437 445 448 449 444 457 450 449 450 454 453 460 454 457 453 455 461 460 455 463 457 453 458 459 460 461 457 454 460 455 456 460 458 450 452 454 449 446 429 432 431 443 427 431 424 435 428 421 423 427 432 414 433 424 442 421 439 419 429 428 415 431 427 421 427 436 431 432 427 403 404 428 409 418 420 401 430 429 415 438 434 462 408 0
294 291 252 224 233 231 232 227 254 341 360 336 332 344 354 335 341 353 351 350 339 362 369 382 371 392 396 403 417 416 416 427 425 431 429 429 437 433 425 430 426 429 433 441 433 435 433 441 442 440 441 441 435 442 448 453 442 443 441 446 453 440 447 442 441 450 438 442 443 432 439 436 431 428 415 418 407 408 398 402 400 406 399 397 411 407 404 396 401 404 397 402 393 403 401 398 390 392 397 395 407 413 391 397 421 386 398 402 408 402 402 403 395 397 397 412 387 432 445 0
291 293 268 236 232 232 233 240 291 316 297 306 305 303 320 320 321 294 310 318 331 329 334 337 348 361 379 388 394 398 392 396 409 414 408 409 412 412 409 411 414 418 412 408 415 414 410 420 417 415 417 413 421 424 418 419 419 416 424 423 423 425 418 421 421 420 421 415 418 415 411 405 413 404 399 398 369 371 370 371 358 356 352 364 362 367 372 359 360 359 355 351 364 359 364 370 346 354 356 369 347 364 361 372 353 358 344 366 372 356 361 362 369 343 359 347 347 346 334 386
296 279 282 282 256 258 260 273 287 284 290 288 282 301 295 299 297 300 293 285 308 305 320 318 344 349 362 363 368 372 390 386 392 393 383 390 398 393 397 393 395 395 394 395 389 400 397 396 398 397 394 403 400 396 401 395 397 408 411 404 398 391 403 400 391 390 396 396 395 399 393 397 389 384 372 379 364 353 350 347 341 335 333 336 337 337 344 347 343 339 330 327 330 328 346 334 331 334 333 332 327 324 350 348 344 359 333 331 332 333 325 340 346 334 374 360 330 362 360 336
242 245 245 250 245 241 258 253 260 272 254 257 253 253 250 254 261 266 260 268 259 284 293 295 306 318 327 334 349 363 355 373 358 365 359 368 364 369 363 373 371 365 369 372 368 370 370 373 369 373 379 373 373 381 379 376 382 377 381 375 379 376 383 373 370 375 373 370 370 366 366 371 361 355 350 338 328 322 315 307 300 301 309 297 303 318 298 304 298 298 291 296 297 302 293 300 294 290 296 296 312 301 313 305 300 306 314 305 298 301 301 300 314 305 300 294 286 320 305 316
220 221 228 231 236 236 231 239 242 237 240 238 245 244 240 244 245 244 246 245 252 264 265 291 289 294 311 315 326 323 330 327 335 344 338 338 338 340 342 345 344 346 344 349 352 347 339 345 341 344 344 349 351 351 351 351 347 353 347 345 353 351 350 345 348 348 344 346 349 347 344 334 334 337 319 324 301 291 289 288 276 279 278 269 282 275 276 284 272 273 278 276 269 279 268 270 268 273 275 280 271 273 278 276 274 270 272 268 277 280 262 269 273 281 267 264 277 270 261 260
207 219 227 222 227 229 223 223 225 225 219 229 221 233 227 222 227 229 232 242 243 246 259 259 272 280 301 304 302 301 314 318 319 321 319 318 318 316 328 329 316 324 313 315 326 324 326 328 330 326 319 328 331 328 325 325 330 320 334 321 326 326 327 327 329 331 327 325 322 320 321 319 317 308 305 295 295 280 274 270 264 262 261 264 266 267 263 259 253 253 259 263 254 261 264 264 254 249 257 267 257 249 260 267 252 258 256 247 262 254 261 269 261 254 257 284 257 249 265 263
209 207 204 216 211 206 212 219 220 208 205 211 208 212 215 219 212 221 212 213 223 230 245 247 251 262 271 277 274 280 289 294 292 297 297 303 294 301 300 303 300 300 297 301 301 295 298 302 301 308 304 300 294 299 296 302 307 306 305 306 303 305 309 301 306 304 307 299 300 301 299 295 299 290 289 283 260 260 251 254 242 244 252 242 245 241 246 237 235 247 234 252 240 246 243 239 244 238 243 240 243 245 243 240 242 246 238 239 231 247 234 245 233 256 228 254 234 247 250 257
183 200 199 208 203 202 207 210 200 203 203 198 202 207 209 189 212 206 212 214 219 225 234 233 237 251 249 255 266 267 269 267 271 273 278 278 282 281 285 280 281 278 280 284 288 284 281 280 284 290 287 280 279 285 282 285 288 284 283 288 282 294 284 288 284 285 290 286 286 285 285 278 280 276 267 264 256 245 235 236 226 226 225 228 229 231 222 221 225 227 231 227 231 230 215 226 219 219 224 215 222 235 236 229 226 229 225 222 229 234 238 247 252 245 245 250 242 215 237 267
181 197 191 177 182 183 184 190 181 185 182 183 178 199 186 184 183 191 189 189 210 194 215 223 227 232 238 246 247 252 253 256 257 257 265 260 258 259 268 267 265 264 266 264 265 269 267 274 263 271 263 271 266 266 265 269 264 269 265 274 267 270 266 271 269 273 269 269 264 264 267 264 260 257 255 248 236 233 229 221 217 218 218 217 215 224 220 216 217 219 216 215 218 211 214 212 217 209 212 221 224 218 216 218 210 214 221 205 221 226 223 224 229 229 216 214 237 235 230 225
173 172 171 181 179 170 183 174 180 178 175 181 177 177 185 186 182 186 179 184 185 190 189 211 215 216 224 223 228 232 234 242 240 241 238 241 239 245 249 249 242 244 248 246 248 250 249 248 248 251 246 249 247 249 243 244 248 247 249 251 252 248 252 247 243 250 246 248 248 245 244 244 236 238 235 228 218 215 200 200 196 198 186 189 193 196 193 193 186 186 187 189 187 189 195 188 184 186 186 196 187 207 206 186 189 186 185 185 203 204 206 202 211 200 210 195 213 215 208 220
175 170 176 179 175 178 175 165 174 179 179 178 180 178 182 182 182 185 183 181 187 178 186 194 208 207 215 214 217 221 227 223 222 222 226 231 230 232 228 230 228 233 236 236 237 238 229 234 234 233 235 237 238 234 233 232 235 238 239 238 235 237 238 235 236 236 234 234 233 233 232 231 230 225 221 218 213 213 189 188 198 198 192 191 194 194 184 188 182 194 184 183 188 191 181 184 184 183 188 188 174 183 181 181 191 181 179 184 176 184 179 198 199 202 205 217 208 213 202 211
163 162 174 170 171 166 164 168 166 166 165 165 167 170 172 172 172 175 178 178 179 183 179 190 185 193 187 190 191 210 193 198 210 211 212 215 216 201 215 196 215 221 218 216 220 220 220 222 221 224 221 222 219 220 222 221 221 221 219 225 218 225 221 223 217 215 220 221 219 217 224 220 216 210 194 193 187 193 191 188 186 181 191 183 189 183 184 181 184 187 185 182 186 176 178 182 180 178 184 179 187 187 183 185 185 179 176 180 175 181 182 180 179 172 175 170 172 172 174 199
147 153 160 155 161 164 158 161 163 161 157 161 160 155 163 161 160 169 171 172 173 174 181 183 182 186 181 184 193 193 184 185 181 184 185 190 187 186 186 194 191 194 192 193 195 196 192 193 191 196 197 196 197 196 197 191 194 191 195 198 201 202 200 188 191 195 194 193 195 198 193 197 191 191 188 197 192 187 186 180 176 177 175 174 176 176 178 176 172 176 175 177 173 171 173 173 169 169 170 167 170 173 170 169 172 168 167 167 169 172 168 171 172 168 170 166 177 176 171 189
142 149 150 152 157 157 158 160 161 158 158 155 158 153 161 157 157 161 157 164 166 169 176 181 178 176 179 183 183 184 190 188 190 192 187 188 192 192 193 191 196 196 193 194 192 195 194 197 198 191 195 188 196 195 198 196 199 197 197 197 196 198 198 200 197 194 195 198 199 197 191 195 192 191 189 182 189 182 179 174 171 170 167 166 169 169 170 168 169 168 170 168 169 170 172 170 165 168 166 169 169 164 170 169 163 166 160 162 169 172 169 166 167 171 176 170 164 172 175 169
144 139 142 144 149 145 145 149 146 149 149 149 152 152 146 149 154 153 154 159 159 163 163 172 175 174 172 173 173 177 179 181 183 181 177 180 184 180 185 184 182 183 188 189 184 188 185 184 189 185 185 188 188 186 186 186 188 190 0 186 190 187 187 186 189 188 190 188 183 183 188 186 182 180 172 175 172 174 171 165 159 159 160 162 157 161 162 161 166 161 158 160 160 160 160 160 158 156 165 161 160 164 161 154 156 158 156 158 156 159 149 164 152 157 150 149 158 154 161 157
136 139 139 142 139 145 148 147 145 147 144 146 141 149 145 152 143 146 146 150 159 158 163 164 169 169 169 166 172 172 172 173 176 174 171 171 175 172 175 174 175 181 179 179 175 179 177 178 176 176 181 179 178 180 179 180 181 0 0 181 177 178 182 182 182 176 181 179 177 171 174 176 174 177 172 172 168 164 164 158 161 154 151 154 155 157 157 151 155 156 146 152 157 157 151 156 152 152 156 156 151 150 152 154 152 149 149 151 159 152 157 143 146 157 149 154 156 151 155 146
142 134 131 139 144 143 150 142 143 139 141 143 144 144 142 140 142 148 147 148 151 157 155 157 163 160 160 163 166 165 165 163 167 165 164 167 164 168 167 169 174 0 173 0 172 172 174 172 171 173 173 171 174 173 175 0 175 173 0 0 173 0 175 172 172 171 173 170 172 170 170 168 171 172 167 164 166 159 157 152 152 155 151 152 152 150 148 148 149 156 146 152 151 150 148 147 153 149 156 146 145 149 148 149 146 148 143 144 147 148 151 148 146 158 150 157 154 151 169 171
128 112 127 114 133 134 140 136 131 123 137 130 132 126 136 136 138 135 136 138 142 144 149 153 150 157 157 156 156 161 160 160 157 157 158 155 161 161 0 0 0 0 0 0 0 0 0 162 167 166 166 164 167 167 0 0 0 166 0 0 0 0 0 0 164 0 165 0 163 163 162 162 162 158 155 157 154 157 149 151 151 143 145 147 142 149 143 147 144 143 142 143 143 145 141 143 142 144 140 142 137 139 139 134 138 124 138 137 138 143 139 143 149 145 136 130 135 142 139 133
124 121 127 125 127 133 135 132 138 131 132 136 133 134 133 128 123 138 137 138 141 142 147 147 149 149 154 152 156 154 156 155 157 158 154 156 156 0 0 0 0 0 0 0 0 0 0 0 158 162 164 162 0 0 0 0 0 0 0 0 0 0 0 0 160 159 0 0 0 0 0 158 159 155 154 150 150 154 149 145 142 141 144 142 144 142 143 140 145 141 139 142 138 141 138 141 144 141 140 141 138 134 140 135 132 131 133 134 142 143 139 151 138 148 150 141 140 134 140 162
114 108 115 123 129 127 128 129 132 128 130 124 117 119 114 121 134 124 120 136 128 125 133 141 140 138 144 143 147 151 151 151 152 150 150 150 0 0 0 0 0 0 0 0 0 0 0 0 153 156 156 0 0 0 0 0 0 0 0 0 0 0 0 0 0 0 0 0 0 0 0 0 149 150 149 147 145 143 138 142 129 131 137 140 127 138 136 137 136 130 139 129 131 135 118 136 142 137 135 136 130 135 135 133 128 133 130 126 133 139 138 137 138 142 134 134 130 129 118 129
104 109 114 111 108 114 118 117 112 120 115 114 117 114 123 123 123 117 116 119 120 123 125 125 135 139 140 140 141 143 143 142 143 143 143 140 0 0 0 0 0 0 0 0 0 0 0 0 0 0 0 0 0 0 0 0 0 0 0 0 0 0 0 0 0 0 0 0 0 0 0 0 143 137 141 139 140 132 129 128 127 122 123 121 137 118 126 128 118 129 121 122 116 136 125 133 125 132 121 120 118 133 133 115 121 129 115 122 128 132 126 122 124 127 114 123 120 105 113 104
110 110 117 117 116 116 115 125 119 117 116 119 116 116 118 124 116 128 125 116 118 115 121 118 137 135 136 132 0 135 0 0 0 139 142 0 0 0 0 0 0 0 0 0 0 0 0 0 0 0 0 0 0 0 0 0 0 0 0 0 0 0 0 0 0 0 0 0 0 0 0 0 0 141 127 125 126 123 122 126 124 117 122 127 117 120 117 123 119 116 118 123 118 116 114 121 120 119 124 120 118 126 131 124 122 116 118 123 112 132 129 110 123 121 127 117 115 132 150 150
100 100 109 112 109 104 107 106 100 100 106 107 104 106 108 108 111 111 117 108 114 114 109 118 120 122 127 119 120 125 0 0 0 0 0 0 0 0 0 0 0 0 0 0 0 0 0 0 0 0 0 0 0 0 0 0 0 0 0 0 0 0 0 0 0 0 0 0 0 0 0 0 131 0 0 122 119 119 119 117 114 114 108 115 115 111 109 110 109 115 112 113 110 113 109 109 112 113 113 109 111 113 110 113 112 118 104 108 108 107 105 103 105 115 112 97 102 116 109 132
97 102 92 95 103 100 103 104 103 102 102 105 102 106 109 107 106 110 117 108 109 113 107 109 117 110 115 118 119 122 0 126 0 0 0 0 0 0 0 0 0 0 0 0 0 0 0 0 0 0 0 0 0 0 0 0 0 0 0 0 0 0 0 0 0 0 0 0 0 0 0 0 0 125 0 117 120 116 115 109 110 111 105 104 112 108 112 117 105 110 111 113 111 114 106 113 105 105 103 119 111 105 109 105 113 115 110 111 118 117 101 103 110 102 111 123 113 89 104 137
96 101 100 107 99 98 102 92 95 98 98 95 102 98 100 92 106 103 114 117 112 107 99 111 114 108 115 116 117 122 119 119 123 0 0 0 0 0 0 0 0 0 0 0 0 0 0 0 0 0 0 0 0 0 0 0 0 0 0 0 0 0 0 0 0 0 0 0 0 0 0 0 121 123 0 118 115 115 120 115 106 113 102 117 109 109 104 104 102 109 104 108 117 94 101 102 107 110 114 106 110 110 115 112 108 107 108 94 102 113 103 104 106 92 108 91 137 138 123 124
89 82 83 84 82 82 83 92 94 83 86 93 98 93 90 88 78 94 91 86 92 88 98 107 101 101 111 109 0 0 104 109 117 0 0 0 0 0 0 0 0 0 0 0 0 0 0 0 0 0 0 0 0 0 0 0 0 0 0 0 0 0 0 0 0 0 0 0 0 0 0 118 108 110 101 112 109 106 103 102 100 104 96 91 103 97 91 101 105 101 93 97 105 84 86 95 94 99 85 97 85 97 91 93 79 88 95 94 97 87 82 89 75 95 86 97 96 84 101 124
93 87 90 88 98 98 99 107 91 93 96 98 90 97 99 99 99 87 106 98 92 108 106 104 106 103 112 106 0 106 114 107 118 113 119 109 0 0 113 0 0 118 0 0 0 0 0 0 0 0 0 0 0 0 0 0 0 0 0 0 113 0 0 118 112 0 0 0 111 0 110 110 119 112 114 109 109 110 105 97 110 105 106 91 92 103 106 102 102 101 107 106 109 99 98 105 101 96 97 113 100 95 95 102 96 106 99 93 92 85 95 95 92 107 117 109 116 125 160 165
87 92 92 90 96 94 93 94 85 96 84 92 89 94 89 83 95 100 98 93 98 94 97 111 90 105 108 100 104 107 93 0 105 103 98 103 0 116 114 0 108 0 0 0 0 0 0 0 0 0 0 0 0 0 0 0 0 108 0 0 112 106 104 111 114 114 105 101 113 104 107 98 102 98 112 109 99 89 103 95 95 96 101 86 95 92 93 106 109 94 101 103 109 88 94 83 92 94 94 85 93 86 91 94 89 94 102 97 94 86 93 88 85 102 92 93 113 144 94 128
84 86 83 89 90 91 107 92 89 81 89 88 84 91 92 90 88 88 92 87 77 91 95 85 85 94 92 92 105 88 96 99 99 97 91 109 99 99 103 102 99 97 98 110 106 89 0 0 94 0 0 105 105 92 100 111 107 103 107 106 100 108 110 104 101 111 104 95 100 109 99 106 101 99 103 95 95 95 99 89 96 92 97 96 90 96 88 95 95 94 100 94 95 92 94 90 86 94 89 84 86 91 90 89 91 92 95 87 85 98 89 101 90 99 78 100 111 73 83 112
84 82 87 85 85 82 101 102 89 87 85 87 84 91 82 90 91 95 90 100 83 96 96 94 91 94 95 92 99 101 97 86 94 93 96 97 98 101 97 110 102 97 100 107 104 96 104 0 104 101 97 105 98 102 102 101 102 106 100 111 106 96 96 107 103 104 99 102 99 105 99 104 101 93 102 88 94 95 98 86 96 96 96 94 98 96 92 86 96 89 86 96 88 94 82 82 93 93 105 84 92 101 81 94 90 103 92 100 89 88 90 107 105 108 105 121 105 115 132 135
83 73 67 67 75 83 86 87 86 76 86 81 87 92 90 86 86 87 87 84 85 86 93 90 86 83 92 94 96 93 91 92 95 91 95 95 94 96 89 95 92 90 83 89 96 91 90 101 94 89 94 96 97 90 89 83 102 88 97 96 97 99 81 99 95 98 96 91 96 83 93 97 96 90 84 94 92 96 97 93 89 89 81 87 84 92 88 86 87 88 93 76 88 81 88 86 83 75 80 92 80 88 81 70 81 82 81 86 76 73 70 79 86 84 100 93 105 87 87 52
75 73 82 86 72 86 83 88 82 83 82 90 81 81 84 89 86 89 83 86 86 90 85 92 87 85 91 86 95 91 88 99 92 95 88 93 84 92 89 95 95 83 94 89 88 100 91 95 103 92 91 96 97 85 99 96 91 85 90 96 98 84 94 93 89 97 92 89 107 94 84 93 89 84 92 92 95 85 94 93 89 90 86 91 80 83 90 83 96 93 80 91 79 79 90 81 89 88 79 81 82 81 82 77 77 85 85 85 90 89 94 87 83 97 131 127 138 88 166 204
