0 0 0 0 0 0 0 0 0 0 0 0 0 0 0 0 0 0 0 0 0 0 0 0 0 0 0 0 0 0 0 0 0 0 0 0 0 0 0 0 0 0 0 0 0 0 0 0 0 0 0 0 0 0 0 0 0 0 0 0 0 0 0 0 0 0 0 0 0 0 0 0 0 0 0 0 0 0 0 0 0 0 0 0 0 0 0 0 0 0 0 0 0 0 0 0 0 0 0 0 0 0 0 0 0 0 0 0 0 0 0 0 0 0 0 0 0 0 0 0
0 0 0 0 0 0 0 0 0 0 0 0 0 0 0 0 0 0 0 0 0 0 0 0 0 0 0 0 0 0 0 0 0 0 0 0 0 0 0 0 0 0 0 0 0 0 0 0 0 0 0 0 0 0 0 0 0 0 0 0 0 0 0 0 0 0 0 0 0 0 0 0 0 0 0 0 0 0 0 0 0 0 0 0 0 0 0 0 0 0 0 0 0 0 0 0 0 0 0 0 0 0 0 0 0 0 0 0 0 0 0 0 0 0 0 0 0 0 0 0
0 0 0 0 0 0 0 0 0 0 0 0 0 0 0 0 0 0 0 0 0 0 0 0 0 0 0 0 0 0 0 0 0 0 0 0 0 0 0 0 0 0 0 0 0 0 0 0 0 0 0 0 0 0 0 0 0 0 0 0 0 0 0 0 0 0 0 0 0 0 0 0 0 0 0 0 0 0 0 0 0 0 0 0 0 0 0 0 0 0 0 0 0 0 0 0 0 0 0 0 0 0 0 0 0 0 0 0 0 0 0 0 0 0 0 0 0 0 0 0
0 0 0 0 0 0 0 0 0 0 0 0 0 0 0 0 0 0 0 0 0 0 0 0 0 0 0 0 0 0 0 0 0 0 0 0 0 0 0 0 0 0 0 0 0 0 0 0 0 0 0 0 0 0 0 0 0 0 0 0 0 0 0 0 0 0 0 0 0 0 0 0 0 0 0 0 0 0 0 0 0 0 0 0 0 0 0 0 0 0 0 0 0 0 0 0 0 0 0 0 0 0 0 0 0 0 0 0 0 0 0 0 0 0 0 0 0 0 0 0
0 0 0 0 0 0 0 0 0 0 0 0 0 0 0 0 0 0 0 0 0 0 0 0 0 0 0 0 0 0 0 0 0 0 0 0 0 0 0 0 0 0 0 0 0 0 0 0 0 0 0 0 0 0 0 0 0 0 0 0 0 0 0 0 0 0 0 0 0 0 0 0 0 0 0 0 0 0 0 0 0 0 0 0 0 0 0 0 0 0 0 0 0 0 0 0 0 0 0 0 0 0 0 0 0 0 0 0 0 0 0 0 0 0 0 0 0 0 0 0
0 0 0 0 0 0 0 0 0 0 0 0 0 0 0 0 0 0 0 0 0 0 0 0 0 0 0 0 0 0 0 0 0 0 0 0 0 0 0 534 534 530 519 527 506 536 540 536 508 528 521 550 535 536 490 0 0 0 0 0 0 0 0 0 0 0 0 0 0 0 0 0 0 0 0 0 0 0 0 0 0 0 0 0 0 0 0 0 0 0 0 0 0 0 0 0 0 0 0 0 0 0 0 0 0 0 0 0 0 0 0 0 0 0 0 0 0 0 0 0
0 0 0 0 0 0 0 0 0 0 0 0 0 0 0 0 0 0 0 0 0 0 0 0 0 0 0 0 0 0 0 0 0 0 0 0 0 487 500 512 508 490 498 495 494 505 505 495 501 517 500 504 496 499 505 502 507 488 496 530 0 0 0 0 0 0 0 0 0 0 0 0 0 0 0 0 0 0 0 0 0 0 0 0 0 0 0 0 0 0 0 0 0 0 0 0 0 0 0 0 0 0 0 0 0 0 0 0 0 0 0 0 0 0 0 0 0 0 0 0
0 0 0 0 0 0 0 0 0 0 0 0 0 0 0 0 0 0 0 0 0 0 0 0 0 0 0 0 0 0 0 0 0 0 0 520 515 520 511 504 501 509 506 526 510 503 508 514 512 518 499 515 515 507 528 514 521 509 507 519 518 534 522 529 538 0 0 0 0 0 0 0 0 0 0 0 0 0 0 0 0 0 0 0 0 0 0 0 0 0 0 0 0 0 0 0 0 0 0 0 0 0 0 0 0 0 0 0 0 0 0 0 0 0 0 0 0 0 0 0
0 0 0 0 0 0 0 0 0 0 0 0 0 0 0 0 0 0 0 0 0 0 0 0 0 0 0 0 0 0 0 0 0 510 474 495 500 515 490 493 512 516 498 508 502 503 506 501 504 513 501 490 515 501 505 511 511 508 493 509 501 497 513 510 520 514 495 559 566 542 616 592 599 0 586 569 575 608 533 588 0 0 0 0 0 0 0 0 0 0 0 0 0 0 0 0 0 0 0 0 0 0 0 0 0 0 0 0 0 0 0 0 0 0 0 0 0 0 0 0
0 0 0 0 0 0 0 0 0 0 0 0 0 0 0 0 0 0 0 0 0 0 0 0 0 0 0 0 0 0 0 503 497 501 496 495 491 490 500 500 509 511 494 500 487 497 492 495 506 499 502 495 499 501 498 501 506 506 494 506 511 497 502 510 495 501 505 500 494 598 527 552 535 535 571 553 536 555 553 547 558 544 506 560 510 583 509 536 516 568 555 516 517 573 549 511 554 509 528 511 535 577 577 552 0 508 0 0 0 0 0 0 0 0 0 0 0 0 0 0
0 0 0 0 0 0 0 0 0 0 0 0 0 0 0 0 0 0 0 0 0 0 0 0 0 0 0 0 0 0 534 505 512 496 490 497 502 505 508 510 504 496 505 500 512 504 500 512 506 496 507 511 505 506 515 522 506 504 511 520 506 512 506 504 516 523 510 510 503 526 567 576 588 584 599 611 587 597 538 575 596 579 607 581 579 608 566 571 590 580 559 561 572 603 627 596 611 613 584 617 577 628 582 599 581 545 620 594 641 0 0 0 0 0 0 0 0 0 0 0
0 0 0 0 0 0 0 0 0 0 0 0 0 0 0 0 0 0 0 0 0 0 0 0 0 0 0 0 457 502 485 505 489 504 494 498 494 490 509 486 495 497 495 492 506 499 510 494 504 497 498 504 507 509 495 511 502 499 498 502 504 503 504 500 510 500 506 501 510 507 515 516 531 558 517 535 517 509 555 541 571 544 552 527 529 538 520 507 534 536 526 532 541 519 543 572 530 517 509 546 531 520 530 527 520 497 494 497 529 0 0 0 0 0 0 0 0 0 0 0
0 0 0 0 0 0 0 0 0 0 0 0 0 0 0 0 0 0 0 0 0 0 0 0 0 0 0 501 500 505 505 500 503 498 504 491 494 510 502 499 502 502 506 496 507 503 500 500 493 497 504 498 515 494 501 510 503 510 503 509 515 507 513 508 514 508 498 516 502 513 511 505 576 540 534 554 562 573 549 582 560 540 525 550 523 511 494 538 540 524 582 538 531 536 529 545 533 566 541 503 579 528 548 532 528 562 503 545 570 0 0 0 0 0 0 0 0 0 0 0
0 0 0 0 0 0 0 0 0 0 0 0 0 0 0 0 0 0 0 0 0 0 0 0 0 0 515 501 504 505 508 497 499 495 496 502 497 496 511 497 502 502 496 506 503 513 500 498 500 498 505 501 525 502 512 507 507 509 509 504 513 514 509 515 506 513 524 501 505 517 509 512 546 571 554 573 590 568 571 559 581 552 588 532 579 598 576 581 576 567 591 562 595 567 602 574 582 573 540 534 588 588 600 545 543 556 585 609 564 0 0 0 0 0 0 0 0 0 0 0
0 0 0 0 0 0 0 0 0 0 0 0 0 0 0 0 0 0 0 0 0 0 0 0 0 449 471 488 496 492 493 493 490 492 497 478 514 491 505 497 501 502 505 496 495 501 496 504 497 505 501 500 499 501 505 508 504 508 502 495 513 504 504 510 503 501 493 496 499 510 506 501 507 519 532 491 525 544 541 554 551 525 532 527 537 538 558 527 526 534 526 552 540 541 539 552 574 565 529 498 551 544 517 520 563 536 506 501 564 553 525 0 0 0 0 0 0 0 0 0
0 0 0 0 0 0 0 0 0 0 0 0 0 0 0 0 0 0 0 0 0 0 0 0 0 503 490 494 492 501 494 499 502 496 490 503 491 501 506 502 509 505 513 500 495 498 502 510 505 508 505 509 503 502 502 509 508 502 505 506 509 513 509 515 509 509 511 509 504 509 518 511 502 522 552 567 568 568 577 585 537 552 558 556 504 526 534 525 566 536 551 546 560 554 560 582 531 565 590 567 537 568 556 530 628 542 592 510 571 581 0 652 603 537 0 0 0 0 0 0
0 0 0 0 0 0 0 0 0 0 0 0 0 0 0 0 0 0 0 0 0 0 0 0 513 491 497 494 486 489 496 495 495 496 500 494 499 503 497 503 490 505 495 497 498 505 500 502 501 495 495 503 508 501 503 509 504 500 500 504 500 500 504 506 506 504 506 504 509 510 506 515 506 511 534 530 539 566 566 567 546 539 548 578 564 568 551 552 543 553 547 559 545 558 524 557 550 549 557 540 583 542 548 556 550 598 557 539 546 538 572 0 0 0 0 0 0 0 0 0
0 0 0 0 0 0 0 0 0 0 0 0 0 0 0 0 0 0 0 0 0 0 0 0 475 479 495 488 485 478 491 491 484 488 495 494 490 494 491 498 492 485 504 499 491 501 501 491 510 492 498 503 500 504 498 502 500 504 505 506 500 504 508 502 499 503 504 500 502 505 498 507 513 514 498 522 525 509 523 499 510 525 518 533 496 488 507 511 519 484 521 524 524 518 493 501 545 539 514 521 533 530 490 518 512 532 535 540 513 523 0 0 0 0 0 0 0 0 0 0
0 0 0 0 0 0 0 0 0 0 0 0 0 0 0 0 0 0 0 0 0 0 0 497 496 501 496 489 493 494 497 499 493 498 497 484 501 493 504 497 497 501 497 505 499 503 502 506 502 501 503 505 502 509 508 507 506 508 502 508 519 505 506 508 506 505 517 506 509 511 508 507 518 505 507 522 531 567 545 546 581 565 548 521 557 556 542 554 540 555 571 544 558 564 522 559 561 556 548 572 547 565 544 567 584 564 554 531 574 594 599 0 0 0 0 0 0 0 0 0
0 0 0 0 0 0 0 0 0 0 0 0 0 0 0 0 0 0 0 0 0 0 0 488 485 488 484 490 484 495 494 487 487 496 485 489 483 489 488 496 484 496 499 497 503 495 498 506 489 496 497 502 493 500 498 496 505 502 502 504 506 508 506 502 498 501 503 499 502 504 501 504 510 501 504 519 512 535 521 507 504 509 507 534 509 532 505 511 513 531 513 532 495 512 508 493 519 532 497 517 518 525 516 534 508 537 543 540 499 546 477 0 0 0 0 0 0 0 0 0
0 0 0 0 0 0 0 0 0 0 0 0 0 0 0 0 0 0 0 0 0 0 454 496 491 492 481 492 495 489 493 500 493 490 483 489 495 493 487 486 494 496 492 501 493 485 504 496 494 509 494 495 496 498 507 506 505 507 497 497 502 509 508 504 496 500 507 501 501 498 506 503 508 503 504 501 510 507 519 529 526 500 537 523 537 519 485 510 525 524 551 536 579 538 543 535 529 496 525 523 531 568 501 505 502 497 531 524 539 548 526 549 494 0 0 0 0 0 0 0
0 0 0 0 0 0 0 0 0 0 0 0 0 0 0 0 0 0 0 0 0 0 487 491 484 498 494 493 492 498 486 497 492 495 498 498 487 495 495 491 496 498 491 500 494 504 502 504 498 505 497 504 503 504 499 507 501 508 501 503 505 509 507 509 514 507 502 517 515 500 498 507 512 507 511 511 507 514 546 555 533 528 546 521 539 544 556 545 560 554 536 548 516 546 554 531 555 536 554 566 543 533 556 550 547 545 568 554 560 546 527 0 0 0 0 0 0 0 0 0
0 0 0 0 0 0 0 0 0 0 0 0 0 0 0 0 0 0 0 0 0 0 465 477 485 482 485 488 476 493 491 484 488 490 488 483 486 492 492 487 498 496 499 501 503 499 495 493 497 498 494 498 496 497 495 493 501 503 504 506 502 503 502 504 501 504 503 498 504 495 510 504 503 501 506 511 508 516 525 519 503 534 499 481 506 501 497 523 511 508 547 520 481 513 534 500 510 503 542 518 508 487 555 497 517 509 524 519 508 507 535 515 537 0 0 0 0 0 0 0
0 0 0 0 0 0 0 0 0 0 0 0 0 0 0 0 0 0 0 0 0 0 516 493 493 487 489 507 500 488 489 490 488 498 489 492 485 496 498 488 496 497 500 495 497 498 499 500 499 507 499 507 507 498 496 500 501 505 501 503 506 503 500 504 506 508 508 512 500 506 515 504 504 508 503 517 507 534 546 552 521 532 554 560 519 527 538 545 549 548 522 537 576 590 526 556 570 578 578 545 552 557 552 543 543 531 522 532 543 592 515 568 561 0 0 0 0 0 0 0
0 0 0 0 0 0 0 0 0 0 0 0 0 0 0 0 0 0 0 0 0 0 494 489 487 494 488 491 489 491 489 488 491 491 492 494 485 495 493 490 497 496 492 493 487 500 490 495 500 496 503 503 495 497 505 496 496 501 502 499 505 507 501 502 499 507 502 502 505 504 504 509 503 501 506 500 509 526 519 504 531 522 522 523 526 525 524 499 510 509 508 530 527 519 515 517 532 532 513 526 539 513 532 500 519 503 526 538 513 524 496 569 523 0 0 0 0 0 0 0
0 0 0 0 0 0 0 0 0 0 0 0 0 0 0 0 0 0 0 0 0 0 479 478 477 488 485 478 483 484 488 492 484 492 490 479 488 487 498 493 491 489 493 497 491 489 495 489 495 494 497 495 494 502 494 495 494 496 494 497 510 500 504 505 500 495 501 495 493 506 492 503 501 501 497 503 496 512 508 502 519 520 527 508 496 515 513 496 488 494 501 479 476 486 486 496 494 488 510 529 509 490 495 514 484 533 493 474 410 451 499 475 545 476 0 0 0 0 0 0
0 0 0 0 0 0 0 0 0 0 0 0 0 0 0 0 0 0 0 0 0 473 477 486 484 490 493 490 486 493 482 488 486 499 487 484 502 491 499 495 489 501 489 499 491 494 504 506 496 497 499 501 492 499 500 507 504 495 506 500 508 502 501 505 501 501 501 511 503 509 503 505 510 508 505 504 499 512 510 528 521 522 482 490 527 526 530 522 518 555 503 509 529 558 550 514 518 557 541 535 562 550 549 538 538 544 508 535 565 549 505 549 559 0 0 0 0 0 0 0
0 0 0 0 0 0 0 0 0 0 0 0 0 0 0 0 0 0 0 0 0 439 474 480 487 478 486 480 479 478 477 487 481 487 487 485 492 484 485 489 493 493 491 492 490 489 497 493 495 493 491 493 495 505 499 500 499 499 499 501 495 496 497 497 502 504 502 499 501 505 498 498 502 497 504 499 502 492 494 505 507 515 519 489 514 496 507 504 514 480 489 479 501 515 509 500 511 512 492 505 483 519 491 465 505 514 494 513 481 477 473 508 0 0 0 0 0 0 0 0
0 0 0 0 0 0 0 0 0 0 0 0 0 0 0 0 0 0 0 0 0 462 469 488 490 472 480 482 481 479 483 485 483 483 483 486 486 486 485 490 493 490 489 492 496 490 499 494 494 496 496 495 495 497 496 501 498 499 501 503 506 502 501 498 500 500 509 507 498 496 497 493 500 508 507 497 496 501 520 499 500 536 503 517 505 509 492 498 515 518 523 504 513 509 515 478 501 509 477 504 503 501 525 486 487 522 516 506 518 503 544 512 519 0 450 0 0 0 0 0
0 0 0 0 0 0 0 0 0 0 0 0 0 0 0 0 0 0 0 0 0 453 483 481 489 479 485 490 492 488 489 488 484 487 492 485 488 488 488 494 494 490 489 496 498 494 494 495 494 494 492 495 496 499 501 493 497 500 498 500 498 502 501 503 500 503 507 506 495 503 498 503 505 510 508 500 498 510 515 516 502 533 536 519 520 506 520 522 518 519 536 519 542 538 523 579 498 545 528 489 510 550 546 550 541 538 541 560 547 552 530 539 597 0 0 0 0 0 0 0
0 0 0 0 0 0 0 0 0 0 0 0 0 0 0 0 0 0 0 0 0 434 488 477 477 471 476 486 483 481 481 478 482 480 487 482 481 486 485 483 491 486 485 493 489 486 491 491 490 487 495 497 491 501 490 490 497 495 499 498 505 496 495 498 498 499 500 495 498 498 505 501 497 512 497 501 500 491 489 502 479 507 511 486 482 517 505 501 499 516 487 505 502 512 483 503 471 512 490 512 494 518 478 496 525 555 498 496 502 495 477 511 0 0 0 0 0 0 0 0
0 0 0 0 0 0 0 0 0 0 0 0 0 0 0 0 0 0 0 0 0 477 474 483 486 484 478 482 480 481 485 487 492 483 488 489 483 495 492 488 491 493 492 491 493 494 492 497 494 493 494 493 493 500 497 496 496 501 502 499 494 494 500 507 499 497 501 503 496 498 504 504 504 505 497 502 501 506 505 514 505 506 508 479 502 503 505 510 507 530 500 513 515 495 511 518 525 510 511 516 506 514 499 495 531 479 524 513 527 531 495 523 519 529 0 0 0 0 0 0
0 0 0 0 0 0 0 0 0 0 0 0 0 0 0 0 0 0 0 0 0 470 483 490 472 484 475 474 484 484 490 481 486 482 484 489 480 486 487 490 491 490 487 491 490 491 495 488 494 491 496 495 492 498 495 501 499 499 501 491 499 499 503 499 497 490 492 494 505 506 502 496 507 507 503 499 492 500 498 521 517 503 507 503 523 502 511 513 522 497 500 498 515 494 511 522 476 492 525 512 515 516 498 521 523 489 498 508 501 511 520 500 474 499 0 0 0 0 0 0
0 0 0 0 0 0 0 0 0 0 0 0 0 0 0 0 0 0 0 0 0 441 470 470 467 470 473 476 470 478 480 482 481 483 485 481 482 488 486 487 486 490 488 496 490 492 486 490 487 496 493 497 496 494 496 493 497 493 496 499 496 493 499 498 497 500 492 497 495 498 500 500 495 505 498 493 496 498 502 501 494 496 508 472 480 510 488 483 499 528 483 498 478 488 477 490 485 489 503 495 466 473 484 502 477 500 510 472 506 467 461 501 449 0 0 0 0 0 0 0
0 0 0 0 0 0 0 0 0 0 0 0 0 0 0 0 0 0 0 0 0 456 480 475 478 476 472 477 479 483 480 487 482 480 483 488 484 484 490 491 493 489 490 491 490 496 491 489 494 490 491 493 495 494 494 494 498 494 499 498 493 498 502 497 500 497 501 499 496 494 500 503 497 503 497 503 502 502 496 508 498 515 514 513 511 501 505 500 489 515 510 524 487 495 504 504 513 491 489 510 521 521 497 545 524 543 521 502 519 509 493 517 514 494 0 0 0 0 0 0
0 0 0 0 0 0 0 0 0 0 0 0 0 0 0 0 0 0 0 0 0 432 468 468 472 473 475 477 473 478 475 479 482 479 480 481 480 479 484 484 488 484 485 491 488 482 488 489 489 497 494 490 487 491 499 493 491 494 495 494 494 498 495 496 492 494 498 494 496 494 493 495 494 495 500 497 500 496 494 507 481 484 486 475 480 482 515 472 485 485 499 469 500 467 473 468 470 503 462 487 477 489 483 482 451 513 463 506 459 507 467 509 484 504 0 0 0 0 0 0
0 0 0 0 0 0 0 0 0 0 0 0 0 0 0 0 0 0 0 0 0 506 472 469 478 475 475 476 483 477 481 480 481 483 484 482 484 478 485 487 480 487 486 489 489 489 490 492 493 492 491 491 488 497 495 497 492 493 495 492 492 501 499 497 498 495 499 497 495 493 499 496 503 504 496 497 497 496 504 503 489 501 497 484 481 487 496 481 491 487 502 501 476 492 499 474 468 500 497 492 515 497 491 475 518 502 479 492 472 482 527 518 490 514 481 0 0 0 0 0
0 0 0 0 0 0 0 0 0 0 0 0 0 0 0 0 0 0 0 0 0 0 479 477 479 477 471 479 481 481 479 482 492 482 485 477 485 487 484 491 488 487 487 492 484 487 487 490 492 498 492 496 495 496 503 501 492 499 493 501 497 494 493 497 493 498 497 492 496 494 494 501 495 500 498 500 495 490 509 489 516 507 509 504 512 509 526 520 502 536 518 515 527 519 525 506 522 535 519 547 493 553 523 534 531 550 525 529 528 495 527 516 547 563 0 0 0 0 0 0
0 0 0 0 0 0 0 0 0 0 0 0 0 0 0 0 0 0 0 0 0 0 492 472 470 470 476 473 472 479 474 478 477 485 477 481 482 484 489 481 486 486 486 484 486 489 488 490 492 491 492 493 491 495 497 491 492 496 492 495 494 494 494 496 495 495 497 496 492 493 501 489 497 497 493 494 496 497 487 493 497 491 492 519 508 524 513 491 522 503 520 529 501 509 524 489 504 506 509 493 509 480 501 484 474 487 484 489 504 488 504 469 488 0 0 0 0 0 0 0
0 0 0 0 0 0 0 0 0 0 0 0 0 0 0 0 0 0 0 0 0 0 535 478 476 479 485 479 483 479 476 478 482 485 476 487 484 484 478 486 486 484 488 485 489 489 485 490 497 495 491 488 495 493 490 492 492 491 494 498 494 499 501 497 493 497 495 496 491 495 497 498 497 493 495 495 503 500 499 509 497 511 521 509 528 531 546 511 530 525 532 525 517 511 533 519 527 514 516 513 504 530 509 493 510 499 478 518 509 520 519 524 505 556 448 501 0 0 0 0
0 0 0 0 0 0 0 0 0 0 0 0 0 0 0 0 0 0 0 0 0 0 602 472 477 473 475 480 473 473 473 480 476 484 480 490 481 481 481 488 482 485 488 487 488 486 488 484 495 490 491 489 494 492 493 491 491 494 494 495 493 494 499 499 494 495 494 496 496 494 495 493 494 496 495 497 496 494 493 505 506 507 497 515 537 523 489 506 523 522 519 505 512 508 523 515 554 522 521 513 519 508 527 525 517 513 462 517 508 494 470 474 491 477 506 0 0 0 0 0
0 0 0 0 0 0 0 0 0 0 0 0 0 0 0 0 0 0 0 0 0 0 0 471 463 472 474 470 473 473 474 481 480 484 474 478 478 484 483 484 480 484 482 487 490 482 486 492 491 483 489 486 490 491 489 486 488 493 492 492 492 493 490 496 493 491 490 496 495 493 495 494 496 488 490 490 495 493 484 486 476 489 473 487 500 492 492 493 492 476 502 479 477 492 497 496 486 503 489 508 490 502 488 451 478 476 456 491 478 451 446 472 470 0 0 480 0 0 0 0
0 0 0 0 0 0 0 0 0 0 0 0 0 0 0 0 0 0 0 0 0 0 0 503 478 472 473 474 478 473 481 477 478 481 475 482 485 479 486 481 485 481 486 483 486 487 488 491 487 489 490 487 489 493 494 491 497 490 492 492 494 494 489 496 494 492 496 497 493 490 498 497 496 493 495 490 497 502 502 507 508 503 495 484 517 493 489 497 497 509 509 509 490 516 502 531 540 519 515 507 528 523 525 509 516 495 483 488 479 511 506 458 518 489 0 0 0 0 0 0
0 0 0 0 0 0 0 0 0 0 0 0 0 0 0 0 0 0 0 0 0 0 0 506 471 469 459 470 471 467 473 472 480 480 473 480 479 479 481 483 481 478 484 483 484 488 487 483 484 484 492 487 487 485 491 490 489 491 491 490 495 492 493 496 495 492 493 492 493 491 491 488 490 497 495 491 495 497 498 493 508 488 485 479 492 503 509 491 486 498 514 493 487 504 480 483 482 477 479 519 497 475 464 442 473 439 451 489 478 481 470 457 440 458 0 0 0 0 0 0
0 0 0 0 0 0 0 0 0 0 0 0 0 0 0 0 0 0 0 0 0 0 0 0 488 472 471 474 473 474 478 472 477 473 477 479 473 478 475 483 479 484 479 480 484 486 485 488 488 490 486 489 491 493 493 489 491 493 490 493 492 489 494 490 492 492 488 497 498 493 493 490 494 497 489 485 484 498 487 493 495 495 487 496 497 496 505 491 507 500 504 497 516 500 493 505 474 499 487 485 502 499 486 471 508 491 468 479 485 505 483 502 466 458 452 462 0 0 0 0
0 0 0 0 0 0 0 0 0 0 0 0 0 0 0 0 0 0 0 0 0 0 0 0 542 472 473 470 472 476 478 476 475 474 478 479 479 478 482 482 481 480 484 483 484 486 484 486 483 491 492 491 490 493 492 491 490 494 493 496 493 493 493 498 496 494 496 493 494 493 498 497 492 494 494 496 498 499 502 491 480 496 504 493 503 505 519 512 529 503 506 508 521 538 540 546 520 565 540 506 530 549 532 511 525 493 498 499 529 490 515 519 497 563 499 0 0 0 0 0
0 0 0 0 0 0 0 0 0 0 0 0 0 0 0 0 0 0 0 0 0 0 0 0 0 475 463 470 463 472 467 474 477 471 469 477 474 473 480 480 477 478 483 486 484 484 487 487 485 483 489 486 487 491 491 486 487 487 483 491 491 490 493 490 488 488 489 495 492 494 490 489 491 488 491 480 488 484 485 493 488 494 487 492 482 492 488 482 488 500 498 504 499 495 500 490 477 482 492 488 490 513 468 487 460 452 465 459 470 456 474 440 462 469 0 0 0 0 0 0
0 0 0 0 0 0 0 0 0 0 0 0 0 0 0 0 0 0 0 0 0 0 0 0 0 553 471 464 465 474 471 471 479 473 473 477 477 474 478 478 481 483 487 487 483 484 482 484 488 490 488 484 491 491 492 491 490 491 489 493 490 490 490 491 491 492 494 488 493 491 496 491 494 492 494 485 498 484 493 498 491 497 502 502 508 493 508 504 503 490 507 503 489 509 508 543 484 510 520 531 510 544 506 512 477 503 490 487 483 501 492 499 525 0 515 0 0 0 0 0
0 0 0 0 0 0 0 0 0 0 0 0 0 0 0 0 0 0 0 0 0 0 0 0 0 0 462 466 463 468 465 468 466 475 474 472 476 473 477 473 475 481 481 479 487 479 483 486 484 480 489 486 488 489 491 488 490 488 491 485 485 490 486 488 490 493 498 488 491 492 493 491 491 480 488 483 484 491 491 491 486 490 487 481 479 488 484 488 486 484 474 497 487 477 498 478 497 474 511 481 480 507 474 518 472 436 494 462 460 483 486 443 463 456 0 0 0 0 0 0
0 0 0 0 0 0 0 0 0 0 0 0 0 0 0 0 0 0 0 0 0 0 0 0 0 0 0 472 466 467 467 468 472 470 471 469 471 470 472 476 481 481 475 476 478 483 483 476 484 483 484 488 480 489 485 483 485 487 485 486 485 482 483 484 485 486 486 489 491 487 489 486 486 491 480 472 474 474 491 491 466 478 479 481 486 478 490 480 482 479 480 479 483 484 477 476 493 492 492 487 497 497 480 469 445 459 437 476 478 449 482 425 411 446 440 0 0 0 0 0
0 0 0 0 0 0 0 0 0 0 0 0 0 0 0 0 0 0 0 0 0 0 0 0 0 0 0 491 468 464 464 469 468 469 472 472 477 473 472 475 478 476 478 477 483 483 487 480 483 485 482 486 489 487 485 483 487 485 481 487 488 482 487 487 488 490 490 488 487 492 488 484 485 485 484 494 483 476 479 488 494 502 501 481 490 486 496 500 499 496 497 486 485 478 489 516 480 491 493 475 482 483 485 486 510 483 488 519 456 482 499 434 490 520 502 0 0 0 0 0
0 0 0 0 0 0 0 0 0 0 0 0 0 0 0 0 0 0 0 0 0 0 0 0 0 0 0 0 504 465 461 463 471 465 472 468 469 472 470 472 478 477 480 471 476 481 479 476 481 484 482 480 483 484 479 481 481 482 482 482 485 485 484 486 480 484 489 484 480 482 481 474 483 474 480 486 477 485 480 494 485 463 469 488 479 472 485 487 473 473 461 481 469 482 493 458 461 468 493 464 473 464 473 477 450 448 428 442 467 468 456 452 452 467 475 0 0 0 0 0
0 0 0 0 0 237 237 270 314 0 0 0 0 0 0 0 0 0 0 0 0 0 0 0 0 0 0 0 0 494 467 460 469 469 461 469 469 473 473 473 473 473 478 477 479 478 479 478 480 478 480 475 477 484 483 483 485 480 481 479 484 482 485 484 483 484 483 478 477 486 476 480 471 489 487 494 488 475 481 502 473 475 489 473 499 486 481 489 486 483 472 501 508 496 476 487 479 482 495 468 466 487 485 476 462 496 466 474 471 441 455 456 435 447 419 0 0 0 0 0
0 0 0 0 242 235 233 235 234 287 404 0 0 0 0 0 0 0 0 0 0 2361 0 0 0 0 0 0 0 0 471 467 465 472 464 468 470 470 473 470 476 477 475 474 478 478 477 479 479 481 478 482 481 484 480 482 478 484 486 480 483 485 488 490 483 483 483 491 479 483 484 489 477 488 489 491 495 485 488 483 492 494 487 484 485 492 476 515 478 475 504 487 494 503 492 509 497 490 508 501 509 486 482 496 473 497 500 465 507 492 516 518 517 0 0 0 0 0 0 0
0 0 0 208 217 226 226 222 231 234 314 0 0 0 0 0 0 0 0 0 0 0 0 0 0 0 0 0 0 0 0 466 458 470 458 467 458 466 462 470 467 464 465 470 470 470 470 473 475 468 478 473 478 474 478 472 478 476 478 475 477 482 475 477 478 476 480 475 475 475 467 476 466 472 474 468 464 463 467 476 472 464 478 469 477 465 469 449 462 478 470 468 490 463 477 467 471 456 476 463 441 445 438 449 423 448 423 441 440 470 436 407 439 406 437 0 0 0 0 0
237 242 287 273 305 276 265 232 237 241 332 0 429 410 422 430 424 453 443 460 439 459 449 448 442 431 453 459 465 459 445 460 466 474 466 462 459 466 467 469 465 472 466 470 475 471 478 473 478 477 475 476 478 481 481 477 479 479 481 479 476 482 476 480 484 482 479 478 481 475 473 481 475 472 475 475 472 465 483 478 481 475 489 488 482 488 480 487 477 476 474 476 476 473 495 497 494 476 467 490 470 467 486 531 472 495 511 472 458 470 471 484 510 476 461 0 0 0 0 0
199 213 195 229 208 227 247 231 230 263 361 402 394 399 392 394 398 412 400 399 411 414 426 408 410 439 414 434 440 440 449 459 451 457 446 455 452 454 457 459 457 462 464 468 457 461 470 468 474 468 467 469 473 471 475 468 473 468 472 470 473 465 475 476 469 471 473 476 479 469 464 471 463 472 454 463 457 458 454 452 451 463 456 451 455 461 456 448 445 453 454 456 438 445 448 451 444 453 462 450 448 448 452 442 449 459 437 439 445 422 445 428 411 424 451 450 400 0 0 0
168 175 209 224 200 227 229 224 225 281 388 354 356 367 348 356 379 361 380 374 371 373 387 394 386 397 413 411 434 430 437 441 439 438 434 437 434 447 444 441 441 452 448 442 448 447 442 452 459 459 453 452 456 454 455 454 455 459 456 454 451 456 455 458 455 451 455 455 457 451 457 444 443 436 437 433 425 429 416 420 413 416 422 423 418 416 412 437 413 408 423 412 413 414 417 422 400 409 414 395 416 416 414 412 408 399 404 410 391 406 414 399 406 385 400 410 355 389 390 376
270 271 246 220 228 229 227 235 245 337 358 332 337 348 325 322 348 345 340 344 348 363 360 369 373 382 401 406 408 413 410 421 421 431 429 433 433 435 430 433 431 434 436 433 435 436 441 436 440 441 444 438 436 444 441 447 445 442 447 443 443 439 445 442 440 441 439 440 438 435 434 432 426 421 415 415 405 410 400 403 397 397 393 396 396 394 384 388 403 386 399 389 397 395 404 390 392 394 392 392 390 399 403 391 407 400 394 381 387 387 373 391 393 377 404 372 425 415 405 0
282 292 269 237 229 232 231 236 273 289 307 287 301 284 306 299 303 302 290 306 315 316 334 334 351 362 378 376 392 394 398 396 397 411 394 408 409 408 405 413 407 414 410 413 410 411 414 416 418 416 414 412 419 412 413 421 414 425 415 426 420 421 411 420 416 418 419 412 415 415 410 401 400 393 394 392 377 358 368 365 356 356 352 358 359 349 351 350 354 364 347 365 342 356 363 341 346 350 354 343 359 347 344 350 363 343 348 345 350 334 340 338 352 342 327 364 331 361 315 348
278 264 277 272 255 245 256 280 271 271 275 287 275 294 284 274 285 277 283 287 289 304 316 314 333 351 362 369 366 384 382 384 393 388 381 386 394 392 398 390 394 393 391 393 387 396 397 394 400 390 387 403 400 398 403 388 396 393 401 401 397 397 403 399 395 386 388 392 397 392 390 393 388 385 376 358 353 347 349 340 330 333 324 334 332 326 329 338 321 325 338 322 324 331 347 348 329 330 323 327 330 333 336 348 337 338 341 340 324 342 324 330 329 339 326 354 331 306 353 360
245 243 250 253 250 251 252 257 254 268 254 267 259 251 261 266 272 268 267 262 272 279 291 305 312 322 331 338 354 357 363 369 365 367 365 371 366 364 363 367 374 372 379 374 372 368 375 367 364 377 373 378 374 376 379 383 376 383 375 379 381 379 379 372 369 372 366 374 369 369 367 369 364 357 348 336 334 324 313 309 307 308 316 302 312 308 301 301 296 303 297 315 300 314 309 310 295 303 294 319 317 314 301 302 295 304 320 298 312 309 313 296 324 321 289 295 297 299 281 294
230 225 224 220 233 232 241 231 242 237 233 245 248 241 240 240 233 240 251 241 258 269 270 280 291 290 315 330 328 323 325 332 333 339 347 338 346 341 339 347 338 347 350 344 353 344 339 345 347 342 340 348 347 348 352 356 351 353 353 345 348 346 350 343 342 348 349 347 345 346 349 338 346 338 326 325 316 288 284 287 282 276 283 270 277 281 277 276 273 268 265 273 275 268 271 262 262 268 279 278 283 265 269 279 276 269 268 273 271 275 269 273 286 288 279 268 275 255 252 270
231 218 232 228 235 226 227 229 234 230 234 230 222 236 232 228 233 233 242 243 246 252 259 264 273 282 297 302 301 303 314 314 315 319 322 318 327 327 327 327 328 318 322 320 326 326 327 328 323 325 320 333 333 331 331 332 334 326 326 330 335 332 329 328 329 328 331 328 325 324 323 328 318 317 312 304 290 277 274 270 269 270 269 262 271 263 267 263 262 262 258 263 266 257 265 262 264 253 265 263 272 267 266 270 252 269 261 266 261 279 261 279 269 270 267 281 267 294 292 308
198 206 208 202 217 210 220 213 214 206 208 212 205 209 215 212 211 220 218 222 224 228 245 249 258 261 267 279 277 280 287 291 297 290 292 297 294 298 303 305 301 295 297 301 302 301 300 301 302 304 305 305 300 304 296 301 306 300 303 299 302 303 306 308 304 306 305 306 294 301 295 302 301 289 282 278 263 254 257 249 248 243 241 248 242 243 240 235 239 249 238 253 240 246 232 237 233 238 243 234 242 239 240 244 235 244 236 242 244 248 235 246 248 258 233 233 255 242 239 239
182 199 197 200 197 197 205 205 196 201 200 206 206 205 186 209 208 190 213 193 216 219 224 230 239 244 249 257 267 272 266 265 270 271 276 278 281 279 283 287 283 281 282 286 279 275 278 283 282 282 278 280 274 289 278 281 284 284 284 285 280 281 279 284 289 281 286 279 283 279 280 278 274 272 265 258 254 247 238 233 234 226 236 231 225 224 226 223 228 230 226 229 223 230 218 226 222 217 228 221 227 234 226 224 229 224 228 221 228 232 233 239 248 228 227 233 222 187 209 230
196 174 172 190 182 175 188 200 185 182 184 175 176 184 187 187 189 184 192 210 207 208 219 224 229 228 240 239 246 252 258 258 257 259 260 260 258 260 262 264 265 262 264 265 263 259 263 273 262 270 267 271 267 263 267 267 263 266 267 272 268 267 264 272 267 268 267 272 265 267 266 257 259 256 253 240 241 233 224 219 220 217 216 215 220 222 218 212 213 214 217 213 220 212 213 222 214 209 210 215 220 218 216 209 214 210 215 219 217 226 219 212 221 231 227 219 242 232 250 243
173 172 168 175 174 178 174 182 178 175 174 178 179 181 177 185 185 181 179 186 183 197 190 211 213 215 225 221 228 226 229 241 239 240 242 238 239 242 245 241 246 239 248 249 250 250 243 243 244 248 245 249 244 247 239 246 249 251 250 255 248 244 252 249 238 249 250 245 242 246 244 243 238 237 236 223 219 214 198 199 195 190 187 186 186 186 185 197 194 189 193 191 183 185 189 181 184 187 187 192 202 194 208 185 190 182 190 198 200 206 206 199 205 199 207 177 200 199 183 200
171 173 173 176 176 173 171 173 177 180 177 176 176 178 182 178 176 179 183 186 186 186 187 194 208 194 210 212 219 221 228 225 225 221 232 226 231 228 226 230 226 235 232 231 230 234 231 225 236 236 238 234 231 231 235 235 237 238 238 240 233 237 236 234 233 235 233 230 232 232 231 233 226 223 220 215 196 197 188 187 193 194 191 192 195 194 192 193 192 190 182 181 190 191 188 185 180 185 185 188 175 178 179 176 188 176 182 181 181 186 180 186 197 198 196 197 202 180 203 209
163 163 171 171 171 172 167 170 168 160 165 162 168 164 171 173 175 175 176 180 175 181 190 180 187 184 187 187 192 208 210 214 211 210 212 216 219 213 197 197 215 220 219 217 220 222 219 219 222 216 216 225 220 222 219 221 219 223 219 225 223 221 221 223 218 217 220 217 221 220 219 217 214 212 190 197 189 191 192 190 185 183 187 184 180 184 184 187 184 185 182 181 185 182 185 188 181 179 178 184 188 186 183 184 182 181 181 179 176 180 172 173 197 178 201 175 194 192 191 212
147 155 158 157 160 160 154 161 159 165 158 161 159 156 164 164 169 169 168 177 171 172 179 181 178 181 180 192 182 187 182 184 183 182 187 188 188 188 189 191 194 190 189 192 197 193 189 193 191 194 196 193 194 192 195 190 195 192 191 193 198 197 201 190 194 193 191 191 195 192 196 194 193 191 186 194 195 188 185 177 177 177 171 175 175 172 175 178 172 178 172 175 173 170 174 174 169 166 168 170 169 174 169 168 167 167 166 165 167 172 172 176 173 176 172 171 175 170 170 173
147 149 154 154 157 157 159 157 159 158 156 158 155 153 160 157 159 162 160 165 169 169 177 178 179 184 178 182 179 192 189 186 188 189 189 185 193 191 192 194 193 192 194 187 194 198 196 196 197 192 193 195 196 196 196 196 198 196 197 198 197 198 196 188 195 198 196 197 197 195 197 195 192 192 188 186 189 184 180 172 171 173 166 163 170 169 168 166 172 171 168 168 172 166 170 169 163 165 164 164 167 169 172 167 165 165 161 165 165 168 167 169 171 173 170 171 160 174 180 169
143 143 146 144 148 147 149 148 146 150 149 148 149 151 147 149 153 148 156 158 158 162 164 173 170 172 174 172 174 178 175 173 182 180 175 181 181 177 182 181 186 180 186 186 182 187 186 182 188 184 184 187 186 186 184 183 184 189 0 189 187 185 182 186 185 185 189 188 185 185 187 186 181 177 176 173 174 170 166 164 160 157 162 161 157 159 162 157 161 157 161 158 162 159 162 160 156 157 163 161 161 163 157 150 158 159 153 153 161 157 157 159 159 157 165 164 161 158 166 144
132 138 136 139 143 152 149 143 147 139 141 146 138 142 141 144 144 146 147 148 157 158 161 164 165 166 168 164 167 171 173 169 176 174 169 170 174 170 171 174 177 181 175 173 173 177 175 177 176 176 180 178 178 182 180 181 181 0 0 180 179 176 178 182 179 179 176 178 178 172 174 175 172 173 171 169 171 163 161 161 160 157 154 156 158 157 155 151 152 154 144 151 154 152 155 152 153 154 157 154 156 153 150 153 148 145 148 146 157 152 150 151 147 145 149 152 149 147 145 165
140 134 131 139 142 142 149 141 139 141 140 143 144 144 141 141 141 147 147 146 151 155 155 158 159 159 162 160 166 164 162 167 168 168 162 166 164 170 165 173 171 0 173 0 171 173 172 174 171 170 171 172 172 173 175 0 172 173 0 174 173 0 175 175 173 170 175 165 175 168 168 168 168 168 165 162 166 158 156 151 150 152 154 150 154 150 151 146 147 157 143 152 150 152 146 146 151 153 154 149 148 143 145 147 149 145 138 148 151 149 148 144 149 160 153 161 148 153 159 170
128 126 127 114 133 134 142 133 131 123 125 129 132 125 136 135 134 132 134 139 141 145 147 148 146 155 152 151 154 161 162 150 162 163 156 157 161 161 0 0 0 0 0 0 0 0 0 164 164 166 166 164 166 164 0 0 170 166 168 163 0 0 0 0 166 0 167 0 159 164 161 161 160 161 154 154 153 155 148 148 148 147 144 148 140 146 140 144 145 142 142 144 144 144 139 136 142 145 140 142 132 139 140 133 135 124 137 134 132 133 137 145 143 144 142 137 127 142 133 135
115 117 126 125 129 132 134 131 134 129 126 130 132 133 124 128 118 136 140 136 140 138 147 147 148 150 152 153 152 152 153 152 156 158 154 154 155 0 0 0 0 0 0 0 0 0 0 0 0 161 163 162 0 0 0 0 0 0 0 0 0 0 0 0 161 159 0 0 0 0 0 156 160 154 153 151 151 151 148 142 142 142 143 142 139 142 142 136 144 139 137 138 138 140 137 138 140 138 137 141 136 138 139 135 132 131 139 132 143 139 140 147 139 142 138 135 141 132 134 157
115 106 121 120 127 124 125 129 120 127 131 122 131 119 117 122 125 131 129 134 128 127 123 141 140 139 143 143 144 149 149 146 154 146 150 145 0 0 0 0 0 0 0 0 0 0 0 0 151 154 158 0 0 0 0 0 0 0 0 0 0 0 0 0 0 0 0 0 0 0 0 0 151 149 148 149 146 140 142 144 139 141 127 130 127 128 136 139 128 131 136 136 129 127 118 129 141 136 133 136 128 139 133 131 125 134 131 124 137 137 136 144 131 134 137 133 129 129 124 148
103 109 113 111 105 114 120 116 113 119 113 111 117 115 127 121 121 121 116 115 121 124 128 123 137 135 141 138 141 142 142 142 139 145 143 144 0 0 0 0 0 0 0 0 0 0 0 0 145 0 0 0 0 0 0 0 0 0 0 0 0 0 0 0 0 0 0 0 0 0 0 0 141 137 141 140 139 131 128 138 127 120 120 123 126 116 125 122 120 126 120 123 111 127 121 124 124 131 118 118 120 131 128 115 128 130 115 119 130 128 118 132 126 120 115 126 109 108 109 125
108 109 116 118 114 115 117 124 120 116 115 121 116 115 118 122 120 128 122 117 118 115 122 118 137 134 137 137 0 139 0 0 0 138 139 0 0 0 0 0 0 0 0 0 0 0 0 0 0 0 0 0 0 0 0 0 0 0 0 0 0 0 0 0 0 0 0 0 0 0 0 0 0 142 136 136 125 126 116 125 119 118 120 125 119 121 114 119 116 117 120 125 120 116 112 119 118 119 120 120 121 121 130 124 121 111 125 120 114 129 128 112 127 123 126 133 115 137 151 151
102 100 108 107 104 100 105 100 98 105 105 103 102 105 107 103 109 110 114 109 114 114 109 116 118 119 125 119 0 134 0 0 0 0 0 0 0 0 0 0 0 0 0 0 0 0 0 0 0 0 0 0 0 0 0 0 0 0 0 0 0 0 0 0 0 0 0 0 0 0 0 0 132 0 0 125 117 119 120 115 115 117 108 115 112 114 113 110 106 116 114 116 111 111 110 106 109 115 110 109 111 112 112 109 110 113 110 107 109 111 103 105 102 114 116 104 105 121 134 148
97 99 90 94 104 102 101 98 103 105 100 101 103 103 106 106 106 107 114 106 108 109 110 105 115 110 113 116 115 118 0 124 0 0 0 0 0 0 0 0 0 0 0 0 0 0 0 0 0 0 0 0 0 0 0 0 0 0 0 0 0 0 0 0 0 0 0 0 0 0 0 0 0 121 0 114 119 115 114 109 112 111 105 102 109 108 111 115 108 110 114 110 110 110 106 113 105 107 102 116 105 106 109 104 103 115 108 110 108 110 109 100 115 95 101 123 114 94 100 120
95 104 100 101 98 97 99 97 94 98 97 94 102 97 100 97 105 103 110 116 111 108 97 109 113 103 113 114 112 123 119 114 124 0 0 0 0 0 0 0 0 0 0 0 0 0 0 0 0 0 0 0 0 0 0 0 0 0 0 0 0 0 0 0 0 0 0 0 0 0 0 0 119 121 106 120 112 117 119 116 105 114 102 116 107 105 103 100 101 103 105 104 112 94 98 100 107 98 112 101 108 111 107 105 109 107 107 94 106 101 97 105 103 99 109 105 132 130 115 115
85 84 82 84 80 81 82 92 89 81 91 91 94 92 90 89 80 92 89 86 94 86 100 105 101 102 112 107 0 0 106 106 114 0 114 0 0 0 0 0 0 0 0 0 0 0 0 0 0 0 0 0 0 0 0 0 0 0 0 0 0 0 0 0 0 0 0 0 0 0 0 115 108 106 107 109 104 104 103 97 101 101 97 92 100 94 88 97 105 99 93 96 102 84 85 96 92 103 85 91 86 96 93 88 86 93 91 93 93 89 88 87 83 89 96 90 97 76 85 106
92 85 90 89 95 95 100 106 93 94 94 95 91 91 96 99 96 91 99 95 94 103 104 101 104 104 111 107 0 103 109 107 115 111 120 111 111 0 112 0 0 117 0 0 0 0 0 0 0 0 0 0 0 0 0 0 0 0 0 0 116 0 0 0 113 0 0 0 111 0 108 110 113 112 115 107 105 111 101 99 110 105 107 89 97 101 104 103 101 101 107 105 108 96 100 102 101 96 97 111 103 98 95 100 91 100 93 94 93 85 97 93 100 98 104 94 105 114 133 142
82 89 93 91 95 95 87 89 85 96 88 88 86 93 85 85 92 96 96 92 98 90 99 109 89 103 104 101 105 109 95 102 105 103 99 103 0 116 114 0 105 0 0 0 0 0 0 0 0 0 0 0 0 0 0 0 0 109 0 0 110 104 107 111 115 111 103 100 112 104 107 102 101 103 111 108 101 91 105 96 94 100 99 95 95 90 93 104 106 93 97 102 110 85 82 84 91 92 94 82 94 87 93 95 82 92 98 87 96 85 96 96 89 102 88 91 123 134 117 98
82 86 81 85 93 90 99 90 85 81 85 86 84 91 87 88 90 87 87 87 77 91 95 83 88 91 89 90 102 88 94 100 96 97 92 108 100 102 103 103 100 99 100 106 109 89 0 0 94 99 0 104 106 93 101 110 104 101 101 105 99 106 111 98 98 110 101 95 98 108 102 104 104 98 103 92 93 97 95 90 93 90 97 95 94 90 88 90 96 94 98 85 94 90 93 90 94 93 90 82 88 86 90 89 85 82 93 86 80 93 86 90 90 97 80 87 107 96 122 134
85 79 82 84 83 88 97 100 88 90 83 86 82 84 84 89 90 93 89 100 84 99 92 92 92 95 93 90 99 101 94 84 98 93 96 97 97 98 95 106 105 99 97 107 104 95 102 0 108 103 98 105 99 101 101 103 103 104 97 108 106 95 94 103 101 97 99 104 94 105 100 104 101 92 104 89 93 93 96 87 98 95 84 92 96 98 88 86 93 90 85 101 88 92 82 84 94 92 99 86 84 96 84 90 91 96 96 94 90 87 90 93 102 122 111 120 126 100 118 161
81 74 68 68 81 84 83 89 72 79 89 79 81 80 87 84 86 84 85 85 93 84 92 87 88 84 92 92 85 93 91 92 95 93 91 94 93 85 90 97 91 88 83 95 95 91 90 101 91 91 92 98 97 89 87 82 99 90 96 95 95 83 82 96 96 97 95 94 98 98 95 86 96 93 83 94 92 95 96 93 87 93 81 90 83 90 86 85 84 90 92 80 87 83 85 87 82 79 83 91 81 84 84 67 80 81 83 81 85 80 69 89 85 87 73 82 103 86 99 71
73 71 81 86 71 84 81 88 82 82 83 90 81 81 84 89 85 88 81 85 82 90 83 92 93 84 92 84 94 88 94 95 88 97 85 91 86 95 87 93 93 96 96 86 89 99 89 88 98 89 93 96 95 85 100 94 90 85 88 96 98 82 88 92 88 95 87 93 108 94 96 97 96 83 92 95 94 95 95 94 91 89 86 87 78 89 89 79 90 95 76 86 77 81 92 80 89 87 80 80 84 80 81 77 77 80 83 90 84 93 83 92 85 106 96 81 88 92 88 191
