0 0 0 0 0 0 0 0 0 0 0 0 0 0 0 0 0 0 0 0 0 0 0 0 0 0 0 0 0 0 0 0 0 0 0 0 0 0 0 0 0 0 0 0 0 0 0 0 0 0 0 0 0 0 0 0 0 0 0 0 0 0 0 0 0 0 0 0 0 0 0 0 0 0 0 0 0 0 0 0 0 0 0 0 0 0 0 0 0 0 0 0 0 0 0 0 0 0 0 0 0 0 0 0 0 0 0 0 0 0 0 0 0 0 0 0 0 0 0 0
0 0 0 0 0 0 0 0 0 0 0 0 0 0 0 0 0 0 0 0 0 0 0 0 0 0 0 0 0 0 0 0 0 0 0 0 0 0 0 0 0 0 0 0 0 0 0 0 0 0 0 0 0 0 0 0 0 0 0 0 0 0 0 0 0 0 0 0 0 0 0 0 0 0 0 0 0 0 0 0 0 0 0 0 0 0 0 0 0 0 0 0 0 0 0 0 0 0 0 0 0 0 0 0 0 0 0 0 0 0 0 0 0 0 0 0 0 0 0 0
0 0 0 0 0 0 0 0 0 0 0 0 0 0 0 0 0 0 0 0 0 0 0 0 0 0 0 0 0 0 0 0 0 0 0 0 0 0 0 0 0 0 0 0 0 0 0 0 0 0 0 0 0 0 0 0 0 0 0 0 0 0 0 0 0 0 0 0 0 0 0 0 0 0 0 0 0 0 0 0 0 0 0 0 0 0 0 0 0 0 0 0 0 0 0 0 0 0 0 0 0 0 0 0 0 0 0 0 0 0 0 0 0 0 0 0 0 0 0 0
0 0 0 0 0 0 0 0 0 0 0 0 0 0 0 0 0 0 0 0 0 0 0 0 0 0 0 0 0 0 0 0 0 0 0 0 0 0 0 0 0 0 0 0 0 0 0 0 0 0 0 0 0 0 0 0 0 0 0 0 0 0 0 0 0 0 0 0 0 0 0 0 0 0 0 0 0 0 0 0 0 0 0 0 0 0 0 0 0 0 0 0 0 0 0 0 0 0 0 0 0 0 0 0 0 0 0 0 0 0 0 0 0 0 0 0 0 0 0 0
0 0 0 0 0 0 0 0 0 0 0 0 0 0 0 0 0 0 0 0 0 0 0 0 0 0 0 0 0 0 0 0 0 0 0 0 0 0 0 0 0 0 0 0 0 0 0 0 0 0 0 0 0 0 0 0 0 0 0 0 0 0 0 0 0 0 0 0 0 0 0 0 0 0 0 0 0 0 0 0 0 0 0 0 0 0 0 0 0 0 0 0 0 0 0 0 0 0 0 0 0 0 0 0 0 0 0 0 0 0 0 0 0 0 0 0 0 0 0 0
0 0 0 0 0 0 0 0 0 0 0 0 0 0 0 0 0 0 0 0 0 0 0 0 0 0 0 0 0 0 0 0 0 0 0 0 0 0 0 592 563 507 505 522 551 542 513 554 528 523 521 524 527 527 546 560 0 0 0 0 0 0 0 0 0 0 0 0 0 0 0 0 0 0 0 0 0 0 0 0 0 0 0 0 0 0 0 0 0 0 0 0 0 0 0 0 0 0 0 0 0 0 0 0 0 0 0 0 0 0 0 0 0 0 0 0 0 0 0 0
0 0 0 0 0 0 0 0 0 0 0 0 0 0 0 0 0 0 0 0 0 0 0 0 0 0 0 0 0 0 0 0 0 0 0 0 0 486 517 495 498 499 498 504 489 503 515 500 490 507 491 508 502 502 518 501 503 500 518 534 0 0 0 0 0 0 0 0 0 0 0 0 0 0 0 0 0 0 0 0 0 0 0 0 0 0 0 0 0 0 0 0 0 0 0 0 0 0 0 0 0 0 0 0 0 0 0 0 0 0 0 0 0 0 0 0 0 0 0 0
0 0 0 0 0 0 0 0 0 0 0 0 0 0 0 0 0 0 0 0 0 0 0 0 0 0 0 0 0 0 0 0 0 0 0 530 506 522 494 506 513 514 505 526 497 515 506 506 507 509 510 524 515 511 530 514 519 503 517 520 524 525 526 535 599 0 0 0 0 0 0 0 0 0 0 0 0 0 0 0 0 0 0 0 0 0 0 0 0 0 0 0 0 0 0 0 0 0 0 0 0 0 0 0 0 0 0 0 0 0 0 0 0 0 0 0 0 0 0 0
0 0 0 0 0 0 0 0 0 0 0 0 0 0 0 0 0 0 0 0 0 0 0 0 0 0 0 0 0 0 0 0 0 507 497 510 496 513 506 511 519 515 501 507 511 502 500 505 503 522 501 506 503 503 516 505 506 510 506 501 512 508 507 514 519 514 527 583 578 627 578 588 598 0 573 585 602 581 0 637 0 0 0 0 0 0 0 0 0 0 0 0 0 0 0 0 0 0 0 0 0 0 0 0 0 0 0 0 0 0 0 0 0 0 0 0 0 0 0 0
0 0 0 0 0 0 0 0 0 0 0 0 0 0 0 0 0 0 0 0 0 0 0 0 0 0 0 0 0 0 0 472 492 499 481 490 498 506 499 491 506 489 506 506 496 499 511 499 507 504 498 499 513 506 492 503 514 498 507 514 506 496 510 490 497 509 507 519 519 546 528 575 559 578 585 551 582 582 548 574 551 524 538 544 502 538 543 549 540 527 563 519 538 594 546 574 561 569 561 543 566 531 535 545 0 578 0 0 0 0 0 0 0 0 0 0 0 0 0 0
0 0 0 0 0 0 0 0 0 0 0 0 0 0 0 0 0 0 0 0 0 0 0 0 0 0 0 0 0 0 505 501 509 489 489 507 507 499 501 512 510 506 503 508 515 522 501 508 514 511 511 508 509 515 508 520 508 512 499 511 498 507 512 515 514 514 518 500 515 526 539 558 602 589 603 567 616 606 617 607 609 577 589 620 603 572 610 618 576 541 593 595 596 573 572 588 581 589 604 575 597 555 598 620 611 594 568 0 603 0 0 0 0 0 0 0 0 0 0 0
0 0 0 0 0 0 0 0 0 0 0 0 0 0 0 0 0 0 0 0 0 0 0 0 0 0 0 0 479 514 504 488 496 501 505 485 491 502 506 509 504 501 499 489 509 501 512 508 497 503 498 502 500 505 498 505 494 498 496 507 507 500 506 509 514 505 495 488 509 520 498 510 514 555 524 553 514 559 554 524 544 563 561 583 558 581 562 528 538 550 540 539 531 515 533 531 557 504 575 544 519 599 502 532 556 545 562 508 551 0 0 0 0 0 0 0 0 0 0 0
0 0 0 0 0 0 0 0 0 0 0 0 0 0 0 0 0 0 0 0 0 0 0 0 0 0 0 499 509 507 502 496 508 497 497 496 507 503 502 492 503 504 497 501 503 503 507 502 502 504 508 498 510 496 502 505 512 508 512 510 510 502 507 517 513 507 506 519 507 510 523 527 557 527 558 550 554 564 568 578 568 568 571 561 566 552 591 605 609 580 553 598 605 562 585 625 578 543 552 568 553 575 557 544 602 578 602 611 558 0 0 0 0 0 0 0 0 0 0 0
0 0 0 0 0 0 0 0 0 0 0 0 0 0 0 0 0 0 0 0 0 0 0 0 0 0 514 504 497 496 508 494 493 499 501 502 498 503 503 508 500 506 508 512 507 503 504 507 502 503 513 503 512 515 514 496 508 513 515 504 505 512 514 505 505 511 519 508 512 505 507 518 533 556 574 559 547 578 547 575 581 560 584 562 605 575 562 584 575 552 562 589 564 556 561 565 593 579 561 553 555 545 565 568 525 574 580 601 584 0 0 0 0 0 0 0 0 0 0 0
0 0 0 0 0 0 0 0 0 0 0 0 0 0 0 0 0 0 0 0 0 0 0 0 0 465 484 487 501 492 500 501 493 490 499 488 499 496 501 496 500 498 493 504 494 499 504 509 499 500 501 507 502 497 507 515 507 498 502 503 510 505 505 509 502 502 504 502 506 512 517 509 501 540 525 532 526 538 528 559 532 548 555 544 545 553 553 541 540 545 551 556 543 569 534 529 542 539 542 576 558 543 535 554 499 574 563 556 496 562 0 0 0 0 0 0 0 0 0 0
0 0 0 0 0 0 0 0 0 0 0 0 0 0 0 0 0 0 0 0 0 0 0 0 0 493 509 499 503 501 496 499 494 507 495 500 509 498 504 493 506 506 502 498 510 501 505 502 503 504 500 504 507 504 497 501 515 507 510 512 511 512 512 512 512 507 515 514 506 504 513 511 512 530 550 578 567 534 563 581 551 566 580 584 574 578 587 551 581 566 556 572 583 543 573 557 561 552 563 539 574 543 568 539 566 548 565 558 581 600 583 0 588 614 0 0 0 0 0 0
0 0 0 0 0 0 0 0 0 0 0 0 0 0 0 0 0 0 0 0 0 0 0 0 478 484 491 496 492 502 490 500 495 487 493 499 499 494 501 495 501 507 486 500 499 503 498 490 492 500 502 500 503 503 500 510 507 496 503 507 507 503 503 506 503 508 504 505 510 512 509 507 511 507 514 540 520 546 521 487 536 549 549 510 536 541 531 533 528 557 526 527 535 516 545 524 528 502 536 491 515 535 543 548 563 559 524 483 548 538 495 0 0 0 0 0 0 0 0 0
0 0 0 0 0 0 0 0 0 0 0 0 0 0 0 0 0 0 0 0 0 0 0 0 491 490 500 490 493 490 487 494 498 499 487 488 499 492 493 502 495 485 497 492 496 498 498 499 502 501 504 502 497 501 505 498 508 497 506 502 502 501 506 500 501 515 503 503 504 509 503 507 501 514 495 512 544 550 528 500 525 518 542 508 527 510 525 532 483 514 540 539 504 535 550 517 523 535 543 508 527 539 522 567 519 539 537 513 520 528 0 0 0 0 0 0 0 0 0 0
0 0 0 0 0 0 0 0 0 0 0 0 0 0 0 0 0 0 0 0 0 0 0 487 497 499 499 493 489 484 497 496 495 487 488 488 492 497 496 492 497 497 500 497 510 513 500 492 502 505 503 497 506 508 504 501 505 507 506 502 510 498 505 502 500 504 508 506 507 503 508 509 505 499 508 516 514 546 527 543 526 526 534 541 508 524 543 538 519 536 520 565 540 538 510 589 532 568 529 551 559 539 536 518 580 528 535 494 588 512 522 0 0 0 0 0 0 0 0 0
0 0 0 0 0 0 0 0 0 0 0 0 0 0 0 0 0 0 0 0 0 0 0 471 482 485 492 495 487 502 501 493 493 490 492 489 482 488 496 500 491 496 500 492 498 495 500 502 491 503 499 502 501 505 507 495 504 502 502 499 496 501 502 505 503 503 498 505 496 504 512 506 506 509 501 513 518 524 529 516 521 513 527 506 491 513 512 538 528 542 510 551 518 523 479 528 517 530 551 556 517 520 552 539 521 537 519 549 495 523 523 0 0 0 0 0 0 0 0 0
0 0 0 0 0 0 0 0 0 0 0 0 0 0 0 0 0 0 0 0 0 0 472 487 491 489 489 486 494 496 493 503 495 487 487 490 491 495 492 494 505 505 496 499 488 500 508 494 498 509 495 498 497 497 509 506 502 501 503 506 504 499 506 500 503 506 505 505 502 505 501 505 502 510 501 504 544 531 500 512 535 527 538 522 570 518 504 491 534 539 566 525 545 566 527 551 523 506 546 523 509 524 541 534 517 536 547 509 482 502 573 515 556 0 0 0 0 0 0 0
0 0 0 0 0 0 0 0 0 0 0 0 0 0 0 0 0 0 0 0 0 0 488 495 483 486 492 495 496 496 493 488 497 491 496 497 495 491 501 493 496 495 500 505 505 504 507 508 502 496 501 499 504 518 505 506 505 503 504 504 506 507 506 512 504 500 515 515 512 506 506 506 518 515 515 511 522 539 552 544 543 546 531 552 561 567 534 561 540 549 544 539 539 545 570 537 580 527 553 546 576 570 561 534 550 574 573 540 535 527 563 0 0 0 0 0 0 0 0 0
0 0 0 0 0 0 0 0 0 0 0 0 0 0 0 0 0 0 0 0 0 0 488 478 481 484 490 490 491 484 482 488 497 486 489 489 488 486 500 493 496 495 497 491 500 503 493 500 493 501 498 506 499 498 492 494 500 502 501 505 499 505 501 505 502 499 514 506 503 502 500 499 508 504 510 510 503 503 529 525 528 526 488 526 561 552 529 520 500 518 523 496 539 530 512 527 531 535 529 515 508 517 501 504 520 541 537 518 508 502 523 525 516 0 0 0 0 0 0 0
0 0 0 0 0 0 0 0 0 0 0 0 0 0 0 0 0 0 0 0 0 0 494 497 493 496 497 496 498 499 490 491 492 493 491 491 485 498 502 497 501 501 499 503 500 497 501 497 500 504 493 510 501 500 507 497 513 508 507 506 500 512 511 508 501 512 506 504 508 495 514 509 513 510 505 512 518 529 547 530 524 536 532 529 519 546 532 537 543 564 546 558 564 546 580 579 544 559 557 548 536 575 561 539 511 568 542 529 573 537 544 543 558 608 0 0 0 0 0 0
0 0 0 0 0 0 0 0 0 0 0 0 0 0 0 0 0 0 0 0 0 0 485 480 480 493 500 493 488 492 490 487 494 485 481 491 494 489 490 493 495 491 510 501 496 494 494 498 504 498 491 499 502 504 502 508 500 500 502 496 504 505 503 504 498 507 493 505 510 507 507 514 504 512 503 507 509 532 558 520 538 538 544 523 523 559 524 528 520 524 539 525 535 505 571 512 505 522 539 560 531 542 499 542 523 540 527 496 525 512 534 523 569 0 0 0 0 0 0 0
0 0 0 0 0 0 0 0 0 0 0 0 0 0 0 0 0 0 0 0 0 0 489 479 479 488 485 477 482 494 489 488 492 482 504 484 493 491 493 494 493 489 491 493 494 489 489 497 493 496 494 494 501 495 502 503 506 498 495 500 508 500 499 505 501 497 497 500 495 497 499 498 502 502 509 502 496 508 504 524 518 497 504 499 525 490 509 503 526 496 507 480 505 509 524 477 502 479 507 490 500 525 501 504 501 475 524 490 533 479 460 509 516 460 0 0 0 0 0 0
0 0 0 0 0 0 0 0 0 0 0 0 0 0 0 0 0 0 0 0 0 442 474 491 496 485 495 484 502 490 479 496 484 492 492 484 494 489 493 495 494 500 496 494 498 496 501 499 494 493 500 500 498 501 506 497 502 502 498 503 506 506 499 505 508 501 499 506 501 509 505 501 503 507 508 506 504 512 508 535 517 516 521 533 516 531 516 534 498 521 504 520 522 507 524 540 544 514 542 495 524 578 543 524 477 549 512 518 508 562 481 0 0 0 0 0 0 0 0 0
0 0 0 0 0 0 0 0 0 0 0 0 0 0 0 0 0 0 0 0 0 416 477 474 486 477 477 478 479 475 480 484 488 492 483 490 479 485 487 486 492 493 491 494 495 485 489 492 492 498 494 498 495 500 499 494 500 504 500 498 499 498 503 495 502 501 499 505 498 498 497 494 502 506 498 498 510 488 496 499 508 484 500 502 524 483 494 508 498 476 483 464 505 490 496 491 478 499 477 505 488 480 511 448 516 485 505 507 452 465 512 487 0 0 0 0 0 0 0 0
0 0 0 0 0 0 0 0 0 0 0 0 0 0 0 0 0 0 0 0 0 513 482 485 483 479 492 487 479 482 485 487 484 492 490 486 494 494 488 496 498 491 488 495 493 496 500 496 495 499 490 498 495 492 498 502 495 501 497 500 507 508 499 506 500 502 508 510 503 498 502 497 499 511 511 506 502 499 517 526 531 530 510 519 493 525 487 526 523 512 501 537 543 536 531 520 526 498 511 495 547 525 497 512 519 526 520 523 535 562 530 517 501 533 538 0 0 0 0 0
0 0 0 0 0 0 0 0 0 0 0 0 0 0 0 0 0 0 0 0 0 501 481 484 484 483 481 486 496 484 482 490 488 493 480 488 488 489 486 492 492 498 491 490 496 494 490 502 495 501 500 501 496 502 502 502 502 499 506 498 493 500 501 505 505 499 509 503 502 503 506 505 505 501 505 505 503 508 525 519 540 525 514 490 518 506 523 538 538 523 538 538 526 530 573 529 515 535 543 551 549 579 544 519 595 524 534 523 547 531 554 531 536 0 0 0 0 0 0 0
0 0 0 0 0 0 0 0 0 0 0 0 0 0 0 0 0 0 0 0 0 450 486 474 493 479 482 479 483 472 485 482 488 484 490 489 489 488 489 492 491 492 490 493 493 486 493 497 490 492 496 498 499 496 497 496 491 496 497 494 501 503 500 501 500 503 497 500 499 506 497 503 498 504 502 503 497 509 504 501 490 520 498 498 535 518 502 498 504 510 494 517 525 508 494 496 519 505 510 496 516 517 538 495 501 498 534 496 555 514 485 513 516 0 0 0 0 0 0 0
0 0 0 0 0 0 0 0 0 0 0 0 0 0 0 0 0 0 0 0 0 489 486 478 482 485 482 480 488 482 484 487 486 483 491 490 489 492 490 492 491 490 495 491 492 489 498 494 499 495 494 496 497 501 496 505 497 495 498 500 497 500 503 499 504 503 501 505 498 504 511 500 499 505 498 500 503 497 522 511 537 505 509 520 512 523 524 503 520 508 521 526 543 523 541 525 524 533 535 511 551 515 525 501 532 514 503 544 541 532 529 484 577 566 0 0 0 0 0 0
0 0 0 0 0 0 0 0 0 0 0 0 0 0 0 0 0 0 0 0 0 431 469 485 477 479 482 475 484 479 486 484 484 480 488 482 486 491 485 485 492 488 485 492 487 488 493 494 488 495 491 493 495 497 492 495 494 500 503 496 499 492 502 500 501 497 497 495 501 506 508 497 506 497 493 504 504 493 500 487 503 497 508 521 506 533 513 514 524 497 502 490 525 502 481 497 504 500 524 521 537 527 494 499 514 534 487 504 523 493 516 485 521 517 0 0 0 0 0 0
0 0 0 0 0 0 0 0 0 0 0 0 0 0 0 0 0 0 0 0 0 434 483 474 478 472 482 484 468 479 483 480 483 483 484 482 486 487 483 493 489 487 486 487 494 491 485 493 488 493 490 497 496 492 495 496 498 495 494 502 496 496 499 499 496 501 499 504 493 499 503 494 496 498 498 497 498 492 491 491 506 514 494 493 499 499 499 496 500 485 494 486 487 488 494 491 500 484 486 510 499 506 504 519 501 513 502 487 519 477 494 458 542 0 0 0 0 0 0 0
0 0 0 0 0 0 0 0 0 0 0 0 0 0 0 0 0 0 0 0 0 465 478 482 470 480 482 473 479 483 486 484 483 492 481 484 482 486 486 485 491 484 488 489 490 495 489 492 491 489 493 495 496 488 499 498 492 496 497 498 498 495 498 498 502 497 497 498 498 501 500 498 496 501 495 494 497 504 491 508 506 513 510 502 518 499 529 512 494 525 533 510 483 501 496 496 508 526 494 512 500 493 537 500 502 501 540 522 502 529 519 525 486 544 0 0 0 0 0 0
0 0 0 0 0 0 0 0 0 0 0 0 0 0 0 0 0 0 0 0 0 418 469 471 469 472 477 475 475 476 483 478 481 480 484 483 479 484 487 485 488 481 487 485 489 485 488 488 487 496 494 489 493 494 498 494 494 498 494 494 499 493 495 500 500 501 496 494 492 496 498 499 490 498 499 496 496 492 493 495 493 488 486 473 480 484 482 491 478 477 486 473 497 482 488 470 475 497 510 468 475 503 467 467 486 505 470 470 486 496 468 455 454 438 0 0 0 0 0 0
0 0 0 0 0 0 0 0 0 0 0 0 0 0 0 0 0 0 0 0 0 493 476 467 475 476 482 477 479 477 477 489 484 488 489 483 488 480 485 489 485 489 491 488 486 488 493 491 489 494 484 493 494 499 495 499 491 493 493 493 494 502 500 500 499 500 495 507 493 502 498 498 501 499 509 498 494 504 491 501 499 490 486 496 492 489 484 500 477 470 496 503 494 487 506 494 478 500 503 507 484 511 502 524 497 490 498 533 510 523 482 488 473 514 0 0 0 0 0 0
0 0 0 0 0 0 0 0 0 0 0 0 0 0 0 0 0 0 0 0 0 0 477 477 480 481 476 480 478 478 484 478 482 481 481 485 484 488 489 486 492 482 494 488 489 486 496 492 498 495 492 498 494 495 498 499 498 500 498 497 501 502 500 501 498 502 501 495 499 500 504 502 501 496 499 497 495 489 496 507 512 501 514 496 490 505 505 508 497 518 508 506 515 522 521 516 507 535 520 515 523 561 508 556 512 535 513 521 524 483 550 547 491 550 0 0 0 0 0 0
0 0 0 0 0 0 0 0 0 0 0 0 0 0 0 0 0 0 0 0 0 0 507 473 469 472 478 474 475 484 480 475 481 484 477 482 478 488 491 480 483 487 486 483 487 488 488 488 496 492 495 495 495 488 492 495 494 488 498 497 503 498 496 497 498 493 498 495 495 494 501 493 496 488 495 497 491 509 503 489 505 509 497 498 501 502 508 486 521 503 521 520 475 531 525 527 508 509 498 517 489 484 481 490 494 482 499 471 505 488 495 486 478 426 0 0 0 0 0 0
0 0 0 0 0 0 0 0 0 0 0 0 0 0 0 0 0 0 0 0 0 0 536 470 474 477 478 475 486 481 485 481 477 487 483 483 486 490 479 486 486 486 489 492 490 490 494 491 492 497 491 496 496 499 496 501 493 495 496 499 504 497 493 494 503 500 496 498 498 498 502 498 497 502 499 496 499 505 501 518 512 505 521 534 522 517 515 530 522 536 558 535 526 511 515 517 537 516 517 533 523 505 513 554 545 551 530 528 530 521 550 550 571 519 511 545 0 0 0 0
0 0 0 0 0 0 0 0 0 0 0 0 0 0 0 0 0 0 0 0 0 0 572 485 478 475 474 481 474 478 474 475 482 475 481 487 483 482 483 485 483 491 489 491 487 489 492 489 496 491 493 493 493 491 499 498 494 499 492 493 495 496 501 498 499 498 497 500 495 495 496 491 495 498 496 499 494 494 497 495 500 514 525 500 522 509 526 498 489 512 517 504 516 532 507 490 490 533 518 510 485 516 523 494 497 487 501 496 531 521 492 455 543 517 522 0 0 0 0 0
0 0 0 0 0 0 0 0 0 0 0 0 0 0 0 0 0 0 0 0 0 0 711 470 468 471 475 478 470 473 476 485 484 482 475 479 476 482 480 483 487 486 483 487 489 485 488 488 493 487 490 490 494 492 490 490 496 495 489 498 494 495 492 498 494 496 492 494 499 489 495 492 499 491 491 496 486 491 492 491 488 486 479 482 489 497 503 495 500 490 500 489 481 491 484 502 503 494 469 498 502 510 481 486 499 489 476 476 489 477 444 456 447 428 0 501 0 0 0 0
0 0 0 0 0 0 0 0 0 0 0 0 0 0 0 0 0 0 0 0 0 0 0 490 477 474 471 470 475 472 483 478 482 476 486 478 479 486 484 479 484 485 491 491 489 485 490 490 490 493 493 490 495 494 497 492 499 495 494 497 492 494 495 494 490 500 496 495 495 492 500 498 497 495 495 492 487 490 507 507 500 511 497 494 488 499 502 526 497 497 504 498 491 506 511 524 531 512 534 500 499 525 493 502 497 456 474 497 493 480 470 531 501 498 0 0 0 0 0 0
0 0 0 0 0 0 0 0 0 0 0 0 0 0 0 0 0 0 0 0 0 0 0 509 471 474 474 471 473 471 476 468 480 472 473 476 476 482 479 484 481 478 483 484 483 490 489 489 492 483 493 491 485 487 494 491 489 493 487 488 492 496 491 496 494 495 494 497 494 491 491 492 490 498 492 487 485 485 493 482 468 497 477 480 492 486 490 484 481 483 483 493 456 493 487 496 480 482 491 469 490 481 467 450 468 446 461 455 444 474 431 462 385 439 0 0 0 0 0 0
0 0 0 0 0 0 0 0 0 0 0 0 0 0 0 0 0 0 0 0 0 0 0 0 480 468 462 475 471 470 475 474 476 480 475 475 478 480 477 486 481 481 485 487 486 486 489 489 491 491 494 492 492 488 490 491 495 493 492 499 496 492 491 493 498 493 492 496 491 492 494 493 497 497 494 489 498 490 506 488 492 487 495 493 518 507 494 511 521 519 495 508 503 499 489 487 509 503 495 509 495 497 494 507 485 494 466 502 504 496 478 494 470 534 516 472 0 0 0 0
0 0 0 0 0 0 0 0 0 0 0 0 0 0 0 0 0 0 0 0 0 0 0 0 538 476 470 476 471 478 474 473 473 477 478 479 481 478 480 484 483 484 483 486 480 485 492 489 483 488 496 495 491 493 491 489 488 492 490 493 490 490 494 498 500 496 496 498 496 490 496 493 495 494 493 497 496 492 498 507 487 500 493 490 494 507 521 517 508 491 536 523 543 542 537 545 533 519 524 514 522 529 502 506 486 491 469 509 460 527 489 507 488 549 509 0 0 0 0 0
0 0 0 0 0 0 0 0 0 0 0 0 0 0 0 0 0 0 0 0 0 0 0 0 0 462 467 471 469 468 468 470 483 467 471 472 477 480 479 480 478 474 484 483 483 484 488 484 486 484 490 483 488 491 483 487 489 487 485 491 491 490 492 497 490 491 491 496 492 500 497 491 489 491 491 490 491 476 490 490 487 491 487 494 487 485 517 480 487 484 511 486 494 504 507 487 484 501 491 497 489 495 495 491 497 458 462 495 456 468 457 493 485 441 0 0 0 0 0 0
0 0 0 0 0 0 0 0 0 0 0 0 0 0 0 0 0 0 0 0 0 0 0 0 0 560 474 472 469 475 466 474 481 476 474 480 477 478 482 479 484 479 481 480 487 485 483 487 487 487 485 481 491 487 486 493 490 490 490 495 488 495 496 492 494 490 490 490 490 491 493 492 496 493 490 489 480 495 501 504 502 494 484 504 507 503 506 501 503 497 502 508 521 516 480 503 526 516 509 555 518 513 551 505 525 532 505 502 464 514 485 502 477 475 529 0 0 0 0 0
0 0 0 0 0 0 0 0 0 0 0 0 0 0 0 0 0 0 0 0 0 0 0 0 0 0 482 470 461 475 471 473 472 475 474 475 475 474 476 480 476 479 479 483 487 481 479 479 484 481 488 487 485 485 486 482 486 490 490 490 492 488 492 490 496 489 492 488 494 489 494 494 490 487 484 490 480 479 491 480 497 491 487 479 475 469 481 479 483 487 486 487 499 485 485 498 512 479 493 494 499 512 496 501 474 465 479 462 495 452 477 528 483 444 0 0 0 0 0 0
0 0 0 0 0 0 0 0 0 0 0 0 0 0 0 0 0 0 0 0 0 0 0 0 0 0 0 469 469 463 472 469 475 474 474 466 474 476 477 474 483 480 477 480 475 478 478 479 481 481 478 482 480 481 478 477 486 486 482 488 486 487 492 494 487 490 484 488 491 491 490 486 482 485 479 482 482 473 488 486 476 471 490 471 473 492 492 474 477 468 476 485 473 484 473 491 471 481 489 471 465 509 484 455 455 432 453 467 466 456 477 467 438 447 420 0 0 0 0 0
0 0 0 0 0 0 0 0 0 0 0 0 0 0 0 0 0 0 0 0 0 0 0 0 0 0 0 489 471 469 468 476 472 468 471 473 475 470 475 475 478 478 476 480 481 478 480 483 479 483 484 479 483 486 483 483 483 479 485 488 488 486 490 489 485 488 489 494 483 486 486 486 485 480 495 504 479 490 494 474 477 488 489 493 486 487 516 500 511 507 486 499 504 483 485 500 515 498 509 478 473 491 498 496 493 479 471 478 467 475 449 488 509 488 519 0 0 0 0 0
0 0 0 0 0 0 0 0 0 0 0 0 0 0 0 0 0 0 0 0 0 0 0 0 0 0 0 0 493 466 465 467 471 461 471 466 472 469 474 471 475 478 478 478 480 478 472 475 479 478 478 480 484 479 480 481 484 484 486 485 486 488 486 488 481 484 486 484 488 487 488 482 478 493 480 477 471 494 471 476 485 463 476 475 485 472 484 470 468 466 451 486 468 481 489 460 468 463 496 484 472 469 467 467 441 451 455 453 436 418 423 453 448 433 458 0 0 0 0 0
0 0 0 0 0 238 238 245 326 0 0 0 0 0 0 0 0 0 0 0 0 0 0 0 0 0 0 0 0 494 458 470 470 473 464 473 473 476 474 475 470 477 479 472 476 480 481 480 479 477 483 484 481 484 483 482 486 482 482 482 486 483 484 484 479 487 484 481 479 488 474 487 470 487 485 491 471 483 473 493 483 479 488 473 484 487 486 486 466 479 480 511 477 502 484 504 502 504 489 491 474 492 486 502 488 481 474 449 464 475 455 454 477 499 513 0 0 0 0 0
0 0 0 0 253 230 225 234 234 279 374 0 0 0 0 0 0 0 0 0 0 2340 0 0 0 0 0 0 0 0 468 469 461 473 472 472 476 470 472 471 473 476 474 472 486 478 481 476 480 478 481 482 482 480 479 485 480 483 483 483 479 482 485 487 482 487 484 483 478 483 488 475 484 495 486 491 484 483 479 494 501 479 486 486 492 488 500 480 488 489 500 510 482 481 484 477 507 484 512 505 483 500 520 489 503 490 472 480 512 485 478 535 500 0 0 0 0 0 0 0
0 0 0 219 218 228 226 226 235 248 312 0 0 0 0 0 0 0 0 0 0 0 0 0 0 0 0 0 0 0 0 472 455 468 461 469 466 467 471 469 474 468 472 472 472 475 469 476 479 477 477 473 480 481 479 480 487 472 478 482 481 485 478 485 480 481 479 476 474 478 475 482 475 476 486 463 478 485 476 476 479 473 488 483 475 479 491 469 463 474 484 478 483 458 483 485 488 491 491 502 502 501 481 448 485 477 452 486 470 471 459 463 436 461 447 0 0 0 0 0
265 278 317 279 303 315 273 232 240 245 326 0 430 447 447 437 430 430 459 429 481 475 467 446 459 462 449 453 454 467 452 462 469 470 468 467 467 468 471 469 463 467 476 471 475 472 474 467 476 478 479 478 480 482 482 484 481 480 481 484 478 482 481 479 480 477 481 482 485 482 492 491 476 484 482 480 475 477 479 478 488 475 485 480 480 484 494 500 480 477 489 492 501 474 487 488 466 484 494 493 479 474 509 492 473 520 485 519 493 502 499 477 452 496 493 528 0 0 0 0
204 210 202 202 211 238 252 230 230 253 380 369 358 396 396 382 399 390 398 400 411 413 411 420 421 419 425 433 446 441 446 459 453 458 455 448 447 460 461 460 464 457 461 457 463 466 471 465 471 472 470 467 469 465 468 475 471 477 470 478 471 473 473 472 475 467 474 477 476 467 463 471 464 471 466 459 457 451 457 454 472 458 456 468 462 455 456 455 468 454 447 442 462 437 449 443 457 453 428 447 443 445 453 456 455 436 438 419 453 441 437 437 473 424 507 416 419 453 0 0
208 196 217 183 237 241 238 228 227 282 382 345 369 359 361 366 382 377 363 374 377 383 390 401 392 419 406 417 421 436 437 441 440 444 439 448 440 446 449 446 435 450 437 449 444 447 450 453 454 458 456 452 455 454 445 458 455 451 460 466 463 461 455 456 460 457 455 462 454 454 461 453 459 448 436 442 438 434 424 426 432 420 434 430 425 433 429 422 419 420 430 412 425 411 409 408 417 437 418 418 427 409 419 410 429 403 414 383 409 382 418 410 407 410 404 404 390 425 424 409
287 272 245 225 232 229 232 231 260 317 330 332 339 349 336 340 345 350 355 356 358 370 368 378 380 381 405 398 425 419 422 419 423 429 435 427 437 430 426 430 423 426 430 431 440 436 432 436 439 440 445 440 441 439 445 443 446 445 447 443 445 447 440 448 439 441 439 429 444 435 436 439 428 430 418 419 408 418 405 400 403 397 399 395 401 400 386 398 402 398 397 378 410 396 398 411 397 401 382 396 390 393 398 415 396 395 398 376 389 391 403 407 409 385 400 391 357 383 398 445
275 270 285 228 235 235 229 237 258 304 297 286 298 293 295 319 301 307 306 320 315 317 318 337 355 359 369 378 391 392 396 398 406 410 406 403 411 414 413 409 412 406 408 410 412 416 412 419 426 415 413 411 416 415 417 416 416 422 417 422 418 418 415 422 416 413 416 410 418 417 412 415 402 396 393 390 371 369 365 359 351 359 357 364 365 362 362 358 358 362 348 342 346 352 363 364 340 361 348 356 351 353 350 356 356 356 353 350 352 353 341 343 343 336 332 318 321 322 279 328
271 265 284 274 261 248 267 285 283 284 282 280 290 287 298 285 282 302 284 301 300 313 318 320 332 349 360 380 367 374 388 387 394 390 390 384 393 398 392 392 401 392 398 390 400 393 393 389 397 393 397 396 401 395 392 396 396 400 402 403 399 399 399 402 395 384 392 391 396 399 397 390 391 382 379 356 358 334 335 337 338 327 325 335 328 322 340 333 327 320 333 334 332 334 338 338 329 323 328 337 333 330 327 340 342 337 333 336 345 335 337 329 327 354 341 347 330 332 336 344
254 246 246 244 252 249 252 255 259 271 257 264 262 266 261 264 267 268 271 274 267 289 291 298 315 323 337 345 349 360 360 367 363 365 361 356 372 374 368 369 372 373 373 367 374 368 370 375 367 374 382 378 375 377 382 377 378 380 385 375 381 379 384 374 374 374 373 375 374 378 368 365 364 357 353 348 327 327 315 312 311 298 318 297 301 309 309 305 302 298 309 296 308 308 315 298 300 309 303 303 312 317 311 306 313 321 317 317 324 311 307 309 319 311 302 330 342 333 333 293
225 233 230 228 234 229 230 243 244 243 234 246 245 243 246 237 238 252 238 247 251 263 267 282 295 297 310 326 330 330 330 332 347 338 345 345 345 342 341 342 348 343 345 346 347 346 343 351 346 347 345 345 349 351 353 346 345 342 354 345 351 353 348 342 349 345 347 355 345 344 347 339 342 336 331 322 317 297 293 291 282 279 278 274 282 268 283 283 271 276 279 292 282 278 274 277 267 283 283 280 293 276 269 279 275 270 277 277 285 278 272 285 286 279 265 284 289 296 250 291
219 225 232 232 232 221 233 224 233 228 240 231 229 239 240 230 238 236 239 246 243 248 263 265 275 284 299 301 307 311 317 324 318 325 322 325 322 320 330 327 325 322 319 319 329 321 325 330 326 327 324 323 333 329 331 329 332 326 337 332 330 326 324 327 328 327 330 328 326 324 326 325 328 314 305 307 292 280 279 278 264 274 263 258 269 267 263 258 257 261 260 258 261 262 261 269 261 256 261 268 265 257 269 266 262 253 270 269 270 273 278 261 271 267 258 291 281 281 317 280
196 209 199 213 208 217 211 208 209 210 206 207 214 212 221 218 212 221 216 215 225 230 243 251 247 261 271 277 279 286 284 292 290 294 300 302 293 299 297 305 296 294 294 297 306 297 304 301 306 305 305 299 305 301 302 306 303 303 302 306 303 308 307 304 308 309 302 306 303 303 298 299 303 287 287 274 267 258 255 246 246 252 248 246 246 248 245 237 243 250 244 242 245 240 241 240 243 236 246 233 240 240 243 248 239 236 235 229 249 252 237 257 253 252 250 264 235 242 244 255
196 197 194 204 198 205 204 210 185 190 201 199 190 187 208 186 205 193 214 207 219 225 234 231 243 248 248 259 267 272 266 267 267 271 277 278 277 274 283 282 277 286 283 291 281 280 286 285 285 289 283 279 278 283 279 285 284 284 283 289 283 289 288 289 288 285 284 285 285 283 285 282 279 276 265 264 252 245 237 236 230 231 230 234 231 229 223 221 227 227 231 232 223 224 222 226 225 219 223 224 224 224 232 229 223 225 230 225 236 229 228 241 241 233 237 241 223 218 246 239
178 169 172 193 196 195 187 205 186 178 181 183 179 186 186 177 182 188 187 190 208 212 218 229 231 234 239 243 243 251 255 253 260 260 260 257 256 260 272 265 261 265 269 269 265 263 267 264 263 267 269 263 268 268 267 269 263 267 266 279 270 269 265 273 264 268 272 271 267 266 268 256 262 256 252 247 238 237 228 221 218 203 217 216 215 222 218 217 211 217 226 220 223 213 213 212 211 210 208 219 222 214 212 214 210 214 218 217 236 219 222 228 238 228 227 230 240 219 237 212
169 167 168 172 176 178 178 175 179 181 181 182 180 176 185 186 180 182 178 181 182 187 188 213 213 218 222 221 225 233 230 243 237 240 245 242 238 243 248 241 244 240 246 246 249 245 247 248 246 250 245 250 247 246 243 246 248 252 250 250 252 248 249 251 246 248 249 245 244 247 244 245 235 237 236 223 221 216 199 212 197 190 197 185 189 191 194 198 186 192 194 189 187 193 193 188 191 187 184 187 182 190 205 191 184 191 177 185 179 184 200 195 181 201 199 208 202 169 177 186
174 173 174 172 173 176 176 173 178 182 179 175 181 174 179 179 176 178 189 185 181 180 187 189 192 193 211 217 217 226 226 224 221 222 228 224 226 233 230 227 227 232 232 236 237 235 230 233 235 234 235 235 233 232 230 233 237 242 239 238 234 237 237 234 233 231 231 230 234 232 233 233 227 224 219 215 211 198 187 189 197 189 193 195 192 193 195 194 193 189 189 194 191 188 181 184 182 186 188 184 187 180 186 187 181 176 186 178 181 181 200 184 198 200 199 196 188 179 196 208
166 167 168 172 170 172 170 166 166 165 168 168 170 166 171 174 172 172 179 184 175 185 177 189 186 185 190 192 206 209 214 214 210 212 211 217 213 215 214 214 213 222 223 218 220 223 219 217 224 221 221 219 222 219 219 220 219 222 219 223 220 224 220 220 215 220 220 219 224 218 218 220 220 213 192 190 186 193 196 190 186 185 188 184 183 181 187 185 184 188 185 178 181 182 182 182 184 181 184 184 188 186 185 184 180 174 183 180 177 171 171 181 183 173 200 173 179 199 174 195
151 157 158 156 163 164 164 164 163 164 160 160 161 165 164 162 163 170 169 174 171 176 184 183 182 182 186 183 182 185 181 184 184 196 187 191 186 190 185 191 193 192 193 191 198 195 196 195 191 193 194 197 195 195 196 200 193 195 197 196 200 195 196 190 191 196 192 197 195 194 197 195 196 190 188 198 193 188 188 182 178 179 176 176 174 173 178 176 175 175 173 176 173 169 169 172 174 173 168 173 173 175 172 172 171 170 165 164 171 173 169 170 168 179 171 170 173 173 170 159
150 151 155 155 159 156 153 161 159 161 158 156 156 152 157 158 160 163 157 166 171 168 177 174 178 182 179 181 184 188 191 185 191 191 192 186 190 195 195 192 197 194 192 198 196 197 188 197 198 192 195 197 196 199 198 194 198 199 197 189 198 188 201 199 194 195 193 198 198 193 198 194 192 192 192 184 185 188 178 171 173 172 171 166 168 170 170 169 169 172 171 170 176 168 173 166 168 166 168 170 165 166 174 171 164 166 162 167 167 166 170 169 175 172 175 171 158 176 170 171
143 143 147 147 147 150 149 152 153 154 147 154 150 153 151 149 157 148 158 158 157 166 165 169 170 170 173 173 176 179 179 178 182 182 175 177 184 179 183 182 183 180 186 186 183 183 184 185 188 185 186 190 189 187 185 186 187 190 0 190 187 187 185 186 188 188 189 188 186 189 183 184 184 182 180 178 177 171 170 166 160 158 161 160 163 161 162 159 162 162 159 161 160 160 162 160 157 157 165 165 157 160 162 156 154 158 156 156 154 154 164 164 160 159 165 169 157 158 168 165
136 136 136 136 139 150 146 146 145 147 143 145 140 146 145 147 142 146 146 155 153 160 162 162 164 166 169 168 168 170 174 170 175 171 170 175 175 174 174 175 173 177 176 178 175 177 176 177 176 175 178 177 181 180 181 181 181 0 0 178 178 178 182 182 183 177 179 179 177 174 174 176 173 175 175 171 167 163 163 159 160 159 150 157 159 157 152 153 157 155 150 153 158 155 153 152 152 152 155 151 158 151 148 156 151 147 146 152 153 152 150 144 147 148 154 147 148 140 149 159
140 135 133 137 142 143 151 141 139 137 140 140 144 144 144 141 146 146 148 146 152 154 155 157 162 160 164 162 166 164 163 167 169 167 163 167 166 172 167 169 173 0 170 169 172 171 171 170 171 170 174 171 175 172 175 0 173 171 0 0 173 0 0 174 171 171 173 165 171 171 169 166 171 166 165 164 165 156 156 155 150 156 153 150 153 151 150 147 152 155 145 153 152 152 148 149 153 151 155 150 149 145 146 147 146 145 142 137 147 145 151 151 145 159 150 153 141 155 165 172
127 123 125 114 135 135 141 138 133 121 131 131 124 125 137 133 135 135 137 139 140 142 148 150 149 159 157 154 158 159 160 154 155 163 157 156 161 161 0 0 0 0 0 0 0 0 0 166 167 164 165 162 165 166 0 0 167 165 168 0 0 0 0 0 165 167 164 0 159 163 162 162 160 161 154 158 151 154 149 148 146 144 143 147 143 149 143 147 141 146 144 146 143 146 138 140 140 147 141 141 140 137 142 136 134 132 137 139 134 138 138 142 141 152 146 145 135 136 144 125
123 127 125 124 127 135 134 134 133 131 127 135 133 135 133 134 122 138 137 137 139 143 147 146 151 150 155 154 155 156 153 155 157 159 152 154 156 0 0 0 0 0 0 0 0 0 0 0 0 163 164 160 0 0 0 0 0 0 0 0 0 0 0 0 0 162 0 0 0 0 0 158 159 157 154 153 150 151 150 143 132 139 144 142 144 141 142 139 143 142 137 139 141 143 136 139 144 145 143 142 137 141 141 138 132 136 133 133 139 145 138 155 133 142 149 147 138 117 136 150
115 107 120 123 131 116 130 127 128 127 132 120 120 122 117 130 133 123 129 135 134 127 135 142 141 141 144 143 147 148 151 147 154 153 152 150 0 0 0 0 0 0 0 0 0 0 0 0 151 155 156 0 0 0 0 0 0 0 0 0 0 0 0 0 0 0 0 0 0 0 0 0 151 151 148 147 144 142 143 143 130 140 128 137 127 128 136 140 128 137 137 139 138 125 120 137 140 136 134 138 135 137 133 124 134 136 136 132 136 137 136 141 143 136 147 135 129 126 124 156
100 108 110 109 108 114 122 118 114 120 115 115 118 117 127 122 121 121 118 115 131 122 128 124 134 140 140 140 142 144 145 142 140 146 143 142 0 0 0 0 0 0 0 0 0 0 0 0 146 0 0 0 0 0 0 0 0 0 0 0 0 0 0 0 0 0 0 0 0 0 0 0 0 139 142 140 138 139 128 130 127 124 121 120 125 124 126 124 119 128 122 123 118 129 125 128 125 132 121 118 122 132 132 115 122 118 117 122 128 136 125 132 124 129 104 126 115 103 122 123
112 111 116 115 115 112 116 127 119 117 115 122 118 118 119 124 117 120 122 116 117 114 122 118 138 127 135 131 0 140 0 0 0 0 143 0 0 0 0 0 0 0 0 0 0 0 0 0 0 0 0 0 0 0 0 0 0 0 0 0 0 0 0 0 0 0 0 0 0 0 0 0 0 146 124 139 125 121 122 126 122 119 120 124 115 121 119 123 122 118 119 126 116 118 114 120 122 121 122 121 118 126 130 126 132 119 127 127 113 123 133 125 132 123 129 120 114 140 153 158
105 100 109 110 108 103 107 104 100 104 110 106 103 105 106 110 105 113 118 110 116 114 111 116 118 120 124 124 120 128 0 0 0 0 126 0 0 0 0 0 0 0 0 0 0 0 0 0 0 0 0 0 0 0 0 0 0 0 0 0 0 0 0 0 0 0 0 0 0 0 0 0 132 0 0 126 120 118 120 117 117 117 109 114 111 115 110 115 110 116 114 115 112 112 113 107 109 113 115 108 116 112 111 114 114 116 108 112 123 109 105 109 105 111 116 107 110 116 113 142
99 101 95 94 99 103 100 102 102 103 102 101 104 107 107 104 108 103 114 106 111 113 106 107 112 109 115 121 120 121 0 128 0 0 0 0 0 0 0 0 0 0 0 0 0 0 0 0 0 0 0 0 0 0 0 0 0 0 0 0 0 0 0 0 0 0 0 0 0 0 0 0 0 121 0 116 122 117 113 112 109 111 103 104 110 109 108 119 102 107 110 113 111 113 109 117 106 107 97 121 114 105 110 101 110 112 105 108 108 111 102 101 115 93 102 112 123 98 111 135
96 103 97 104 100 98 103 94 97 96 93 96 103 95 102 94 104 103 114 117 111 105 99 111 112 109 115 115 114 120 121 121 123 0 0 0 0 0 0 0 0 0 0 0 0 0 0 0 0 0 0 0 0 0 0 0 0 0 0 0 0 0 0 0 0 0 0 0 0 0 0 0 122 123 107 121 113 117 118 117 105 112 102 117 108 107 103 101 101 104 104 108 112 95 101 103 104 101 113 107 108 109 106 105 108 104 111 95 107 104 103 105 106 94 120 106 137 134 136 128
86 83 85 84 81 82 82 97 92 83 92 93 95 95 90 89 76 92 89 86 94 88 98 106 100 101 113 106 0 0 106 104 116 0 0 0 0 0 0 0 0 0 0 0 0 0 0 0 0 0 0 0 0 0 0 0 0 0 0 0 0 0 0 0 0 0 0 0 0 0 0 115 113 110 107 113 107 107 104 99 100 104 97 91 102 94 88 97 103 102 90 94 101 96 86 94 90 102 86 97 92 94 94 88 80 86 89 93 95 84 85 89 80 95 90 92 90 82 87 110
93 87 89 88 98 95 99 105 94 97 95 95 93 94 97 94 96 89 104 97 97 107 105 102 102 104 113 108 0 105 108 108 119 111 119 109 0 0 0 0 0 119 0 0 0 0 0 0 0 0 0 0 0 0 0 0 0 0 0 0 0 0 0 0 113 0 0 0 111 0 108 106 116 111 115 109 109 112 102 99 112 104 105 88 98 100 102 105 102 100 106 109 111 100 98 105 101 94 97 108 103 102 91 100 89 99 100 88 92 87 91 93 89 91 106 100 107 106 127 167
87 92 93 92 97 98 91 88 86 96 87 93 88 93 88 88 93 99 98 94 102 95 95 111 91 103 108 103 104 108 93 0 105 101 98 101 0 114 117 0 106 0 0 0 0 0 0 0 0 0 0 0 0 0 0 0 0 113 0 0 0 106 106 110 114 110 104 102 111 106 109 102 105 102 117 110 100 95 103 97 96 98 101 88 91 96 94 102 105 95 98 102 107 88 84 87 89 94 99 90 94 88 93 94 95 88 104 94 103 86 93 93 86 93 104 91 126 144 150 96
84 85 83 89 91 92 102 87 89 81 88 88 85 93 92 90 91 88 93 86 79 92 97 86 86 94 94 92 104 87 94 99 96 97 95 109 100 103 103 101 102 96 98 106 107 91 0 0 97 0 0 107 103 91 99 110 104 101 106 103 98 105 111 98 105 111 102 97 100 107 98 106 107 102 104 91 94 95 99 89 96 97 94 95 90 90 90 95 92 93 99 89 91 95 92 91 85 84 89 86 84 92 92 88 87 80 95 85 80 93 89 98 94 103 85 87 118 85 94 125
84 82 86 84 84 83 100 102 87 83 87 86 90 87 86 89 90 97 93 97 87 98 94 89 92 95 96 88 99 101 97 86 95 94 98 96 97 100 98 107 105 98 99 107 99 97 105 0 110 103 99 104 100 100 99 105 102 107 96 108 107 96 96 102 99 99 97 104 96 105 101 104 103 97 103 88 95 96 97 88 101 97 86 90 98 99 87 88 95 91 89 99 91 75 95 92 94 97 99 85 81 97 82 90 85 103 95 98 95 85 92 102 114 104 123 125 122 125 148 141
80 74 69 69 80 80 87 88 87 82 86 82 86 78 88 86 86 88 85 86 85 85 93 92 87 85 95 93 87 94 91 93 95 91 96 96 94 96 90 97 93 90 86 92 95 95 90 104 97 87 94 99 97 91 88 82 101 90 95 96 97 84 81 97 97 98 96 92 97 97 92 86 96 91 85 98 91 94 98 95 86 94 82 88 85 91 90 84 88 89 82 81 89 81 84 90 81 81 81 93 82 84 81 73 83 79 81 86 85 77 81 89 89 96 99 87 135 86 120 58
73 72 84 86 73 83 83 85 81 81 83 90 82 83 83 90 86 88 83 87 83 93 86 92 89 84 93 86 94 93 86 95 88 97 96 93 85 91 96 94 96 96 91 89 87 96 89 96 103 89 93 98 96 84 97 98 89 86 87 96 99 84 92 94 90 93 91 97 104 97 95 98 84 85 92 85 97 84 95 94 91 85 88 89 79 87 88 78 91 91 74 85 75 79 92 81 88 88 79 80 86 79 79 80 79 81 83 83 90 88 89 86 82 94 90 102 115 72 80 200
