0 0 0 0 0 0 0 0 0 0 0 0 0 0 0 0 0 0 0 0 0 0 0 0 0 0 0 0 0 0 0 0 0 0 0 0 0 0 0 0 0 0 0 0 0 0 0 0 0 0 0 0 0 0 0 0 0 0 0 0 0 0 0 0 0 0 0 0 0 0 0 0 0 0 0 0 0 0 0 0 0 0 0 0 0 0 0 0 0 0 0 0 0 0 0 0 0 0 0 0 0 0 0 0 0 0 0 0 0 0 0 0 0 0 0 0 0 0 0 0
0 0 0 0 0 0 0 0 0 0 0 0 0 0 0 0 0 0 0 0 0 0 0 0 0 0 0 0 0 0 0 0 0 0 0 0 0 0 0 0 0 0 0 0 0 0 0 0 0 0 0 0 0 0 0 0 0 0 0 0 0 0 0 0 0 0 0 0 0 0 0 0 0 0 0 0 0 0 0 0 0 0 0 0 0 0 0 0 0 0 0 0 0 0 0 0 0 0 0 0 0 0 0 0 0 0 0 0 0 0 0 0 0 0 0 0 0 0 0 0
0 0 0 0 0 0 0 0 0 0 0 0 0 0 0 0 0 0 0 0 0 0 0 0 0 0 0 0 0 0 0 0 0 0 0 0 0 0 0 0 0 0 0 0 0 0 0 0 0 0 0 0 0 0 0 0 0 0 0 0 0 0 0 0 0 0 0 0 0 0 0 0 0 0 0 0 0 0 0 0 0 0 0 0 0 0 0 0 0 0 0 0 0 0 0 0 0 0 0 0 0 0 0 0 0 0 0 0 0 0 0 0 0 0 0 0 0 0 0 0
0 0 0 0 0 0 0 0 0 0 0 0 0 0 0 0 0 0 0 0 0 0 0 0 0 0 0 0 0 0 0 0 0 0 0 0 0 0 0 0 0 0 0 0 0 0 0 0 0 0 0 0 0 0 0 0 0 0 0 0 0 0 0 0 0 0 0 0 0 0 0 0 0 0 0 0 0 0 0 0 0 0 0 0 0 0 0 0 0 0 0 0 0 0 0 0 0 0 0 0 0 0 0 0 0 0 0 0 0 0 0 0 0 0 0 0 0 0 0 0
0 0 0 0 0 0 0 0 0 0 0 0 0 0 0 0 0 0 0 0 0 0 0 0 0 0 0 0 0 0 0 0 0 0 0 0 0 0 0 0 0 0 0 0 0 0 0 0 0 0 0 0 0 0 0 0 0 0 0 0 0 0 0 0 0 0 0 0 0 0 0 0 0 0 0 0 0 0 0 0 0 0 0 0 0 0 0 0 0 0 0 0 0 0 0 0 0 0 0 0 0 0 0 0 0 0 0 0 0 0 0 0 0 0 0 0 0 0 0 0
0 0 0 0 0 0 0 0 0 0 0 0 0 0 0 0 0 0 0 0 0 0 0 0 0 0 0 0 0 0 0 0 0 0 0 0 0 0 0 480 513 496 495 515 523 507 510 524 496 522 500 483 498 504 505 0 0 0 0 0 0 0 0 0 0 0 0 0 0 0 0 0 0 0 0 0 0 0 0 0 0 0 0 0 0 0 0 0 0 0 0 0 0 0 0 0 0 0 0 0 0 0 0 0 0 0 0 0 0 0 0 0 0 0 0 0 0 0 0 0
0 0 0 0 0 0 0 0 0 0 0 0 0 0 0 0 0 0 0 0 0 0 0 0 0 0 0 0 0 0 0 0 0 0 0 0 0 508 519 517 511 500 508 525 523 528 527 513 514 522 520 520 519 497 514 533 523 525 526 551 0 0 0 0 0 0 0 0 0 0 0 0 0 0 0 0 0 0 0 0 0 0 0 0 0 0 0 0 0 0 0 0 0 0 0 0 0 0 0 0 0 0 0 0 0 0 0 0 0 0 0 0 0 0 0 0 0 0 0 0
0 0 0 0 0 0 0 0 0 0 0 0 0 0 0 0 0 0 0 0 0 0 0 0 0 0 0 0 0 0 0 0 0 0 0 494 504 506 494 497 501 509 498 509 500 504 496 520 502 488 506 501 514 505 505 518 513 503 517 491 495 522 501 520 524 0 0 0 0 0 0 0 0 0 0 0 0 0 0 0 0 0 0 0 0 0 0 0 0 0 0 0 0 0 0 0 0 0 0 0 0 0 0 0 0 0 0 0 0 0 0 0 0 0 0 0 0 0 0 0
0 0 0 0 0 0 0 0 0 0 0 0 0 0 0 0 0 0 0 0 0 0 0 0 0 0 0 0 0 0 0 0 0 505 498 496 511 513 494 497 504 500 498 512 496 500 512 490 503 513 493 506 508 509 502 507 510 508 505 506 492 505 512 504 514 501 524 509 541 554 572 586 540 542 522 585 575 540 550 535 0 0 0 0 0 0 0 0 0 0 0 0 0 0 0 0 0 0 0 0 0 0 0 0 0 0 0 0 0 0 0 0 0 0 0 0 0 0 0 0
0 0 0 0 0 0 0 0 0 0 0 0 0 0 0 0 0 0 0 0 0 0 0 0 0 0 0 0 0 0 0 531 515 520 501 499 487 498 505 501 509 500 502 506 507 500 503 496 512 516 518 507 508 503 508 510 506 504 503 504 509 504 517 515 509 522 506 518 528 595 556 575 595 581 617 610 591 600 574 578 580 574 565 594 0 600 0 529 621 553 603 563 625 540 551 567 604 589 600 619 617 593 593 614 0 0 0 0 0 0 0 0 0 0 0 0 0 0 0 0
0 0 0 0 0 0 0 0 0 0 0 0 0 0 0 0 0 0 0 0 0 0 0 0 0 0 0 0 0 0 478 487 510 486 495 494 509 500 495 507 500 494 502 499 500 505 502 502 502 507 493 503 503 495 500 508 506 504 488 510 508 500 512 507 499 505 505 511 514 514 504 527 549 565 533 550 529 501 524 565 537 581 555 541 474 517 518 525 530 557 521 516 571 535 546 535 585 501 539 553 527 501 511 520 577 516 540 0 0 0 0 0 0 0 0 0 0 0 0 0
0 0 0 0 0 0 0 0 0 0 0 0 0 0 0 0 0 0 0 0 0 0 0 0 0 0 0 0 519 504 504 499 505 500 509 506 494 505 502 499 507 508 500 501 510 505 508 502 507 504 504 498 509 508 503 506 505 507 501 509 516 499 515 506 523 492 516 503 508 498 514 562 550 544 600 568 570 561 540 547 545 576 512 558 582 572 606 538 586 548 542 600 590 577 527 593 594 551 574 589 552 567 591 565 533 602 588 584 586 0 0 0 0 0 0 0 0 0 0 0
0 0 0 0 0 0 0 0 0 0 0 0 0 0 0 0 0 0 0 0 0 0 0 0 0 0 0 498 499 506 509 492 502 512 501 497 506 500 505 507 508 499 509 509 507 508 499 500 506 504 504 515 512 510 512 512 503 513 512 526 513 507 523 506 512 507 517 514 516 510 517 531 564 564 557 592 577 571 539 605 529 599 567 572 572 580 551 617 573 537 565 560 573 596 558 533 604 563 599 568 574 594 563 627 594 558 574 573 0 0 0 0 0 0 0 0 0 0 0 0
0 0 0 0 0 0 0 0 0 0 0 0 0 0 0 0 0 0 0 0 0 0 0 0 0 0 489 516 499 507 498 495 492 499 492 507 499 505 498 499 496 512 514 507 509 509 503 504 501 507 511 506 507 512 500 503 502 508 520 510 506 513 517 506 518 510 508 502 510 510 513 512 535 521 549 545 540 532 533 536 541 524 547 552 557 544 552 547 524 517 592 599 560 520 557 546 556 543 544 543 557 568 550 545 564 539 557 543 517 0 0 0 0 0 0 0 0 0 0 0
0 0 0 0 0 0 0 0 0 0 0 0 0 0 0 0 0 0 0 0 0 0 0 0 0 520 501 503 509 503 505 500 502 503 498 499 503 498 504 499 507 507 501 502 503 499 504 509 505 511 503 511 511 504 508 504 508 502 501 501 519 508 498 517 511 514 497 505 520 515 506 505 511 544 563 584 577 557 541 571 562 559 591 593 586 605 577 538 589 575 593 570 592 542 578 563 590 568 580 576 580 580 572 596 578 586 544 547 571 620 575 0 0 0 0 0 0 0 0 0
0 0 0 0 0 0 0 0 0 0 0 0 0 0 0 0 0 0 0 0 0 0 0 0 0 489 504 507 493 483 490 495 487 499 482 493 497 497 496 495 494 500 498 497 494 498 505 502 499 506 502 507 503 502 502 502 506 498 502 506 500 507 509 508 509 507 511 506 504 508 513 513 510 506 555 553 492 512 531 533 570 552 543 548 522 505 566 565 547 531 539 561 523 530 558 565 537 535 545 540 564 524 550 517 532 550 568 515 495 588 0 0 506 504 0 0 0 0 0 0
0 0 0 0 0 0 0 0 0 0 0 0 0 0 0 0 0 0 0 0 0 0 0 0 511 489 499 490 487 493 483 491 494 494 495 494 493 486 494 493 499 500 493 499 498 504 499 509 493 497 501 506 505 505 504 509 501 496 507 500 503 500 500 512 498 505 501 495 504 503 505 507 507 503 534 510 555 487 519 516 508 539 539 503 546 536 526 525 532 512 545 535 531 522 500 542 504 515 510 521 514 527 490 500 530 524 523 521 518 509 495 0 0 0 0 0 0 0 0 0
0 0 0 0 0 0 0 0 0 0 0 0 0 0 0 0 0 0 0 0 0 0 0 0 487 485 494 491 499 487 490 504 495 492 494 492 498 495 496 501 490 495 493 491 500 503 496 500 507 497 499 507 505 511 501 499 501 505 504 502 505 507 504 510 502 510 504 502 505 516 506 509 509 511 508 541 560 555 553 532 522 548 529 550 538 515 537 533 521 505 525 564 543 540 512 538 555 539 542 519 526 561 555 588 576 567 528 536 523 534 0 0 0 0 0 0 0 0 0 0
0 0 0 0 0 0 0 0 0 0 0 0 0 0 0 0 0 0 0 0 0 0 0 447 490 495 489 495 483 482 503 498 495 491 495 493 500 487 490 500 494 496 497 498 492 509 500 503 486 506 500 503 498 499 506 495 503 505 502 501 506 499 506 499 502 498 501 506 511 500 512 502 503 497 501 518 523 511 517 532 507 513 502 518 519 539 533 521 522 523 514 518 525 496 502 490 505 524 514 503 517 530 540 515 531 529 495 504 530 0 517 0 0 0 0 0 0 0 0 0
0 0 0 0 0 0 0 0 0 0 0 0 0 0 0 0 0 0 0 0 0 0 0 483 496 497 485 490 492 495 495 501 494 497 493 497 491 484 493 498 490 495 503 493 501 500 495 496 495 505 505 508 507 504 503 509 502 510 507 505 505 510 498 503 506 508 498 512 508 514 504 504 508 510 507 511 545 532 526 524 539 521 514 552 536 554 552 539 534 519 530 526 543 558 532 513 542 507 532 540 533 552 554 557 543 549 565 538 590 546 569 0 0 0 0 0 0 0 0 0
0 0 0 0 0 0 0 0 0 0 0 0 0 0 0 0 0 0 0 0 0 0 515 492 490 490 503 491 489 487 492 496 499 500 491 494 495 490 496 501 500 494 507 497 496 491 506 496 502 499 496 495 501 498 509 503 508 497 500 505 512 508 506 506 502 498 506 511 506 507 512 504 506 511 508 502 521 546 539 524 541 532 536 552 524 528 518 557 540 538 567 552 523 540 537 555 539 518 582 552 527 545 562 537 561 548 539 598 584 562 554 580 0 0 0 0 0 0 0 0
0 0 0 0 0 0 0 0 0 0 0 0 0 0 0 0 0 0 0 0 0 0 458 488 492 487 488 496 487 490 493 492 491 491 495 497 484 489 493 495 502 496 495 499 499 497 503 496 496 496 495 497 499 500 503 503 504 510 503 504 506 509 502 515 510 514 503 509 510 498 505 509 506 503 510 515 518 510 503 506 506 513 509 542 520 510 532 511 542 525 510 507 527 516 540 552 525 536 537 541 514 540 558 511 513 502 512 585 524 485 472 0 0 0 0 0 0 0 0 0
0 0 0 0 0 0 0 0 0 0 0 0 0 0 0 0 0 0 0 0 0 0 503 488 490 490 497 493 493 492 486 484 496 488 491 483 491 496 493 495 493 500 495 496 495 500 500 498 494 492 500 508 499 501 502 498 505 502 507 505 494 502 506 507 503 509 510 505 509 511 513 501 510 509 504 506 511 536 541 538 536 534 528 506 553 548 546 536 539 549 535 531 562 525 533 550 529 562 530 552 531 548 541 554 506 565 537 523 603 521 593 501 555 0 0 0 0 0 0 0
0 0 0 0 0 0 0 0 0 0 0 0 0 0 0 0 0 0 0 0 0 0 485 493 494 487 489 491 490 492 488 486 493 486 482 490 484 494 494 492 493 493 492 496 493 496 498 499 496 500 505 506 500 503 495 502 498 500 502 495 505 499 505 507 506 495 511 508 496 506 515 513 503 505 508 510 521 533 514 509 504 525 493 538 527 526 542 512 533 533 520 521 490 516 557 555 532 537 497 530 520 516 547 518 510 544 543 548 533 485 487 579 501 546 0 0 0 0 0 0
0 0 0 0 0 0 0 0 0 0 0 0 0 0 0 0 0 0 0 0 0 0 482 490 476 488 489 486 492 496 476 487 497 484 490 489 486 494 485 490 502 484 504 495 496 496 490 493 496 500 495 497 500 498 505 495 501 500 504 504 503 499 506 499 497 504 505 496 507 500 501 500 502 495 500 494 506 505 523 521 497 520 505 534 504 480 500 474 492 513 508 519 499 507 491 514 536 513 512 496 491 499 551 525 494 533 502 516 513 520 494 513 494 0 0 0 0 0 0 0
0 0 0 0 0 0 0 0 0 0 0 0 0 0 0 0 0 0 0 0 0 0 494 479 484 496 486 489 479 479 492 482 486 493 491 487 493 489 492 494 493 494 494 500 493 491 492 496 497 497 496 493 502 502 499 502 508 502 499 501 504 499 502 497 501 500 500 501 491 500 498 495 511 510 510 496 508 515 521 510 538 515 517 518 528 517 518 520 515 488 520 534 525 526 521 576 525 529 529 520 545 532 505 529 512 508 564 523 482 547 558 561 500 0 0 0 0 0 0 0
0 0 0 0 0 0 0 0 0 0 0 0 0 0 0 0 0 0 0 0 0 415 479 490 478 484 484 485 489 489 475 490 479 490 484 487 492 486 491 491 489 492 488 490 494 492 499 496 493 495 496 502 496 499 497 499 494 500 500 496 497 502 504 496 506 498 501 504 499 505 498 499 497 503 504 507 501 508 513 503 518 494 496 495 500 484 507 513 507 506 496 501 478 498 493 485 473 511 480 507 494 524 485 520 502 490 463 476 488 477 447 0 0 0 0 0 0 0 0 0
0 0 0 0 0 0 0 0 0 0 0 0 0 0 0 0 0 0 0 0 0 480 482 485 482 486 495 483 482 478 484 484 493 487 491 493 492 495 491 493 500 502 491 489 493 495 492 495 496 497 494 499 498 497 500 500 510 499 501 507 505 501 500 501 504 504 503 498 504 500 502 503 504 502 510 504 496 507 539 521 531 518 519 505 526 538 527 526 505 523 540 530 493 526 507 486 535 516 512 511 518 503 530 541 538 527 529 556 537 508 532 518 528 0 0 0 0 0 0 0
0 0 0 0 0 0 0 0 0 0 0 0 0 0 0 0 0 0 0 0 0 466 481 489 486 483 485 485 484 481 484 491 488 492 486 488 485 490 491 492 493 486 489 500 497 494 500 494 500 498 492 496 498 498 496 502 501 503 502 498 503 505 505 504 495 499 501 510 506 505 502 506 505 509 504 501 505 510 524 501 508 527 533 504 536 511 534 528 528 512 517 516 531 522 518 517 512 557 501 542 517 573 500 523 536 562 533 560 502 537 557 493 515 0 0 0 0 0 0 0
0 0 0 0 0 0 0 0 0 0 0 0 0 0 0 0 0 0 0 0 0 454 490 479 486 483 480 480 491 486 476 490 480 487 490 488 483 480 490 489 493 493 489 496 493 496 493 496 495 494 496 504 499 502 502 498 502 496 499 496 499 502 502 502 505 503 500 502 500 498 511 503 502 503 500 507 504 499 505 512 508 501 493 496 512 502 500 516 516 521 518 513 510 502 515 486 459 491 494 481 528 513 510 525 505 510 531 491 498 466 479 449 529 0 0 0 0 0 0 0
0 0 0 0 0 0 0 0 0 0 0 0 0 0 0 0 0 0 0 0 0 480 492 484 485 476 484 482 479 478 483 487 491 487 487 486 487 491 484 489 491 491 490 496 494 491 494 498 497 495 500 504 497 496 496 496 499 498 506 500 497 503 494 497 500 505 500 507 500 503 506 505 510 505 499 508 508 512 524 530 519 540 538 536 545 515 527 508 514 512 555 513 511 497 536 529 519 524 525 519 529 528 545 560 532 529 536 509 557 508 546 551 504 0 0 0 0 0 0 0
0 0 0 0 0 0 0 0 0 0 0 0 0 0 0 0 0 0 0 0 0 462 479 481 476 475 480 483 476 483 479 484 488 489 489 483 485 487 489 491 487 493 493 492 486 488 494 494 493 502 490 496 497 498 497 497 496 496 498 500 494 496 498 504 499 508 502 505 502 505 506 499 505 507 501 493 500 504 502 490 492 517 494 509 514 523 501 510 485 508 491 494 501 495 479 502 503 485 496 500 498 486 484 511 501 489 499 492 515 529 503 498 473 475 0 0 0 0 0 0
0 0 0 0 0 0 0 0 0 0 0 0 0 0 0 0 0 0 0 0 0 435 483 478 475 477 472 477 479 478 483 483 487 483 484 486 489 489 484 490 495 487 490 492 496 488 493 491 491 489 494 494 491 493 492 493 496 497 498 497 497 496 502 496 499 497 497 494 501 502 500 496 504 494 502 500 502 496 510 502 518 504 500 503 507 496 502 512 503 506 510 496 477 485 529 490 488 499 468 499 473 466 518 506 497 492 493 500 511 490 459 502 476 481 0 0 0 0 0 0
0 0 0 0 0 0 0 0 0 0 0 0 0 0 0 0 0 0 0 0 0 460 484 476 473 474 483 473 476 480 480 484 484 482 483 485 483 481 485 494 486 488 490 492 495 491 488 491 493 492 493 497 497 492 497 492 495 495 493 496 507 496 499 500 498 503 496 500 494 502 503 498 496 499 497 493 493 498 504 518 507 516 510 483 504 526 478 499 508 510 499 483 484 484 503 494 477 486 496 490 529 520 504 508 483 506 529 465 510 523 530 505 501 549 0 0 0 0 0 0
0 0 0 0 0 0 0 0 0 0 0 0 0 0 0 0 0 0 0 0 0 417 474 477 471 474 475 476 479 484 472 485 482 481 482 486 480 481 485 484 485 479 489 491 490 490 493 490 492 491 495 494 492 495 494 490 491 491 494 497 499 496 499 497 502 498 496 493 495 499 501 498 499 500 498 499 502 494 492 480 487 489 490 487 510 479 483 511 485 485 484 497 480 473 486 486 477 479 494 492 509 472 477 453 471 440 451 488 505 496 488 495 466 451 0 0 0 0 0 0
0 0 0 0 0 0 0 0 0 0 0 0 0 0 0 0 0 0 0 0 0 433 467 469 473 479 473 480 477 481 476 484 480 479 480 479 485 486 485 488 488 487 491 491 492 491 486 493 491 499 496 492 497 495 504 495 492 499 495 494 500 497 497 499 499 499 500 504 496 496 497 496 495 495 497 497 496 488 514 524 501 518 503 505 490 489 500 495 514 515 512 520 480 485 519 507 518 512 481 501 495 513 517 472 511 499 491 532 494 508 493 460 520 462 0 0 0 0 0 0
0 0 0 0 0 0 0 0 0 0 0 0 0 0 0 0 0 0 0 0 0 471 472 476 484 475 483 477 480 480 475 479 482 481 485 485 492 481 479 490 489 488 495 489 489 494 494 492 494 491 494 495 489 491 499 489 492 492 492 498 497 497 496 500 505 499 499 500 498 499 497 494 504 499 497 497 493 494 499 511 500 504 500 497 504 510 505 529 494 504 510 492 499 490 505 497 513 507 491 506 518 523 530 494 490 541 499 489 502 551 545 472 550 517 0 0 0 0 0 0
0 0 0 0 0 0 0 0 0 0 0 0 0 0 0 0 0 0 0 0 0 0 480 476 476 473 469 479 478 482 477 482 484 479 479 478 489 486 479 485 483 484 483 485 491 490 490 494 497 492 495 491 492 493 499 493 491 491 492 490 497 495 492 497 497 502 492 491 493 495 495 501 493 497 491 494 494 500 492 495 489 485 477 494 495 481 512 498 516 505 512 512 508 488 526 505 506 479 472 488 505 498 495 528 503 502 477 468 489 467 518 483 449 460 0 0 0 0 0 0
0 0 0 0 0 0 0 0 0 0 0 0 0 0 0 0 0 0 0 0 0 0 504 483 470 476 481 481 478 479 482 484 482 485 477 484 484 487 486 486 486 487 490 486 489 492 489 491 495 489 494 497 490 492 488 494 493 493 496 495 496 495 495 501 498 494 502 503 499 499 500 493 496 495 499 498 502 494 514 509 510 506 522 519 524 533 513 519 519 517 538 537 507 536 524 498 519 501 514 494 524 497 500 509 518 550 484 517 529 532 500 531 500 504 0 0 0 0 0 0
0 0 0 0 0 0 0 0 0 0 0 0 0 0 0 0 0 0 0 0 0 0 509 472 467 476 481 478 482 474 476 476 484 485 479 485 484 483 475 487 485 481 483 486 486 486 490 483 492 490 483 490 491 490 492 494 492 490 490 495 494 491 494 495 497 499 496 496 494 498 497 496 495 494 494 491 494 499 499 497 492 502 483 496 511 503 515 496 511 510 541 506 539 504 496 512 525 492 513 504 512 489 506 488 502 507 456 473 486 490 493 447 456 451 463 465 0 0 0 0
0 0 0 0 0 0 0 0 0 0 0 0 0 0 0 0 0 0 0 0 0 0 580 468 471 471 475 474 474 478 473 473 477 480 480 483 487 483 480 488 484 486 485 487 488 484 491 485 492 491 489 497 494 493 494 490 496 490 494 493 497 495 497 494 499 499 499 497 498 493 488 493 497 498 491 493 494 486 502 500 499 487 517 513 512 502 478 490 510 495 517 491 506 511 522 524 519 493 518 482 526 490 471 491 482 508 487 490 487 489 472 485 463 486 462 0 0 0 0 0
0 0 0 0 0 0 0 0 0 0 0 0 0 0 0 0 0 0 0 0 0 0 762 479 469 472 472 477 471 469 482 482 484 482 479 481 478 481 484 483 488 482 485 485 488 483 484 486 492 489 493 490 493 497 496 494 489 493 496 494 492 497 496 496 495 496 496 503 498 495 498 493 500 494 497 494 495 497 499 495 495 510 482 485 518 502 494 512 492 515 508 501 500 514 507 510 473 520 496 517 511 530 515 495 523 500 463 525 497 495 543 534 475 0 0 0 0 0 0 0
0 0 0 0 0 0 0 0 0 0 0 0 0 0 0 0 0 0 0 0 0 0 0 488 472 474 472 475 475 474 476 477 468 478 479 478 480 480 485 478 484 486 487 484 486 484 489 489 490 491 485 488 486 488 497 492 494 488 492 490 494 489 494 491 491 493 492 495 495 493 492 495 494 491 492 488 490 488 490 501 489 494 489 485 492 479 496 506 479 488 489 485 482 501 486 483 469 486 505 488 506 481 493 503 481 459 463 490 459 477 468 452 440 0 0 0 0 0 0 0
0 0 0 0 0 0 0 0 0 0 0 0 0 0 0 0 0 0 0 0 0 0 0 541 465 474 472 473 472 479 476 475 486 478 480 480 476 480 481 484 480 479 486 488 489 491 492 487 492 486 494 491 487 487 493 491 496 497 489 494 499 493 493 495 493 497 492 497 496 495 492 494 493 497 493 489 485 496 509 514 511 520 527 522 507 519 506 532 513 512 499 511 500 495 512 509 513 517 506 505 487 520 508 483 474 488 510 468 497 513 477 495 470 461 0 0 0 0 0 0
0 0 0 0 0 0 0 0 0 0 0 0 0 0 0 0 0 0 0 0 0 0 0 0 480 467 470 472 472 472 479 472 474 475 481 478 479 480 478 481 478 482 484 484 484 487 486 491 494 492 488 487 489 493 492 490 488 490 490 493 492 493 494 494 498 493 494 495 495 491 493 493 492 493 494 490 499 499 498 497 496 509 488 505 508 493 507 512 512 502 506 482 494 484 498 503 514 505 514 515 504 503 512 498 478 484 502 520 488 507 541 488 501 492 490 0 0 0 0 0
0 0 0 0 0 0 0 0 0 0 0 0 0 0 0 0 0 0 0 0 0 0 0 0 514 467 472 473 471 469 474 470 471 471 479 478 477 479 484 479 482 481 482 486 480 485 485 486 487 487 493 492 493 492 484 489 493 495 491 492 489 493 494 496 493 493 491 493 495 492 495 494 490 493 493 495 487 501 500 490 489 501 506 502 504 527 488 500 509 481 503 501 499 508 483 517 479 483 494 468 479 515 498 481 488 517 466 489 497 506 484 483 459 458 456 0 0 0 0 0
0 0 0 0 0 0 0 0 0 0 0 0 0 0 0 0 0 0 0 0 0 0 0 0 0 477 463 476 471 475 473 472 479 471 475 477 478 480 479 479 478 476 483 484 486 481 491 489 485 486 487 483 489 491 486 490 490 486 483 489 490 490 493 493 492 494 491 492 493 495 490 491 494 491 491 484 489 491 499 490 498 499 490 487 492 490 493 489 497 505 502 504 509 503 520 522 514 503 489 538 503 519 520 485 488 457 481 482 511 494 508 547 511 484 448 0 0 0 0 0
0 0 0 0 0 0 0 0 0 0 0 0 0 0 0 0 0 0 0 0 0 0 0 0 0 518 467 470 467 471 468 470 471 472 478 476 474 472 480 478 479 479 476 482 481 482 483 485 485 482 489 486 483 492 490 489 488 484 488 493 488 493 488 487 490 496 489 487 488 490 491 490 495 492 491 484 489 474 479 482 483 484 487 495 473 506 507 484 501 480 482 474 485 485 507 507 481 504 475 520 513 473 478 470 468 463 486 453 462 472 454 497 428 453 0 0 0 0 0 0
0 0 0 0 0 0 0 0 0 0 0 0 0 0 0 0 0 0 0 0 0 0 0 0 0 0 478 471 464 468 468 470 471 471 475 476 472 475 474 477 472 479 476 481 484 484 482 483 483 485 490 483 488 480 487 485 487 488 491 483 488 488 484 492 495 490 488 490 491 488 494 491 488 493 486 481 475 484 483 488 481 487 487 501 476 487 481 474 475 480 499 490 466 492 475 497 485 493 498 499 487 496 472 497 466 462 493 464 468 470 464 455 501 480 491 0 0 0 0 0
0 0 0 0 0 0 0 0 0 0 0 0 0 0 0 0 0 0 0 0 0 0 0 0 0 0 0 472 463 464 466 472 477 473 473 472 474 472 479 475 478 482 473 479 476 483 486 478 486 479 479 482 483 485 487 482 481 486 488 488 484 485 488 491 489 489 488 493 491 488 491 483 488 484 483 467 481 473 495 480 481 491 502 473 490 507 497 474 464 495 465 469 485 492 470 492 496 477 496 488 495 504 465 445 464 483 465 455 480 478 458 510 464 457 492 0 0 0 0 0
0 0 0 0 0 0 0 0 0 0 0 0 0 0 0 0 0 0 0 0 0 0 0 0 0 0 0 464 468 464 465 462 476 472 469 469 474 468 477 474 476 474 478 483 482 477 481 483 480 482 479 482 483 485 481 486 490 482 484 484 488 485 484 489 489 486 490 486 487 486 485 482 478 481 475 465 489 489 465 461 472 478 468 492 476 472 476 467 482 464 476 474 470 478 472 474 469 484 494 482 472 479 494 478 452 462 462 473 434 441 434 457 445 431 0 0 0 0 0 0
0 0 0 0 0 0 0 0 0 0 0 0 0 0 0 0 0 0 0 0 0 0 0 0 0 0 0 0 483 466 463 462 474 468 474 469 475 473 472 476 473 477 485 477 480 478 478 483 479 478 480 486 485 486 483 476 482 485 485 486 486 484 483 484 486 486 486 484 487 490 486 484 478 477 486 486 478 495 494 491 494 486 487 484 485 496 504 514 491 512 482 476 499 482 520 485 472 492 482 477 489 501 478 499 465 471 488 455 463 420 457 455 496 477 507 0 0 0 0 0
0 0 0 0 0 253 235 254 330 0 0 0 0 0 0 0 0 0 0 0 2402 2364 0 0 0 0 0 0 0 497 460 466 466 467 467 477 475 471 470 471 470 477 476 476 480 477 482 484 478 484 481 482 479 485 482 481 480 488 487 481 483 485 485 485 483 487 485 481 479 487 478 482 489 478 479 482 483 482 479 484 492 487 477 485 483 510 518 501 498 504 487 507 497 494 505 494 509 484 485 487 484 490 497 488 450 479 443 508 450 478 496 493 488 477 449 0 0 0 0 0
0 0 0 0 246 229 228 237 233 283 404 0 0 0 0 0 0 0 0 0 0 0 0 0 0 0 0 0 0 0 454 466 466 464 467 472 471 471 476 468 479 476 473 468 474 474 476 475 475 481 483 480 481 484 480 482 479 479 485 480 484 481 482 488 482 489 479 485 478 482 475 481 494 482 472 493 483 469 483 483 489 475 477 483 477 475 471 471 489 480 496 484 477 465 472 499 484 477 471 500 480 478 475 469 460 462 462 455 451 431 462 461 513 376 0 0 0 0 0 0
0 0 0 265 219 224 230 224 240 238 341 0 0 0 0 0 0 0 0 0 0 0 0 0 0 0 0 0 0 0 0 474 459 474 464 469 467 470 464 470 468 466 470 468 475 474 468 477 480 477 478 473 478 473 484 477 479 475 479 482 481 483 481 478 484 480 483 475 480 488 479 485 484 494 478 476 481 497 474 485 492 495 483 483 487 494 487 494 485 492 475 471 497 484 509 496 489 474 518 514 479 497 489 463 492 474 460 472 492 488 496 461 473 478 488 0 0 0 0 0
237 232 234 269 292 269 256 228 240 239 327 0 402 397 419 423 425 407 386 423 472 447 432 443 460 453 451 447 449 456 448 453 467 473 463 462 464 469 463 466 464 471 476 472 469 473 475 474 473 474 474 474 474 473 481 474 478 479 479 475 476 482 478 473 481 478 479 478 488 480 477 470 474 473 477 464 469 478 460 475 468 469 481 463 465 496 473 481 463 478 468 468 494 480 485 475 469 468 476 471 472 501 486 448 446 452 418 452 453 463 462 484 485 452 429 455 0 0 0 0
230 220 218 227 213 240 266 227 226 257 398 394 377 399 392 398 416 413 394 394 386 412 412 413 424 418 418 433 436 443 456 458 454 459 452 454 456 464 460 455 463 464 461 464 462 463 471 472 476 472 462 465 471 470 465 466 471 464 466 471 471 469 472 471 469 462 473 472 468 470 462 467 465 464 461 459 458 458 460 453 455 455 459 446 463 445 436 440 442 452 444 454 430 452 437 439 433 464 443 449 444 445 443 441 470 449 441 448 449 435 425 444 403 441 428 446 415 0 422 0
187 216 217 234 217 252 232 230 224 308 371 374 371 363 354 360 381 389 364 381 386 392 379 397 412 398 410 416 426 442 441 446 444 444 444 440 442 452 447 442 444 453 449 455 448 456 451 462 454 456 450 452 457 455 456 460 460 459 454 462 462 460 456 458 464 456 460 447 458 452 457 452 446 446 436 439 425 441 423 427 424 442 431 431 421 425 428 435 433 418 427 421 422 435 432 423 433 430 418 415 419 420 427 427 425 420 418 415 434 389 409 412 408 403 439 421 398 405 437 426
285 264 248 228 230 225 230 230 251 289 336 315 327 338 327 339 338 331 345 348 345 354 359 373 375 391 396 406 409 411 412 419 416 432 434 426 430 428 436 432 430 430 422 427 432 428 429 442 436 436 439 447 439 439 441 449 445 444 435 443 446 443 443 442 435 440 442 436 444 431 434 432 426 425 414 423 406 399 397 399 391 394 388 386 395 394 393 400 410 396 396 392 396 384 398 391 391 393 387 381 385 387 388 392 378 386 394 376 382 389 382 369 391 379 359 335 377 378 361 0
304 292 279 242 234 232 231 248 310 304 308 315 309 301 318 316 313 307 302 311 325 333 329 346 359 369 383 384 392 397 404 405 411 413 411 409 411 413 416 420 419 412 414 410 409 416 411 424 419 413 413 415 419 418 419 424 422 431 423 419 423 421 417 422 420 424 425 426 421 414 416 418 400 400 401 386 378 381 369 371 362 359 362 368 358 363 360 368 372 364 370 366 356 362 367 349 362 365 373 362 362 364 370 365 363 355 369 362 359 352 354 381 366 349 378 366 361 356 353 384
279 288 283 276 255 245 261 274 274 299 286 268 278 290 280 290 300 293 288 294 302 309 306 320 332 345 358 366 367 378 382 392 386 392 389 383 390 394 395 393 394 393 397 393 391 396 399 390 394 393 395 401 395 401 402 390 396 400 395 397 399 397 399 394 390 382 392 394 394 395 388 382 392 375 376 370 357 348 341 326 338 318 322 326 329 321 325 349 331 329 324 337 334 334 345 325 326 330 329 336 318 326 338 326 338 355 343 336 322 328 311 347 328 355 379 299 325 316 343 335
254 234 237 254 244 254 251 254 253 261 256 259 264 257 254 259 257 268 262 263 277 274 300 300 313 308 328 335 343 354 362 367 358 361 360 357 366 373 365 369 369 367 370 371 369 376 366 367 367 377 378 368 377 374 376 374 373 379 375 379 376 375 377 373 372 372 372 378 371 368 371 366 359 358 347 345 326 318 303 314 311 304 306 290 311 301 304 305 297 307 303 294 297 302 307 301 298 296 292 294 309 298 318 296 293 298 313 298 311 300 308 312 323 303 290 297 290 325 319 283
229 243 236 245 239 246 241 243 247 249 244 254 254 247 250 249 248 243 245 265 258 268 271 287 295 302 313 329 328 335 337 337 338 343 343 343 345 341 342 343 351 347 348 349 346 348 344 354 343 349 347 354 349 355 347 354 354 350 354 349 357 351 355 342 344 355 349 353 345 347 347 342 345 330 326 323 313 302 290 291 285 272 285 274 285 286 283 284 286 277 281 277 287 282 280 279 272 281 292 283 286 273 289 284 282 289 281 280 279 291 287 294 296 306 276 296 285 260 301 297
203 213 223 224 217 222 224 212 214 230 232 234 215 229 219 224 232 226 237 242 243 244 255 261 269 285 292 290 296 302 314 312 319 317 318 316 317 323 327 330 319 327 315 319 322 325 327 328 322 321 323 323 326 328 332 327 323 320 328 327 324 332 322 330 326 329 325 327 325 320 318 319 317 303 302 294 286 275 272 273 269 260 261 262 264 257 255 256 243 250 256 253 266 259 262 261 263 254 258 266 254 256 260 252 249 259 261 257 259 269 262 258 257 251 257 269 259 268 276 265
205 211 203 216 207 220 217 219 215 211 206 207 211 214 213 218 215 221 218 229 228 239 243 254 251 259 272 277 279 282 287 291 294 292 297 296 295 301 296 303 298 296 298 300 299 300 307 301 301 303 304 302 299 301 296 303 310 308 304 304 301 305 307 306 305 304 305 303 305 300 300 299 301 292 288 274 268 260 256 252 251 245 249 239 240 244 245 244 234 247 247 243 246 244 247 238 234 236 245 243 236 248 241 242 244 236 235 248 239 243 244 244 235 263 251 250 261 249 251 288
183 200 201 199 201 197 204 208 201 188 205 184 189 202 201 208 208 193 204 213 216 225 234 231 239 245 254 259 266 268 270 270 276 275 279 275 277 275 282 280 281 280 283 289 283 284 282 287 280 285 286 285 278 283 284 286 282 281 278 289 280 288 283 286 284 289 283 286 282 284 285 284 277 269 265 259 248 243 242 232 231 232 228 230 228 227 227 224 223 223 230 232 228 224 229 222 225 219 221 226 225 227 228 228 226 227 219 220 232 238 225 245 255 241 251 236 224 218 236 235
171 174 172 177 175 181 188 186 179 179 177 175 186 186 183 179 191 188 186 188 205 210 217 228 227 229 234 239 244 250 255 255 253 256 258 257 255 257 265 264 265 266 262 266 263 263 267 266 262 266 264 262 266 263 263 269 266 267 266 269 268 266 266 272 268 267 267 271 265 270 266 249 257 252 249 246 238 228 223 223 220 203 215 213 216 221 215 215 217 213 212 216 215 210 195 209 207 211 209 197 219 209 217 205 211 191 211 216 220 214 208 225 230 215 219 212 233 208 212 212
172 172 169 178 171 179 175 175 183 175 181 179 184 176 183 187 180 177 181 188 191 197 192 211 213 215 222 223 231 226 234 244 241 241 237 241 244 245 246 246 243 244 249 247 254 251 246 248 244 254 244 253 248 247 242 248 247 249 250 255 250 248 250 245 244 253 250 246 250 248 246 244 241 241 233 228 227 219 198 211 195 192 185 185 196 195 189 196 194 193 197 195 187 180 186 184 190 187 204 194 190 205 207 182 188 190 184 204 204 206 207 205 207 197 212 207 198 212 224 216
165 171 171 179 174 175 177 173 180 177 182 175 172 174 176 179 176 183 182 183 186 178 182 193 206 194 211 218 220 222 228 222 223 226 224 227 231 229 232 232 227 233 234 236 234 239 230 231 235 235 231 234 234 233 234 233 231 238 237 240 235 238 235 230 234 237 232 230 231 234 233 230 230 224 216 215 212 197 190 187 197 191 194 196 188 184 186 192 193 189 183 190 184 192 183 183 186 189 188 181 185 180 182 181 184 183 185 177 185 187 197 179 194 202 198 203 204 206 222 197
163 165 170 171 170 172 169 171 165 163 166 162 164 170 171 171 173 174 175 179 176 183 190 183 183 184 186 191 208 210 210 200 208 213 213 215 213 201 212 198 215 218 218 215 219 217 218 218 218 222 219 223 219 219 215 218 221 223 221 224 221 222 223 217 220 218 215 219 221 220 225 217 216 211 195 194 188 193 191 188 187 181 189 183 187 186 186 184 183 183 186 183 180 182 182 181 180 181 182 185 177 187 183 182 181 178 178 181 182 179 180 174 180 171 199 171 181 193 199 199
154 158 158 162 160 163 161 160 163 165 158 160 161 160 161 162 161 171 170 177 174 177 184 182 185 185 186 183 192 187 181 191 181 185 195 193 186 193 186 191 194 194 194 193 197 197 196 197 195 197 197 197 194 201 198 191 196 195 197 196 204 196 196 192 190 192 197 192 193 193 198 195 196 190 198 194 196 186 187 182 175 178 175 178 174 173 177 178 177 178 174 179 175 171 173 174 171 170 169 174 169 169 172 171 173 172 166 167 171 173 169 171 173 176 179 170 165 170 171 179
146 149 152 151 156 155 152 156 158 154 157 156 155 156 157 154 154 163 155 167 165 168 173 176 177 181 180 183 183 186 189 187 187 189 189 184 189 193 189 190 194 196 190 195 193 197 194 197 197 189 193 188 195 196 197 195 194 198 197 200 188 194 192 199 195 194 192 199 199 193 198 194 190 191 191 187 184 185 175 172 173 167 167 164 169 168 173 166 170 170 168 167 168 166 171 165 162 166 163 172 165 169 175 167 163 154 159 160 164 170 166 162 172 164 173 164 157 168 170 152
146 143 147 143 148 150 149 147 151 155 146 152 153 152 150 151 153 151 156 158 161 165 163 173 169 171 174 173 174 177 176 175 181 176 179 180 182 181 183 184 183 183 186 185 184 186 186 185 188 184 186 187 187 188 186 186 188 187 0 190 188 187 183 187 187 189 188 185 184 183 184 182 181 179 177 175 176 173 171 165 160 158 163 158 157 159 165 162 160 161 161 162 161 161 160 162 160 156 162 162 160 160 160 156 159 158 155 156 160 157 159 160 159 162 164 171 157 160 169 169
136 139 140 138 139 150 147 145 144 149 142 145 143 143 144 151 145 147 147 149 159 157 161 163 168 165 168 167 169 170 169 171 177 174 169 173 173 172 176 177 176 178 176 176 174 176 176 181 176 178 180 178 177 181 182 180 182 0 0 177 178 177 177 182 180 177 182 179 178 174 176 174 173 174 171 171 168 165 163 162 161 155 154 154 158 161 157 154 153 152 152 154 160 154 153 154 151 156 152 153 158 154 154 151 151 147 147 153 160 150 152 148 144 154 151 158 159 163 148 173
137 135 134 135 144 144 148 141 141 140 139 139 142 141 139 143 142 148 145 144 148 154 155 158 158 159 163 158 167 164 161 164 169 166 164 166 165 167 167 168 171 0 169 167 171 175 173 173 171 169 173 171 173 171 174 0 175 173 0 0 173 0 174 175 173 171 170 170 172 171 167 166 167 168 163 163 165 157 158 152 152 154 151 148 156 152 148 148 149 157 146 147 146 148 148 148 150 154 152 149 151 144 149 149 147 141 143 140 145 148 148 144 148 157 146 149 137 150 156 164
127 121 124 123 137 134 142 137 133 129 133 131 125 132 139 134 132 136 140 139 142 144 148 152 150 157 157 155 156 161 159 154 159 161 157 158 163 165 0 0 0 0 0 0 0 0 0 162 164 164 168 165 166 166 0 0 0 168 0 0 0 0 0 0 163 165 164 0 162 163 164 163 161 163 156 157 153 155 149 150 148 144 147 147 143 149 142 143 146 143 141 142 142 144 141 139 145 147 142 139 141 142 141 136 134 137 135 139 135 144 141 149 148 147 147 137 133 141 152 149
116 128 123 116 127 134 134 131 134 130 127 130 126 128 123 124 121 140 139 137 139 142 146 147 149 147 154 156 155 156 152 155 157 159 156 153 154 0 0 0 0 0 0 0 0 0 0 0 0 160 164 160 0 0 0 0 0 0 0 0 0 0 0 0 161 0 0 0 0 0 0 158 158 156 153 152 150 148 147 144 143 139 142 142 137 139 145 138 145 141 138 139 139 140 138 137 144 143 138 134 138 135 139 136 129 130 134 137 138 142 137 151 143 143 131 147 145 133 130 165
114 108 118 123 132 125 130 130 128 126 130 129 118 118 120 130 125 132 132 136 127 126 134 144 140 142 144 145 146 146 152 147 152 152 150 147 0 0 0 0 0 0 0 0 0 0 0 0 153 154 158 0 0 0 0 0 0 0 0 0 0 0 0 0 0 0 0 0 0 0 0 0 150 149 147 148 146 141 138 142 129 138 128 137 130 128 136 140 137 132 136 138 138 128 118 127 139 141 137 134 129 136 134 122 126 133 130 121 134 134 138 133 133 138 138 133 130 129 117 124
105 107 113 111 111 113 120 119 118 119 116 116 117 116 127 124 122 130 119 119 130 125 128 132 135 141 142 139 141 142 142 142 144 145 146 143 0 0 0 0 0 0 0 0 0 0 0 0 0 0 0 0 0 0 0 0 0 0 0 0 0 0 0 0 0 0 0 0 0 0 0 0 0 141 142 140 138 130 129 129 126 122 120 122 125 121 125 126 124 128 122 120 116 129 123 127 126 134 122 120 120 129 133 117 118 130 127 128 120 134 134 135 124 134 133 131 119 108 120 128
110 111 115 115 114 113 115 125 120 120 113 119 117 117 120 121 118 119 123 116 116 113 120 115 131 135 138 138 0 136 0 0 0 138 140 0 0 0 0 0 0 0 0 0 0 0 0 0 0 0 0 0 0 0 0 0 0 0 0 0 0 0 0 0 0 0 0 0 0 0 0 0 0 143 126 127 124 120 118 126 125 119 122 124 116 123 120 120 118 117 116 123 119 118 112 122 117 122 120 120 116 123 131 122 130 114 126 119 106 121 129 112 126 119 130 116 115 129 147 134
100 96 108 111 105 101 107 103 103 104 111 101 103 108 104 110 107 109 114 111 113 115 111 115 118 118 123 120 123 126 0 0 0 0 0 0 0 0 0 0 0 0 0 0 0 0 0 0 0 0 0 0 0 0 0 0 0 0 0 0 0 0 0 0 0 0 0 0 0 0 0 0 129 0 0 124 120 118 120 115 115 114 108 113 112 118 111 111 109 113 112 115 113 112 110 108 106 115 109 110 116 109 109 113 106 112 111 108 102 109 106 114 102 119 109 96 105 127 128 136
97 99 91 96 100 100 105 100 102 103 102 102 103 104 107 103 104 110 115 104 107 114 106 107 116 110 116 116 120 121 0 125 0 0 0 0 0 0 0 0 0 0 0 0 0 0 0 0 0 0 0 0 0 0 0 0 0 0 0 0 0 0 0 0 0 0 0 0 0 0 0 0 0 0 0 117 119 117 116 108 112 107 106 104 111 113 109 118 106 110 114 111 111 114 106 113 105 107 100 118 112 104 113 102 107 111 108 112 114 118 101 109 109 96 110 119 124 122 121 133
93 102 95 103 99 100 103 90 96 96 96 96 100 95 99 91 105 100 113 115 109 105 97 109 112 107 113 115 115 121 118 118 120 0 0 0 0 0 0 0 0 0 0 0 0 0 0 0 0 0 0 0 0 0 0 0 0 0 0 0 0 0 0 0 0 0 0 0 0 0 0 0 122 121 0 120 112 115 118 118 105 112 100 119 107 105 105 104 101 103 106 110 114 96 100 101 106 96 114 103 105 110 107 107 107 107 105 92 100 99 101 96 99 96 107 99 134 112 110 84
88 85 82 87 82 82 82 100 92 81 90 94 97 93 91 88 77 94 88 90 91 87 97 103 101 101 114 108 0 0 107 104 118 0 0 0 0 0 0 0 0 0 0 0 0 0 0 0 0 0 0 0 0 0 0 0 0 0 0 0 0 0 0 0 0 0 0 0 0 0 0 0 108 112 102 110 107 106 101 101 104 100 101 91 98 98 90 97 104 100 91 97 101 84 82 96 93 104 88 94 89 94 96 95 82 87 100 92 91 93 91 90 77 91 94 88 90 93 105 127
97 87 93 90 99 100 99 104 93 94 96 96 90 91 96 98 100 90 101 97 95 106 106 104 103 104 107 110 0 103 108 108 116 112 122 107 0 0 0 0 0 117 0 0 0 0 0 0 0 0 0 0 0 0 0 0 0 0 0 0 114 0 0 0 111 0 0 0 111 0 107 111 114 111 114 105 107 114 104 97 113 103 107 90 97 97 103 101 102 100 107 106 107 99 98 103 99 99 103 112 99 97 94 101 90 99 96 87 89 85 90 98 90 97 105 92 112 123 117 135
85 93 93 92 93 96 93 94 88 94 85 86 87 94 88 87 94 96 99 91 99 92 97 111 91 102 104 103 104 107 93 102 106 104 98 103 0 114 117 0 108 0 0 0 0 0 0 0 0 0 0 0 0 0 0 0 0 108 0 0 0 105 104 109 109 112 103 100 113 104 109 101 103 101 112 106 100 93 104 97 94 93 101 83 96 90 91 107 106 92 99 105 107 86 84 82 89 92 96 87 95 86 89 96 90 87 98 90 94 88 89 82 89 94 105 91 100 115 105 115
83 86 80 85 92 94 104 89 90 81 88 87 91 91 92 92 91 90 93 89 80 91 95 87 86 90 89 91 105 88 93 99 97 97 93 110 101 102 103 103 0 96 97 108 108 92 0 0 95 0 0 107 105 94 103 112 106 101 107 104 99 102 112 103 100 111 101 95 100 107 100 108 104 102 105 94 93 95 99 90 91 96 91 94 89 91 88 89 92 93 101 95 95 94 92 90 86 91 93 85 88 88 89 88 88 81 100 85 83 91 90 99 93 109 87 87 119 111 112 131
84 80 82 86 86 83 98 103 85 90 86 81 82 89 83 92 90 95 89 99 83 98 95 93 91 95 92 92 95 97 95 83 96 95 97 96 97 97 93 107 102 98 99 109 102 95 103 0 104 103 96 107 99 99 102 102 101 108 99 107 105 94 94 104 103 102 95 100 96 104 97 105 102 97 104 84 95 96 94 85 100 91 94 94 97 97 87 87 97 91 86 100 87 92 91 81 97 89 96 86 91 97 82 89 91 98 91 96 91 90 87 96 111 92 95 130 110 98 95 91
82 74 71 70 82 84 86 90 88 82 88 79 87 78 88 83 85 85 87 85 92 84 90 90 88 85 93 93 94 92 87 91 80 92 95 96 97 83 88 96 90 89 97 91 97 92 90 101 95 90 95 97 97 88 91 82 103 87 99 95 96 83 82 96 96 98 98 91 94 97 92 88 91 93 83 95 92 95 91 96 87 91 84 90 88 92 88 88 87 88 79 79 92 81 86 87 84 75 81 86 83 88 81 71 82 84 86 86 77 88 88 88 88 90 86 111 136 90 94 68
72 74 84 85 72 86 88 87 80 82 82 89 80 83 84 86 89 91 84 86 83 93 85 92 86 83 92 87 94 93 85 95 90 96 95 92 87 90 93 94 95 82 93 91 88 98 90 97 102 86 94 88 88 84 99 94 87 85 88 94 95 98 89 96 87 97 88 94 104 94 94 98 84 85 91 91 96 83 84 93 91 88 88 86 80 86 88 79 92 95 79 89 76 81 93 82 93 84 81 81 92 82 82 81 76 80 80 89 79 87 89 89 88 99 102 118 100 95 108 193
