0 0 0 0 0 0 0 0 0 0 0 0 0 0 0 0 0 0 0 0 0 0 0 0 0 0 0 0 0 0 0 0 0 0 0 0 0 0 0 0 0 0 0 0 0 0 0 0 0 0 0 0 0 0 0 0 0 0 0 0 0 0 0 0 0 0 0 0 0 0 0 0 0 0 0 0 0 0 0 0 0 0 0 0 0 0 0 0 0 0 0 0 0 0 0 0 0 0 0 0 0 0 0 0 0 0 0 0 0 0 0 0 0 0 0 0 0 0 0 0
0 0 0 0 0 0 0 0 0 0 0 0 0 0 0 0 0 0 0 0 0 0 0 0 0 0 0 0 0 0 0 0 0 0 0 0 0 0 0 0 0 0 0 0 0 0 0 0 0 0 0 0 0 0 0 0 0 0 0 0 0 0 0 0 0 0 0 0 0 0 0 0 0 0 0 0 0 0 0 0 0 0 0 0 0 0 0 0 0 0 0 0 0 0 0 0 0 0 0 0 0 0 0 0 0 0 0 0 0 0 0 0 0 0 0 0 0 0 0 0
0 0 0 0 0 0 0 0 0 0 0 0 0 0 0 0 0 0 0 0 0 0 0 0 0 0 0 0 0 0 0 0 0 0 0 0 0 0 0 0 0 0 0 0 0 0 0 0 0 0 0 0 0 0 0 0 0 0 0 0 0 0 0 0 0 0 0 0 0 0 0 0 0 0 0 0 0 0 0 0 0 0 0 0 0 0 0 0 0 0 0 0 0 0 0 0 0 0 0 0 0 0 0 0 0 0 0 0 0 0 0 0 0 0 0 0 0 0 0 0
0 0 0 0 0 0 0 0 0 0 0 0 0 0 0 0 0 0 0 0 0 0 0 0 0 0 0 0 0 0 0 0 0 0 0 0 0 0 0 0 0 0 0 0 0 0 0 0 0 0 0 0 0 0 0 0 0 0 0 0 0 0 0 0 0 0 0 0 0 0 0 0 0 0 0 0 0 0 0 0 0 0 0 0 0 0 0 0 0 0 0 0 0 0 0 0 0 0 0 0 0 0 0 0 0 0 0 0 0 0 0 0 0 0 0 0 0 0 0 0
0 0 0 0 0 0 0 0 0 0 0 0 0 0 0 0 0 0 0 0 0 0 0 0 0 0 0 0 0 0 0 0 0 0 0 0 0 0 0 0 0 0 0 0 0 0 0 0 0 0 0 0 0 0 0 0 0 0 0 0 0 0 0 0 0 0 0 0 0 0 0 0 0 0 0 0 0 0 0 0 0 0 0 0 0 0 0 0 0 0 0 0 0 0 0 0 0 0 0 0 0 0 0 0 0 0 0 0 0 0 0 0 0 0 0 0 0 0 0 0
0 0 0 0 0 0 0 0 0 0 0 0 0 0 0 0 0 0 0 0 0 0 0 0 0 0 0 0 0 0 0 0 0 0 0 0 0 0 0 476 476 511 501 493 502 500 496 514 483 474 515 493 486 487 467 0 0 0 0 0 0 0 0 0 0 0 0 0 0 0 0 0 0 0 0 0 0 0 0 0 0 0 0 0 0 0 0 0 0 0 0 0 0 0 0 0 0 0 0 0 0 0 0 0 0 0 0 0 0 0 0 0 0 0 0 0 0 0 0 0
0 0 0 0 0 0 0 0 0 0 0 0 0 0 0 0 0 0 0 0 0 0 0 0 0 0 0 0 0 0 0 0 0 0 0 0 0 507 505 519 504 500 522 504 503 513 500 515 519 523 516 508 520 518 525 522 509 535 500 531 0 0 0 0 0 0 0 0 0 0 0 0 0 0 0 0 0 0 0 0 0 0 0 0 0 0 0 0 0 0 0 0 0 0 0 0 0 0 0 0 0 0 0 0 0 0 0 0 0 0 0 0 0 0 0 0 0 0 0 0
0 0 0 0 0 0 0 0 0 0 0 0 0 0 0 0 0 0 0 0 0 0 0 0 0 0 0 0 0 0 0 0 0 0 0 490 513 505 501 503 516 504 502 508 497 505 516 514 513 501 506 495 505 505 509 510 510 515 511 507 508 509 500 528 491 0 0 0 0 0 0 0 0 0 0 0 0 0 0 0 0 0 0 0 0 0 0 0 0 0 0 0 0 0 0 0 0 0 0 0 0 0 0 0 0 0 0 0 0 0 0 0 0 0 0 0 0 0 0 0
0 0 0 0 0 0 0 0 0 0 0 0 0 0 0 0 0 0 0 0 0 0 0 0 0 0 0 0 0 0 0 0 0 496 505 507 495 499 490 497 510 502 499 507 495 493 500 499 513 514 506 501 505 504 502 505 505 498 511 503 489 507 504 504 502 502 508 522 549 575 574 544 599 539 561 554 591 536 0 570 0 0 0 0 0 0 0 0 0 0 0 0 0 0 0 0 0 0 0 0 0 0 0 0 0 0 0 0 0 0 0 0 0 0 0 0 0 0 0 0
0 0 0 0 0 0 0 0 0 0 0 0 0 0 0 0 0 0 0 0 0 0 0 0 0 0 0 0 0 0 0 561 528 503 500 498 499 495 510 500 514 504 502 499 496 502 508 504 520 502 498 500 503 510 509 506 504 505 513 512 509 516 505 513 508 513 513 519 544 599 531 569 583 595 571 600 602 665 631 575 525 586 575 545 525 593 0 604 585 573 565 584 567 622 602 588 536 579 638 615 585 553 622 592 0 0 0 0 0 0 0 0 0 0 0 0 0 0 0 0
0 0 0 0 0 0 0 0 0 0 0 0 0 0 0 0 0 0 0 0 0 0 0 0 0 0 0 0 0 0 500 500 493 487 488 488 490 488 485 492 510 494 487 501 504 506 501 499 494 512 500 503 496 500 502 514 491 507 506 512 513 496 497 508 502 495 506 509 515 507 526 476 542 532 532 545 573 526 519 569 523 548 548 570 550 510 552 523 502 560 517 575 589 545 565 545 528 537 504 536 506 547 514 543 505 465 553 0 0 0 0 0 0 0 0 0 0 0 0 0
0 0 0 0 0 0 0 0 0 0 0 0 0 0 0 0 0 0 0 0 0 0 0 0 0 0 0 0 500 485 514 520 486 498 521 496 505 503 491 499 504 503 497 496 510 510 502 500 502 508 504 501 499 498 511 497 506 510 497 512 507 511 506 507 513 517 512 501 511 509 512 548 562 549 601 569 552 559 593 606 564 580 572 589 557 570 567 543 572 609 576 584 593 557 542 537 544 553 586 544 560 564 561 553 544 577 600 525 571 0 0 0 0 0 0 0 0 0 0 0
0 0 0 0 0 0 0 0 0 0 0 0 0 0 0 0 0 0 0 0 0 0 0 0 0 0 0 493 501 503 503 499 508 499 491 500 511 506 502 506 511 502 505 510 517 505 504 503 504 501 503 510 509 504 511 506 506 515 513 516 517 514 509 502 513 508 510 513 515 511 520 530 566 546 571 563 605 583 577 563 567 547 583 578 534 576 561 591 606 560 538 567 560 594 538 575 599 545 633 587 573 554 585 604 605 591 557 609 0 0 0 0 0 0 0 0 0 0 0 0
0 0 0 0 0 0 0 0 0 0 0 0 0 0 0 0 0 0 0 0 0 0 0 0 0 0 455 499 496 491 486 499 492 498 489 494 495 490 500 504 495 490 494 498 496 509 494 498 496 495 508 504 505 504 501 494 503 505 512 492 504 514 505 502 509 502 508 497 501 499 517 498 518 547 500 533 522 523 548 570 520 537 565 519 507 513 516 523 503 541 535 537 534 554 564 572 537 517 546 533 542 518 568 519 495 519 531 524 556 0 0 0 0 0 0 0 0 0 0 0
0 0 0 0 0 0 0 0 0 0 0 0 0 0 0 0 0 0 0 0 0 0 0 0 0 508 493 490 508 495 501 493 489 492 489 493 505 495 509 498 504 500 502 500 499 506 508 508 508 509 498 510 505 495 502 506 505 506 512 510 514 509 511 513 508 506 512 499 512 518 521 500 524 544 534 579 555 557 556 560 528 547 555 551 547 537 569 585 591 556 585 571 546 590 571 561 580 596 590 549 572 563 537 532 534 578 592 561 532 546 576 0 0 0 0 0 0 0 0 0
0 0 0 0 0 0 0 0 0 0 0 0 0 0 0 0 0 0 0 0 0 0 0 0 0 486 493 489 500 488 494 500 503 500 490 500 495 499 503 498 500 498 502 493 497 510 505 509 499 494 492 513 511 500 507 500 504 501 500 513 501 508 510 511 505 510 521 513 508 505 515 504 509 526 550 544 545 554 533 534 575 535 540 532 534 548 554 527 557 559 536 546 574 533 541 547 544 539 559 536 550 530 541 539 565 556 542 523 526 568 0 0 0 508 0 0 0 0 0 0
0 0 0 0 0 0 0 0 0 0 0 0 0 0 0 0 0 0 0 0 0 0 0 0 495 483 492 485 492 499 502 496 493 492 493 494 496 502 500 493 502 503 491 496 500 502 496 496 497 503 499 499 504 498 504 511 506 505 507 502 503 495 506 505 493 504 511 508 509 508 503 503 517 508 532 538 514 523 538 536 546 536 526 520 529 537 536 542 528 542 557 556 554 516 531 542 567 555 547 522 561 556 567 564 547 550 518 525 567 506 515 0 0 0 0 0 0 0 0 0
0 0 0 0 0 0 0 0 0 0 0 0 0 0 0 0 0 0 0 0 0 0 0 0 480 492 499 491 495 497 493 492 492 487 496 486 497 490 493 493 497 493 505 491 500 507 509 506 509 505 506 498 501 510 500 502 503 507 508 507 507 509 507 503 502 509 506 509 505 509 497 509 510 504 500 533 528 522 539 530 530 561 540 534 547 522 558 535 539 556 529 553 552 561 551 533 571 568 559 546 521 525 550 543 534 507 588 542 537 527 0 0 0 0 0 0 0 0 0 0
0 0 0 0 0 0 0 0 0 0 0 0 0 0 0 0 0 0 0 0 0 0 0 453 497 492 491 490 498 481 493 496 496 490 500 492 496 496 495 492 500 497 500 494 495 502 498 501 497 507 505 501 503 511 497 494 506 508 499 502 506 498 507 500 496 504 510 502 498 499 504 510 508 495 501 504 483 534 526 519 513 509 519 524 509 522 519 504 527 542 532 539 530 540 515 502 519 537 529 534 531 529 532 518 514 505 515 521 477 435 495 0 0 0 0 0 0 0 0 0
0 0 0 0 0 0 0 0 0 0 0 0 0 0 0 0 0 0 0 0 0 0 0 498 492 501 490 489 491 492 496 505 495 493 491 496 487 491 498 496 498 496 496 493 502 504 496 512 497 506 501 505 493 502 500 507 503 506 502 499 504 504 508 508 503 503 506 501 505 508 504 509 497 513 507 509 555 545 543 531 533 543 546 552 528 532 534 522 530 535 552 555 524 538 504 532 561 545 529 541 530 601 512 543 564 522 564 562 543 554 538 0 0 0 0 0 0 0 0 0
0 0 0 0 0 0 0 0 0 0 0 0 0 0 0 0 0 0 0 0 0 0 488 489 496 486 494 498 495 488 487 499 496 490 488 493 489 488 496 493 497 499 499 507 499 503 503 494 506 504 495 500 500 500 505 503 506 501 503 503 502 507 504 507 504 506 505 505 502 508 504 506 513 503 513 507 533 547 551 542 556 555 526 543 537 537 526 535 527 559 562 522 524 553 565 558 552 543 551 533 520 530 551 516 545 533 543 522 572 483 582 562 563 0 0 0 0 0 0 0
0 0 0 0 0 0 0 0 0 0 0 0 0 0 0 0 0 0 0 0 0 0 455 495 494 497 492 490 499 490 489 492 500 487 486 491 493 491 495 494 490 489 502 506 496 503 504 511 502 496 495 497 505 502 503 503 509 507 504 504 501 506 498 504 508 504 503 516 514 501 502 508 507 506 506 507 510 508 536 528 530 533 488 540 513 536 540 522 547 552 506 531 531 517 507 548 525 490 537 511 514 509 541 532 524 534 511 507 530 546 465 533 0 0 0 0 0 0 0 0
0 0 0 0 0 0 0 0 0 0 0 0 0 0 0 0 0 0 0 0 0 0 504 488 491 487 482 496 489 491 493 482 496 492 488 486 492 495 497 497 500 495 492 501 495 497 496 496 493 499 492 502 507 501 505 495 503 510 508 503 505 508 507 510 508 505 508 500 504 502 507 498 508 502 508 512 509 552 527 534 522 535 537 528 549 508 577 552 539 529 536 497 526 545 539 541 547 527 548 511 514 518 558 513 474 546 510 535 552 499 569 621 576 0 0 0 0 0 0 0
0 0 0 0 0 0 0 0 0 0 0 0 0 0 0 0 0 0 0 0 0 0 501 493 497 489 481 493 480 494 493 489 487 491 488 487 485 488 500 488 492 496 494 497 504 493 498 501 503 498 503 504 496 498 499 499 503 505 501 502 503 500 508 513 500 502 512 507 499 505 509 508 501 505 510 509 506 514 510 545 503 533 509 538 499 530 511 533 496 516 535 490 515 538 569 519 518 528 530 529 535 556 529 512 519 538 542 520 518 525 476 570 521 0 0 0 0 0 0 0
0 0 0 0 0 0 0 0 0 0 0 0 0 0 0 0 0 0 0 0 0 0 490 479 483 484 489 481 485 490 492 489 488 486 487 490 492 487 487 493 495 494 503 499 495 501 499 497 498 497 498 497 495 503 498 497 508 500 498 503 505 501 500 508 501 500 499 505 503 507 501 500 497 500 504 498 508 505 518 507 501 522 526 510 531 501 515 507 522 499 520 517 522 524 520 519 491 538 520 518 513 492 519 525 513 537 498 521 483 466 527 509 495 0 0 0 0 0 0 0
0 0 0 0 0 0 0 0 0 0 0 0 0 0 0 0 0 0 0 0 0 0 486 474 492 486 492 480 486 483 497 489 493 488 500 484 488 488 503 492 491 497 489 500 493 494 495 498 496 499 496 494 498 504 500 499 500 499 500 497 506 501 499 504 507 499 504 503 495 505 498 499 503 500 502 508 505 526 537 525 519 510 547 524 536 518 532 510 517 524 518 516 500 534 547 568 547 562 521 503 525 512 520 555 554 530 535 510 513 0 543 533 536 0 0 0 0 0 0 0
0 0 0 0 0 0 0 0 0 0 0 0 0 0 0 0 0 0 0 0 0 443 477 486 481 476 488 491 493 486 476 489 484 494 484 485 500 494 487 492 491 493 493 490 493 489 497 496 491 493 492 495 498 504 503 496 496 501 500 496 498 505 499 506 497 497 501 499 505 503 501 496 506 504 500 508 496 498 495 482 523 490 488 508 478 485 481 510 494 502 498 495 502 508 524 505 504 497 492 532 520 489 516 492 498 523 512 479 470 506 511 0 0 0 0 0 0 0 0 0
0 0 0 0 0 0 0 0 0 0 0 0 0 0 0 0 0 0 0 0 0 471 479 481 482 479 487 476 484 485 482 491 485 485 490 488 487 489 491 492 497 501 487 494 499 494 497 493 496 494 496 503 498 500 496 503 500 502 501 503 503 501 503 499 504 503 503 507 498 499 501 499 500 504 504 508 503 508 529 523 542 500 516 495 502 516 513 516 521 524 531 495 511 514 547 543 504 520 502 521 512 489 530 532 521 521 518 501 534 536 568 447 0 0 0 0 0 0 0 0
0 0 0 0 0 0 0 0 0 0 0 0 0 0 0 0 0 0 0 0 0 467 481 488 486 483 486 481 481 485 490 483 482 491 482 485 485 487 491 486 491 489 494 492 490 494 497 493 496 495 497 492 499 497 498 505 494 499 506 496 507 503 505 505 503 501 509 502 508 503 499 504 497 507 512 504 495 506 516 518 496 530 524 529 519 496 525 522 508 515 519 509 504 518 534 532 518 552 546 512 537 518 534 534 554 506 528 540 513 554 552 560 469 0 0 0 0 0 0 0
0 0 0 0 0 0 0 0 0 0 0 0 0 0 0 0 0 0 0 0 0 450 471 481 482 486 480 483 485 486 482 487 480 484 488 486 486 485 489 488 489 486 491 494 495 488 491 497 498 496 490 499 497 494 500 496 497 498 500 495 493 497 500 500 496 501 499 503 496 497 500 501 502 500 502 504 499 497 504 508 509 498 502 494 509 499 520 512 514 492 514 504 488 502 493 518 512 517 532 495 493 502 528 506 508 516 482 504 492 494 553 441 458 0 0 0 0 0 0 0
0 0 0 0 0 0 0 0 0 0 0 0 0 0 0 0 0 0 0 0 0 462 491 485 484 480 484 485 481 482 481 483 485 485 491 486 485 489 491 491 491 494 494 492 494 490 490 495 490 494 497 499 498 500 497 495 496 502 505 502 502 501 500 498 499 499 504 502 508 498 500 504 500 505 494 504 502 513 510 499 508 522 543 511 521 531 525 504 511 520 509 506 523 513 528 504 487 510 504 511 541 522 486 501 524 541 512 532 531 514 537 519 510 0 0 0 0 0 0 0
0 0 0 0 0 0 0 0 0 0 0 0 0 0 0 0 0 0 0 0 0 470 484 486 480 479 473 474 478 484 483 482 482 483 487 488 483 488 486 490 493 494 491 487 491 491 494 492 492 488 493 494 493 494 489 496 495 499 495 498 498 500 498 498 502 501 504 500 495 503 499 504 501 503 501 497 496 498 505 514 489 502 497 505 520 493 503 504 525 493 521 506 501 518 508 533 468 493 516 518 491 546 527 530 505 501 505 520 510 530 522 486 525 0 0 0 0 0 0 0
0 0 0 0 0 0 0 0 0 0 0 0 0 0 0 0 0 0 0 0 0 457 475 483 477 479 480 477 482 479 484 476 484 478 487 491 482 489 484 491 493 485 486 490 489 494 490 493 491 491 498 497 495 496 494 502 494 495 501 500 496 503 507 497 504 494 501 502 497 500 502 496 503 497 503 494 501 495 500 514 508 510 508 489 510 504 507 514 517 524 513 495 503 501 513 525 521 511 510 516 549 526 529 526 526 496 514 499 507 523 518 508 518 490 0 0 0 0 0 0
0 0 0 0 0 0 0 0 0 0 0 0 0 0 0 0 0 0 0 0 0 462 481 473 478 480 480 478 474 480 482 482 482 483 487 483 485 484 490 495 485 487 485 494 495 495 486 492 488 492 489 493 495 499 494 497 497 492 496 503 499 497 499 501 503 500 498 498 496 504 497 494 497 500 501 493 503 495 491 506 519 507 518 497 514 497 516 509 512 526 502 527 476 525 502 511 511 531 525 506 504 538 508 516 537 529 517 518 532 498 507 534 550 0 0 0 0 0 0 0
0 0 0 0 0 0 0 0 0 0 0 0 0 0 0 0 0 0 0 0 0 433 471 472 467 480 475 475 480 480 479 487 482 480 481 488 487 484 486 489 484 488 484 490 490 493 489 492 495 492 494 492 494 493 490 494 497 489 491 495 491 495 499 498 500 491 494 499 499 502 495 500 495 501 495 499 501 500 498 504 499 495 488 489 493 496 472 511 483 478 499 480 485 505 501 496 472 478 491 491 504 477 472 497 484 485 481 482 508 522 510 440 522 514 0 0 0 0 0 0
0 0 0 0 0 0 0 0 0 0 0 0 0 0 0 0 0 0 0 0 0 465 481 470 473 479 476 475 480 479 478 481 481 482 481 478 490 487 482 484 490 489 486 492 492 488 490 491 490 492 495 490 495 494 497 495 495 497 497 492 496 498 498 498 495 500 502 500 496 498 499 493 497 494 505 493 496 498 500 492 493 513 528 491 520 529 501 489 488 509 501 511 511 496 507 492 499 527 524 500 504 502 521 480 489 521 504 521 517 514 524 527 529 521 0 0 0 0 0 0
0 0 0 0 0 0 0 0 0 0 0 0 0 0 0 0 0 0 0 0 0 484 478 474 477 472 481 477 480 480 480 483 477 482 479 485 489 485 482 488 480 485 488 482 487 488 493 492 490 488 489 495 490 490 498 497 488 493 494 491 495 496 499 496 497 502 500 501 498 493 495 496 496 500 499 501 497 495 495 491 496 492 489 488 508 497 501 493 491 485 499 514 497 484 528 505 488 472 513 537 521 483 506 504 502 511 466 489 487 542 573 507 506 530 0 0 0 0 0 0
0 0 0 0 0 0 0 0 0 0 0 0 0 0 0 0 0 0 0 0 0 0 471 475 468 479 473 468 477 475 475 479 485 479 482 479 485 483 480 486 486 482 483 486 492 489 490 488 496 496 493 495 491 492 491 494 491 493 493 495 494 499 498 494 501 501 491 497 497 495 493 499 496 494 496 499 493 492 480 496 491 503 482 487 496 526 506 508 498 514 490 496 498 508 492 497 472 481 535 492 503 513 510 486 504 475 505 492 506 528 477 495 497 493 463 0 0 0 0 0
0 0 0 0 0 0 0 0 0 0 0 0 0 0 0 0 0 0 0 0 0 0 505 479 471 466 476 477 473 483 480 476 480 478 480 480 482 482 489 479 492 491 487 482 485 490 487 490 494 490 495 495 494 493 490 496 496 492 492 498 495 494 491 494 497 495 495 496 497 494 501 491 498 493 495 494 493 493 494 519 499 520 507 506 535 521 516 502 520 502 532 517 519 511 531 526 515 495 501 498 497 485 498 484 510 523 505 511 511 512 517 520 442 471 0 0 0 0 0 0
0 0 0 0 0 0 0 0 0 0 0 0 0 0 0 0 0 0 0 0 0 0 519 467 467 478 471 477 478 468 476 478 481 483 482 485 481 485 478 484 483 488 481 488 491 486 490 482 496 491 491 493 490 493 492 488 491 489 492 495 495 494 496 493 498 498 497 488 488 497 491 491 489 497 497 495 499 495 483 506 517 501 495 489 502 517 521 480 504 500 513 519 516 503 511 503 528 507 495 499 485 470 531 491 480 501 492 493 482 492 473 528 509 508 504 443 0 0 0 0
0 0 0 0 0 0 0 0 0 0 0 0 0 0 0 0 0 0 0 0 0 0 607 464 473 478 482 471 472 476 478 475 476 481 482 485 484 478 480 487 484 488 481 487 490 480 494 486 492 489 489 494 493 493 496 497 494 493 491 494 491 498 500 498 495 495 500 495 493 497 496 494 488 494 488 485 497 491 499 501 507 497 498 519 503 505 499 512 503 519 497 526 519 513 516 512 529 530 511 507 533 475 502 474 489 492 494 499 495 504 490 464 470 481 465 0 0 0 0 0
0 0 0 0 0 0 0 0 0 0 0 0 0 0 0 0 0 0 0 0 0 0 787 479 469 471 477 471 472 476 476 487 478 482 477 477 476 483 484 486 482 484 482 485 492 483 489 486 488 488 491 489 494 489 495 493 489 491 494 497 495 494 494 492 491 496 494 499 496 494 499 492 502 499 495 495 492 505 497 509 496 513 510 497 500 489 530 507 484 507 513 506 503 512 544 500 493 510 503 537 500 486 517 524 506 494 467 507 502 501 484 475 511 0 0 0 0 0 0 0
0 0 0 0 0 0 0 0 0 0 0 0 0 0 0 0 0 0 0 0 0 0 0 488 477 476 472 466 470 474 477 478 476 475 479 478 475 482 479 480 483 481 488 488 487 485 490 493 487 490 489 487 489 489 496 489 495 488 491 492 490 491 495 489 490 492 497 494 497 492 496 491 495 489 489 491 485 485 477 484 489 492 482 478 492 490 499 488 499 504 494 503 488 503 499 489 501 493 476 492 477 468 483 484 469 500 494 471 470 487 466 456 442 0 0 0 0 0 0 0
0 0 0 0 0 0 0 0 0 0 0 0 0 0 0 0 0 0 0 0 0 0 0 524 472 480 472 471 471 472 474 471 478 478 475 478 479 477 481 482 483 479 487 488 485 488 491 486 491 488 494 491 491 489 494 490 495 495 484 495 491 492 496 494 495 493 490 493 494 491 493 492 495 502 493 489 486 490 503 499 491 509 508 498 515 503 503 496 520 521 504 524 503 507 520 480 514 501 476 513 495 482 493 470 476 487 474 510 480 492 482 509 517 527 477 0 0 0 0 0
0 0 0 0 0 0 0 0 0 0 0 0 0 0 0 0 0 0 0 0 0 0 0 0 474 475 467 470 469 471 474 472 478 471 477 482 479 481 482 476 481 478 481 483 484 487 488 489 494 492 487 488 485 490 488 491 489 493 489 495 495 493 492 495 502 492 488 496 495 494 497 491 493 495 489 492 487 499 494 500 499 491 496 519 496 521 505 503 487 497 507 526 498 493 510 502 502 518 518 511 505 473 510 509 466 487 510 507 486 482 509 471 498 502 539 441 0 0 0 0
0 0 0 0 0 0 0 0 0 0 0 0 0 0 0 0 0 0 0 0 0 0 0 0 491 466 467 469 470 471 474 475 473 474 477 478 477 478 481 480 481 481 481 479 484 481 486 486 487 485 491 490 495 490 490 488 495 492 492 491 492 488 494 497 489 495 494 493 497 491 494 493 494 495 495 489 489 494 486 501 482 486 492 480 500 495 495 507 495 483 490 501 501 486 515 505 491 503 482 489 484 486 459 481 455 471 470 455 461 458 490 483 476 447 503 0 0 0 0 0
0 0 0 0 0 0 0 0 0 0 0 0 0 0 0 0 0 0 0 0 0 0 0 0 0 469 467 470 466 468 471 471 470 475 479 477 475 480 480 479 482 478 479 485 489 486 490 487 484 487 490 488 488 491 487 488 493 489 487 490 492 493 490 496 495 489 493 489 491 490 494 489 497 491 489 489 487 487 483 493 486 492 491 490 492 501 502 481 502 500 512 476 497 500 506 498 552 526 513 500 512 507 477 494 491 497 492 501 467 485 512 519 537 535 0 0 0 0 0 0
0 0 0 0 0 0 0 0 0 0 0 0 0 0 0 0 0 0 0 0 0 0 0 0 0 511 468 466 465 474 470 472 476 467 473 474 474 478 475 478 479 477 481 485 482 481 478 482 487 482 482 483 488 492 488 488 490 490 488 489 487 487 490 486 487 490 494 485 489 488 493 490 492 488 484 486 481 482 476 484 498 488 487 485 487 493 486 488 501 477 485 496 509 485 486 497 478 498 498 516 466 488 472 466 445 472 459 467 469 470 472 478 464 449 0 0 0 0 0 0
0 0 0 0 0 0 0 0 0 0 0 0 0 0 0 0 0 0 0 0 0 0 0 0 0 0 462 464 461 470 464 471 466 472 473 473 472 476 475 478 475 474 479 482 481 481 480 483 482 486 488 486 486 486 490 487 489 489 488 491 487 485 487 485 492 492 488 487 488 493 494 488 488 485 483 481 472 487 487 491 479 488 490 481 469 495 474 485 471 482 488 488 485 498 477 490 487 500 489 485 500 491 493 470 470 486 481 487 466 450 468 475 512 482 434 0 0 0 0 0
0 0 0 0 0 0 0 0 0 0 0 0 0 0 0 0 0 0 0 0 0 0 0 0 0 0 0 469 474 466 465 472 472 475 474 472 472 475 475 475 475 480 479 480 479 482 485 478 485 482 482 485 483 489 488 484 488 488 485 487 487 485 489 488 486 487 493 489 494 489 494 488 486 488 487 491 470 478 486 485 489 480 490 473 484 490 495 490 475 487 486 491 512 493 486 495 509 498 493 504 507 489 526 503 490 492 461 494 462 448 457 501 506 464 498 0 0 0 0 0
0 0 0 0 0 0 0 0 0 0 0 0 0 0 0 0 0 0 0 0 0 0 0 0 0 0 0 496 468 466 468 464 467 470 471 469 474 469 473 475 479 476 480 477 483 478 481 478 482 485 481 482 481 489 483 484 488 483 485 482 486 482 487 487 490 484 490 486 490 488 485 486 483 473 482 484 486 485 474 482 487 493 499 486 474 506 491 470 498 493 489 485 474 475 480 476 469 479 486 479 482 472 479 465 471 444 496 453 454 461 438 450 492 471 0 0 0 0 0 0
0 0 0 0 0 0 0 0 0 0 0 0 0 0 0 0 0 0 0 0 0 0 0 0 0 0 0 0 520 467 465 469 466 466 474 468 472 469 473 472 474 474 474 475 476 477 475 477 478 481 482 484 481 483 481 483 485 479 481 489 483 484 487 487 483 491 490 482 488 488 487 481 483 481 483 483 497 472 491 484 489 491 485 492 478 485 487 497 477 490 484 486 477 484 482 491 483 494 481 480 484 493 494 483 470 475 489 479 445 479 452 441 481 454 430 0 0 0 0 0
0 0 0 0 0 237 237 271 307 0 0 0 0 0 0 0 0 0 0 0 0 2366 0 0 0 0 0 0 0 479 460 467 463 469 466 469 472 468 469 473 473 472 483 473 477 473 480 481 479 477 480 478 478 481 483 483 479 486 483 484 480 485 484 488 486 483 485 483 481 488 480 485 486 483 477 494 489 477 487 503 479 502 497 504 487 487 510 498 490 499 479 492 483 493 503 490 508 484 498 488 479 518 497 471 478 484 486 478 469 485 450 475 450 525 471 0 0 0 0 0
0 0 0 0 240 227 232 237 233 276 364 0 0 0 0 0 0 0 0 0 0 0 0 0 0 0 0 0 0 0 440 467 463 472 466 468 465 468 474 466 473 473 472 467 477 473 472 473 477 480 476 483 479 484 480 483 478 479 485 483 480 485 482 487 478 488 483 481 488 476 474 476 470 475 479 481 481 476 482 477 485 469 491 485 479 491 499 492 474 491 476 481 481 478 505 479 467 493 464 490 485 488 479 480 462 459 449 471 467 458 476 439 413 0 0 0 0 0 0 0
0 0 0 257 219 227 231 224 233 238 339 0 0 0 0 0 0 0 0 0 0 0 0 0 0 0 0 0 0 0 0 473 461 463 462 464 465 465 466 468 473 466 470 468 472 474 472 476 478 474 476 474 479 476 478 475 483 482 478 481 479 482 483 483 481 479 481 483 475 488 476 482 484 472 486 488 485 487 485 482 490 487 489 484 479 476 485 488 485 475 480 503 493 486 477 484 497 507 513 506 487 474 502 502 473 466 471 453 487 470 482 478 460 438 540 0 0 0 0 0
231 292 231 227 265 263 264 225 236 240 289 0 439 389 413 411 418 416 424 441 468 465 426 447 444 444 441 453 446 454 447 459 460 460 464 465 466 460 459 470 465 473 476 464 471 472 471 472 470 475 479 479 478 477 477 471 475 478 475 480 478 480 473 477 483 478 476 483 482 472 476 475 478 472 483 464 472 473 474 479 476 471 475 480 470 486 473 471 475 492 484 466 471 472 473 491 479 481 467 490 466 476 459 468 480 478 455 455 470 474 472 475 456 466 436 488 0 0 0 0
178 201 219 214 255 239 248 232 234 257 372 358 378 413 382 389 407 396 407 405 407 421 426 430 439 427 427 437 438 449 449 460 458 457 450 453 458 459 461 456 459 462 457 466 459 467 463 468 468 470 465 467 469 471 467 470 471 466 468 473 464 473 471 473 474 470 475 473 472 470 463 469 466 461 465 454 458 442 466 467 454 453 461 446 460 458 445 463 452 457 451 446 443 433 448 430 447 448 452 444 443 433 438 455 447 433 451 448 449 440 439 428 446 426 436 463 442 0 0 0
183 222 220 217 221 236 232 229 233 301 379 351 383 366 378 363 384 386 377 387 393 375 379 390 413 409 428 421 428 436 440 440 439 437 442 442 440 452 444 449 445 455 446 450 449 453 454 458 457 453 447 456 456 452 456 457 453 456 461 463 460 462 451 456 457 460 454 459 450 455 456 446 452 445 443 440 434 438 430 433 439 434 419 417 419 431 429 440 427 435 428 432 436 417 427 411 421 425 431 424 424 410 413 430 442 418 422 419 421 407 430 414 397 406 415 427 412 420 452 445
266 269 245 217 226 225 230 228 250 339 320 323 338 324 335 342 329 335 341 342 339 354 366 384 364 369 386 396 413 416 409 421 415 426 433 425 430 431 432 426 428 431 427 429 436 435 436 441 436 437 440 434 443 436 437 447 447 444 441 442 446 440 439 447 439 436 436 430 439 437 432 430 433 432 423 417 407 407 405 393 394 380 396 397 387 393 379 382 392 386 394 388 395 383 391 415 378 398 398 394 401 378 388 387 381 381 372 386 383 395 364 390 393 377 383 367 387 392 407 407
301 306 274 251 233 234 229 250 281 320 315 303 303 312 310 319 310 320 322 323 321 325 340 333 359 370 383 389 395 393 402 401 403 409 407 405 404 409 410 420 417 417 415 418 414 416 418 423 416 410 414 411 422 419 421 421 421 427 425 425 419 422 414 420 422 420 418 420 420 420 415 410 402 398 397 392 374 373 365 361 359 369 358 359 372 356 368 353 359 361 361 373 381 367 361 368 370 372 358 364 360 372 376 372 374 371 348 363 354 351 366 351 375 354 358 362 382 406 364 382
277 276 271 258 259 260 259 274 282 280 276 290 284 292 286 282 289 295 293 282 303 296 308 318 333 340 355 375 364 376 381 393 389 386 378 388 392 394 394 394 396 388 396 385 389 391 395 389 394 391 389 397 397 398 398 395 395 403 397 403 397 391 398 396 391 389 403 393 392 394 391 387 382 385 367 365 359 348 341 329 336 330 333 334 333 321 336 326 337 323 334 334 318 326 336 322 330 323 329 330 341 328 317 337 332 362 354 344 344 325 326 346 329 332 341 335 300 319 345 316
254 229 250 235 243 247 252 246 251 262 262 262 258 256 256 248 262 256 270 272 278 287 293 295 306 316 328 350 347 354 357 361 364 360 362 366 360 373 366 364 365 372 376 375 365 373 367 372 365 368 374 372 369 376 380 368 373 375 374 371 372 382 367 372 372 373 370 367 369 374 368 360 364 355 339 340 329 322 306 308 303 303 305 299 294 306 297 302 298 299 299 298 305 300 300 311 287 299 296 314 295 310 299 310 303 299 306 306 308 297 299 280 313 296 295 272 296 324 302 271
225 240 233 230 234 246 241 231 243 235 238 246 246 249 247 248 238 250 249 245 257 267 277 283 296 302 316 318 335 330 335 329 342 340 347 334 339 344 344 346 347 346 345 345 346 346 346 355 347 342 349 349 349 350 352 359 345 351 355 349 348 353 352 347 348 353 346 354 351 346 349 342 336 332 332 321 307 300 297 287 284 275 284 270 277 282 281 291 280 274 274 284 280 273 269 270 274 283 281 290 289 280 281 288 270 277 264 277 276 296 272 294 281 291 281 293 282 260 285 281
207 206 220 224 231 218 213 215 222 228 226 227 219 231 219 231 227 232 233 237 241 246 251 260 271 284 292 299 293 298 309 312 313 317 318 318 316 325 326 325 324 322 318 317 326 322 326 326 323 326 322 322 320 325 322 330 324 319 328 322 323 327 326 325 323 327 318 326 319 320 320 324 316 313 302 290 287 272 270 268 262 260 251 259 260 261 258 254 249 253 258 263 265 252 262 252 260 248 258 256 260 256 261 254 250 251 258 252 257 265 257 268 268 268 260 258 246 252 260 256
197 207 210 212 216 212 222 212 211 218 207 204 201 207 214 215 211 216 224 216 230 233 248 250 254 263 264 276 285 283 287 293 291 293 298 296 297 302 301 302 301 297 298 304 296 297 306 297 310 305 309 301 302 307 300 308 306 305 303 299 304 302 309 304 303 306 300 301 299 300 293 299 300 285 288 277 267 255 255 247 247 252 242 250 245 246 248 243 240 245 245 237 243 238 241 235 244 237 237 236 239 240 245 243 244 235 242 236 242 246 241 240 253 256 242 248 251 240 258 261
195 196 196 205 198 205 203 203 197 202 203 197 204 190 183 191 202 206 210 216 214 222 227 236 239 248 250 261 268 266 271 266 272 274 275 278 280 275 282 283 281 280 288 287 285 281 283 283 286 286 283 283 278 278 279 284 287 283 279 286 286 289 284 282 285 287 282 286 283 283 282 281 274 272 267 260 255 243 235 231 234 228 233 233 239 229 221 225 224 228 228 223 225 225 224 222 221 222 224 225 227 224 224 227 227 223 224 230 226 232 235 236 246 248 249 223 226 226 239 251
175 173 191 178 182 180 185 184 177 186 184 183 178 184 180 187 188 181 185 182 205 196 220 229 224 231 234 240 241 247 250 260 258 255 262 259 258 258 264 259 266 256 258 266 261 267 264 270 263 264 265 266 267 263 267 268 263 270 263 270 261 267 264 269 263 265 266 267 265 265 265 254 254 256 250 245 241 229 226 219 217 200 216 215 213 202 201 211 212 216 213 217 219 212 197 216 210 197 206 209 218 214 214 212 208 210 207 214 216 219 215 232 236 218 216 204 234 224 218 220
174 170 172 168 177 179 180 179 179 184 175 176 176 178 183 184 187 186 179 181 183 188 207 213 215 219 222 222 227 234 233 240 243 243 241 242 241 241 248 245 245 243 244 248 248 253 244 246 245 250 249 245 245 251 242 250 249 249 251 255 246 245 250 252 246 254 249 249 244 245 247 247 242 242 236 226 220 218 213 200 194 196 187 188 192 192 191 191 191 194 196 194 194 186 192 187 187 187 178 206 187 205 189 185 187 191 186 202 187 204 205 202 212 210 213 217 210 217 209 238
168 170 171 179 176 175 173 175 175 174 177 173 176 178 180 178 176 182 186 186 187 189 180 194 206 193 210 214 213 228 223 220 226 226 228 225 228 226 228 228 225 232 238 232 235 234 229 227 235 229 229 234 234 230 233 233 233 236 238 242 234 237 239 233 234 231 234 226 232 231 230 229 225 223 217 216 211 195 197 198 193 196 189 192 194 184 183 190 192 190 190 193 188 190 191 183 189 185 179 178 188 179 186 181 184 176 183 182 180 183 177 184 178 184 210 170 212 206 177 195
164 164 172 170 174 166 169 167 165 163 165 162 167 168 171 167 173 170 174 180 175 184 190 188 183 184 189 190 207 212 208 212 207 212 209 213 213 214 214 195 214 220 217 218 219 222 221 216 220 218 218 217 222 224 221 219 218 219 219 222 219 223 217 216 220 217 217 218 222 221 221 217 220 197 192 191 187 192 192 188 186 180 187 183 181 181 181 184 181 187 185 183 183 179 180 186 182 180 180 184 178 185 180 179 176 181 174 179 174 177 177 178 177 171 182 175 170 191 176 181
148 154 158 159 161 164 161 162 163 168 160 159 160 163 162 160 162 168 165 170 172 173 182 181 181 184 183 183 192 189 181 186 184 185 183 191 188 190 185 195 193 194 189 193 195 192 196 194 189 189 195 197 193 196 196 196 193 193 193 195 200 197 200 194 193 194 190 195 194 190 200 190 194 191 197 193 196 188 186 177 175 175 177 173 177 172 173 176 175 176 176 176 173 174 170 171 169 170 169 170 169 174 176 169 176 170 168 168 172 176 167 177 174 170 171 178 173 176 168 176
140 146 151 153 157 152 152 158 155 159 156 154 154 152 159 155 156 161 159 164 164 170 175 173 179 177 175 179 181 185 188 186 188 190 190 186 191 191 191 192 191 194 191 196 193 196 195 196 197 192 193 187 196 195 198 195 200 198 192 200 197 195 198 199 194 191 196 199 197 195 190 195 191 194 188 184 184 180 176 171 169 169 169 162 164 165 172 167 172 171 169 169 169 168 173 168 164 162 162 170 166 164 175 168 163 164 157 162 165 168 168 170 171 168 175 163 153 172 174 148
145 139 147 145 148 148 149 149 150 148 146 150 148 149 151 147 156 146 154 159 158 162 169 174 170 173 174 178 174 179 178 177 181 180 176 178 184 177 183 183 182 183 187 185 185 185 184 185 187 185 183 189 187 186 189 187 188 192 0 189 189 186 187 187 191 189 190 187 184 185 185 183 182 179 175 175 176 175 169 165 159 161 158 160 161 158 162 160 161 160 155 165 158 156 160 156 157 159 166 166 157 156 163 158 158 155 152 162 154 161 154 157 161 161 162 163 162 165 163 159
133 137 140 141 142 144 147 144 143 146 141 143 142 144 140 146 143 145 144 152 159 157 163 161 164 168 168 167 168 169 167 170 175 173 169 170 174 171 172 174 175 180 177 176 173 179 174 181 177 177 179 176 177 179 182 181 180 0 0 178 180 176 179 183 179 178 176 180 178 172 173 175 174 174 168 168 166 164 162 158 163 155 156 154 158 161 157 155 155 155 149 157 155 153 154 155 156 153 157 154 156 154 156 153 146 145 145 152 165 151 153 150 149 148 151 155 152 154 160 162
138 130 130 137 140 145 150 140 139 140 139 142 145 140 139 139 141 149 144 148 150 154 156 159 159 159 161 161 166 163 162 166 170 168 164 165 166 167 166 166 172 0 172 169 171 173 169 172 170 171 173 172 172 172 175 0 173 173 0 174 174 0 177 172 171 170 173 166 172 172 168 168 166 169 163 160 165 158 156 151 149 153 151 152 153 149 151 146 151 153 143 153 148 146 146 147 152 150 154 148 147 145 147 147 146 143 144 140 149 145 147 140 146 155 147 149 148 153 146 165
128 112 129 123 134 136 142 135 132 129 133 127 132 131 139 137 136 136 136 142 140 146 149 152 149 158 159 154 158 160 158 156 160 157 157 155 161 161 0 0 0 0 0 0 0 0 0 165 163 164 167 163 166 167 0 0 171 166 168 164 0 0 0 0 164 167 165 0 161 162 163 161 161 161 155 155 156 158 148 147 149 147 146 147 143 149 143 143 143 146 141 146 145 143 143 141 143 146 142 139 141 141 143 137 138 134 135 139 136 145 144 145 146 157 149 143 140 144 138 135
116 118 126 123 125 133 131 132 133 131 132 132 132 132 122 124 120 138 135 135 142 141 147 147 145 147 152 150 152 154 151 154 155 156 153 155 154 0 0 0 0 0 0 0 0 0 0 0 0 162 161 161 0 0 0 0 0 0 0 0 0 0 0 0 0 162 0 0 0 0 0 158 155 152 152 149 149 152 145 143 140 141 146 142 139 141 141 139 143 137 137 136 137 141 136 128 142 141 137 137 138 137 139 134 132 138 132 136 140 140 132 145 136 143 134 150 141 129 137 143
111 105 118 120 132 117 127 129 119 127 129 124 116 119 115 128 134 132 132 133 133 125 133 143 141 141 144 143 145 151 149 149 151 150 150 146 0 0 0 0 0 0 0 0 0 0 0 0 153 151 157 0 0 0 0 0 0 0 0 0 0 0 0 0 0 0 0 0 0 0 0 0 148 149 148 147 143 140 140 142 137 141 125 137 126 126 136 139 128 129 137 137 127 128 118 127 140 136 134 133 129 136 133 123 127 132 131 125 133 139 130 134 135 132 133 131 133 126 116 129
102 108 112 108 109 112 118 118 115 120 116 117 119 115 127 120 121 129 116 118 129 125 126 123 134 138 141 142 142 143 141 142 142 144 144 141 0 0 0 0 0 0 0 0 0 0 0 0 144 0 0 0 0 0 0 0 0 0 0 0 0 0 0 0 0 0 0 0 0 0 0 0 144 140 141 140 137 132 129 129 129 122 120 119 135 119 125 126 123 125 124 122 118 129 123 125 127 131 121 120 115 129 133 118 118 122 118 123 133 135 127 132 127 128 121 129 112 108 135 103
110 105 116 116 115 114 113 117 115 117 112 117 114 116 118 122 119 119 122 115 115 114 122 115 136 136 138 136 0 134 0 0 0 138 133 0 0 0 0 0 0 0 0 0 0 0 0 0 0 0 0 0 0 0 0 0 0 0 0 0 0 0 0 0 0 0 0 0 0 0 0 0 0 143 125 126 127 123 117 125 121 121 122 126 115 117 118 116 118 115 121 125 113 118 110 121 119 121 124 121 117 125 129 132 116 114 112 121 105 122 130 111 131 122 127 121 110 136 148 146
99 101 105 111 106 101 104 105 102 101 111 106 102 108 103 110 108 116 118 110 112 114 112 117 120 116 124 119 120 126 0 0 0 0 126 0 0 0 0 0 0 0 0 0 0 0 0 0 0 0 0 0 0 0 0 0 0 0 0 0 0 0 0 0 0 0 0 0 0 0 0 0 127 0 0 125 118 119 121 117 117 111 110 111 111 116 111 111 113 110 110 114 112 111 109 107 112 112 110 109 115 109 111 110 111 115 113 109 109 100 110 112 112 121 123 100 99 115 117 130
98 99 90 93 101 101 102 101 101 102 98 103 104 107 106 102 106 109 112 106 112 109 106 104 115 108 116 116 119 120 0 125 0 0 0 0 0 0 0 0 0 0 0 0 0 0 0 0 0 0 0 0 0 0 0 0 0 0 0 0 0 0 0 0 0 0 0 0 0 0 0 0 0 121 0 116 119 117 114 112 110 112 104 106 112 109 109 116 100 108 114 114 111 112 106 114 106 105 94 121 107 102 110 105 108 114 113 102 112 105 104 105 110 99 101 125 109 109 105 129
93 101 100 103 98 95 100 92 91 96 96 96 102 99 96 90 104 100 112 117 114 105 95 108 112 106 111 113 111 120 119 117 123 0 0 0 0 0 0 0 0 0 0 0 0 0 0 0 0 0 0 0 0 0 0 0 0 0 0 0 0 0 0 0 0 0 0 0 0 0 0 0 120 121 108 118 113 114 117 114 108 108 103 119 108 104 105 101 101 103 104 106 110 95 99 100 107 103 107 101 106 106 107 107 108 106 111 89 102 97 97 100 101 97 101 95 132 114 113 83
89 84 85 87 79 85 82 92 91 81 89 94 96 96 92 89 78 93 90 88 93 89 98 108 100 99 114 106 0 113 104 106 119 0 0 0 0 113 0 0 0 0 0 0 0 0 0 0 0 0 0 0 0 0 0 0 0 0 0 0 0 0 0 0 0 0 0 0 0 0 0 116 109 108 105 112 106 106 101 101 102 102 95 91 97 96 86 102 104 100 92 96 102 82 82 93 94 102 89 96 90 97 92 92 85 91 97 92 92 94 80 77 78 98 102 104 95 83 98 133
93 84 90 89 96 94 98 105 90 91 92 93 93 91 92 95 99 87 101 97 97 105 107 105 104 104 111 109 0 106 112 110 118 113 121 108 111 0 113 0 0 115 0 0 0 0 0 0 0 0 0 0 0 0 0 0 0 0 0 0 118 0 0 114 113 0 0 0 108 0 102 109 112 111 115 108 106 112 104 99 110 101 105 88 93 102 107 99 101 104 105 105 110 100 100 102 96 95 98 110 103 97 95 100 92 99 100 85 91 83 97 99 91 108 106 95 112 117 136 129
86 91 90 88 95 94 92 94 84 95 83 86 86 94 86 87 96 97 97 93 98 93 98 110 92 105 106 100 105 106 93 0 104 103 96 100 0 113 113 0 106 0 0 0 0 0 0 0 0 0 0 0 0 0 108 0 0 113 0 0 113 106 107 110 112 112 108 100 113 102 108 104 103 100 111 104 98 91 104 97 94 90 99 84 96 92 94 101 106 92 96 102 108 85 84 81 93 92 98 83 92 81 92 98 88 88 100 89 98 85 95 90 87 90 96 88 126 105 110 133
82 86 83 89 89 90 100 88 90 80 87 87 85 91 89 90 88 89 90 89 79 90 95 88 85 91 92 90 102 91 93 99 99 96 94 110 99 102 103 100 105 99 98 109 105 92 0 0 95 0 0 104 107 94 100 112 108 101 106 105 100 105 108 102 100 110 103 98 100 105 97 108 109 100 105 90 95 95 97 92 92 93 90 94 88 96 88 91 94 94 99 88 94 91 94 93 86 84 89 81 87 86 90 93 84 84 96 87 85 97 83 95 87 96 84 95 100 86 114 122
81 80 84 85 80 82 100 104 86 83 82 81 90 90 84 89 89 93 88 96 84 100 94 85 90 97 96 88 93 98 94 85 98 96 96 93 97 100 93 109 104 96 99 105 101 93 106 0 105 103 96 103 98 97 104 102 101 105 94 105 106 94 96 103 103 97 98 101 94 106 101 102 99 96 100 87 94 97 96 84 99 96 95 90 100 94 89 85 95 86 84 100 89 90 92 82 94 94 95 86 91 97 90 93 91 100 89 94 85 82 84 98 100 88 117 122 124 94 94 89
81 74 68 67 80 80 87 88 87 77 87 86 87 82 89 82 86 84 88 84 90 83 91 89 86 83 92 93 84 94 91 91 95 93 95 96 96 85 88 95 92 89 82 89 86 94 90 100 94 90 94 98 94 93 87 85 98 90 99 97 95 83 98 77 96 98 97 89 76 98 95 87 97 89 83 94 90 97 95 96 87 94 84 87 81 92 85 88 86 88 92 79 89 83 84 86 82 93 81 86 79 87 80 68 79 82 86 88 81 73 70 80 83 87 88 99 115 114 118 77
73 77 79 85 71 84 87 88 83 81 82 88 78 82 81 90 85 88 86 88 83 92 86 89 86 94 93 85 94 91 95 96 92 94 87 93 94 92 94 93 93 81 96 89 88 100 91 93 98 89 90 85 95 86 101 94 88 85 86 97 97 82 89 98 91 94 87 96 108 94 97 96 87 94 94 94 95 96 94 93 91 89 90 88 78 84 85 80 94 92 76 91 76 80 89 83 89 87 79 77 85 80 79 78 76 83 80 82 88 86 92 88 77 96 91 107 77 104 79 192
