0 0 0 0 0 0 0 0 0 0 0 0 0 0 0 0 0 0 0 0 0 0 0 0 0 0 0 0 0 0 0 0 0 0 0 0 0 0 0 0 0 0 0 0 0 0 0 0 0 0 0 0 0 0 0 0 0 0 0 0 0 0 0 0 0 0 0 0 0 0 0 0 0 0 0 0 0 0 0 0 0 0 0 0 0 0 0 0 0 0 0 0 0 0 0 0 0 0 0 0 0 0 0 0 0 0 0 0 0 0 0 0 0 0 0 0 0 0 0 0
0 0 0 0 0 0 0 0 0 0 0 0 0 0 0 0 0 0 0 0 0 0 0 0 0 0 0 0 0 0 0 0 0 0 0 0 0 0 0 0 0 0 0 0 0 0 0 0 0 0 0 0 0 0 0 0 0 0 0 0 0 0 0 0 0 0 0 0 0 0 0 0 0 0 0 0 0 0 0 0 0 0 0 0 0 0 0 0 0 0 0 0 0 0 0 0 0 0 0 0 0 0 0 0 0 0 0 0 0 0 0 0 0 0 0 0 0 0 0 0
0 0 0 0 0 0 0 0 0 0 0 0 0 0 0 0 0 0 0 0 0 0 0 0 0 0 0 0 0 0 0 0 0 0 0 0 0 0 0 0 0 0 0 0 0 0 0 0 0 0 0 0 0 0 0 0 0 0 0 0 0 0 0 0 0 0 0 0 0 0 0 0 0 0 0 0 0 0 0 0 0 0 0 0 0 0 0 0 0 0 0 0 0 0 0 0 0 0 0 0 0 0 0 0 0 0 0 0 0 0 0 0 0 0 0 0 0 0 0 0
0 0 0 0 0 0 0 0 0 0 0 0 0 0 0 0 0 0 0 0 0 0 0 0 0 0 0 0 0 0 0 0 0 0 0 0 0 0 0 0 0 0 0 0 0 0 0 0 0 0 0 0 0 0 0 0 0 0 0 0 0 0 0 0 0 0 0 0 0 0 0 0 0 0 0 0 0 0 0 0 0 0 0 0 0 0 0 0 0 0 0 0 0 0 0 0 0 0 0 0 0 0 0 0 0 0 0 0 0 0 0 0 0 0 0 0 0 0 0 0
0 0 0 0 0 0 0 0 0 0 0 0 0 0 0 0 0 0 0 0 0 0 0 0 0 0 0 0 0 0 0 0 0 0 0 0 0 0 0 0 0 0 0 0 0 0 0 0 0 0 0 0 0 0 0 0 0 0 0 0 0 0 0 0 0 0 0 0 0 0 0 0 0 0 0 0 0 0 0 0 0 0 0 0 0 0 0 0 0 0 0 0 0 0 0 0 0 0 0 0 0 0 0 0 0 0 0 0 0 0 0 0 0 0 0 0 0 0 0 0
0 0 0 0 0 0 0 0 0 0 0 0 0 0 0 0 0 0 0 0 0 0 0 0 0 0 0 0 0 0 0 0 0 0 0 0 0 0 0 543 527 510 516 490 527 518 510 520 511 493 498 513 505 513 464 0 0 0 0 0 0 0 0 0 0 0 0 0 0 0 0 0 0 0 0 0 0 0 0 0 0 0 0 0 0 0 0 0 0 0 0 0 0 0 0 0 0 0 0 0 0 0 0 0 0 0 0 0 0 0 0 0 0 0 0 0 0 0 0 0
0 0 0 0 0 0 0 0 0 0 0 0 0 0 0 0 0 0 0 0 0 0 0 0 0 0 0 0 0 0 0 0 0 0 0 0 0 507 519 522 522 528 506 502 523 517 528 535 519 523 512 516 532 513 535 521 515 529 556 555 0 0 0 0 0 0 0 0 0 0 0 0 0 0 0 0 0 0 0 0 0 0 0 0 0 0 0 0 0 0 0 0 0 0 0 0 0 0 0 0 0 0 0 0 0 0 0 0 0 0 0 0 0 0 0 0 0 0 0 0
0 0 0 0 0 0 0 0 0 0 0 0 0 0 0 0 0 0 0 0 0 0 0 0 0 0 0 0 0 0 0 0 0 0 0 505 499 513 501 494 500 511 491 509 501 503 504 508 504 501 505 507 504 516 519 521 494 498 493 523 497 527 511 530 492 0 0 0 0 0 0 0 0 0 0 0 0 0 0 0 0 0 0 0 0 0 0 0 0 0 0 0 0 0 0 0 0 0 0 0 0 0 0 0 0 0 0 0 0 0 0 0 0 0 0 0 0 0 0 0
0 0 0 0 0 0 0 0 0 0 0 0 0 0 0 0 0 0 0 0 0 0 0 0 0 0 0 0 0 0 0 0 0 496 492 507 504 496 500 494 505 494 495 496 499 503 494 501 501 512 502 501 502 501 502 510 503 491 511 507 498 499 494 494 510 501 496 514 505 556 577 515 523 499 524 557 543 585 533 509 0 0 0 0 0 0 0 0 0 0 0 0 0 0 0 0 0 0 0 0 0 0 0 0 0 0 0 0 0 0 0 0 0 0 0 0 0 0 0 0
0 0 0 0 0 0 0 0 0 0 0 0 0 0 0 0 0 0 0 0 0 0 0 0 0 0 0 0 0 0 0 523 507 514 492 500 487 507 506 499 507 502 505 508 510 499 511 511 509 512 497 496 511 508 503 509 514 506 502 517 506 496 502 514 508 515 522 528 539 548 599 570 571 549 605 612 608 623 614 586 616 571 554 579 0 608 0 579 591 590 572 549 562 579 603 610 612 619 570 553 0 563 582 638 0 0 0 0 0 0 0 0 0 0 0 0 0 0 0 0
0 0 0 0 0 0 0 0 0 0 0 0 0 0 0 0 0 0 0 0 0 0 0 0 0 0 0 0 0 0 501 485 497 478 493 494 497 501 493 502 501 495 505 494 507 500 504 496 502 499 499 498 502 495 499 513 506 507 503 510 503 495 503 500 498 513 507 514 499 499 500 508 539 498 541 471 519 541 548 552 514 479 529 499 475 562 571 486 504 484 485 542 573 503 502 549 537 507 511 486 514 521 519 504 524 524 501 0 0 0 0 0 0 0 0 0 0 0 0 0
0 0 0 0 0 0 0 0 0 0 0 0 0 0 0 0 0 0 0 0 0 0 0 0 0 0 0 0 486 504 509 504 495 504 501 501 493 492 505 509 509 493 496 497 512 501 506 507 497 507 499 501 503 495 501 505 496 505 493 515 499 506 504 510 518 513 508 503 515 527 509 569 586 594 577 575 558 585 565 560 570 575 582 589 573 564 544 563 567 604 542 529 584 581 563 592 563 577 580 602 575 552 604 567 587 564 629 635 518 0 0 0 0 0 0 0 0 0 0 0
0 0 0 0 0 0 0 0 0 0 0 0 0 0 0 0 0 0 0 0 0 0 0 0 0 0 0 524 513 514 508 492 499 506 494 497 511 510 516 504 507 512 511 506 507 513 506 513 495 511 504 502 516 503 505 514 504 517 513 504 504 511 517 515 515 508 512 515 509 523 518 510 599 581 576 560 575 599 584 597 577 548 585 619 582 588 620 568 617 575 582 557 581 592 581 601 547 597 623 571 579 557 583 582 601 557 574 581 0 0 0 0 0 0 0 0 0 0 0 0
0 0 0 0 0 0 0 0 0 0 0 0 0 0 0 0 0 0 0 0 0 0 0 0 0 0 501 500 494 499 499 491 493 489 497 485 501 495 506 497 508 503 509 508 508 514 507 508 503 503 514 501 513 507 505 495 498 506 513 510 513 512 505 511 507 518 515 503 505 506 521 509 532 565 554 570 558 576 539 556 561 559 565 516 557 593 549 578 546 552 532 544 562 547 542 566 555 541 556 514 512 549 587 551 592 554 557 532 560 0 0 0 0 0 0 0 0 0 0 0
0 0 0 0 0 0 0 0 0 0 0 0 0 0 0 0 0 0 0 0 0 0 0 0 0 497 512 495 505 510 505 501 502 510 501 502 501 506 507 496 512 506 507 506 517 498 501 513 507 515 507 507 512 499 510 512 509 506 511 506 509 507 515 512 504 503 508 503 513 515 512 510 525 534 570 578 563 584 588 580 605 593 558 582 593 591 582 549 601 569 558 589 596 565 559 572 583 591 609 579 594 582 610 550 599 589 539 607 577 587 543 0 0 0 0 0 0 0 0 0
0 0 0 0 0 0 0 0 0 0 0 0 0 0 0 0 0 0 0 0 0 0 0 0 0 477 501 498 499 484 496 494 493 497 488 502 495 500 498 501 495 495 510 495 500 500 507 502 503 507 501 505 507 510 510 502 510 501 506 508 515 502 511 502 504 514 513 514 507 513 527 510 510 520 548 528 566 549 567 548 573 553 538 580 520 564 537 533 539 568 558 584 542 521 559 538 537 560 567 548 542 555 512 561 539 535 523 516 520 589 0 0 527 540 0 0 0 0 0 0
0 0 0 0 0 0 0 0 0 0 0 0 0 0 0 0 0 0 0 0 0 0 0 0 473 494 485 491 496 489 496 488 494 493 497 492 503 494 500 503 490 502 493 503 500 498 505 497 493 498 503 502 504 500 502 505 501 500 500 510 504 499 500 505 505 510 499 506 508 509 507 509 498 510 527 498 508 537 529 536 512 522 523 472 521 534 524 519 540 522 547 523 502 551 561 516 539 499 554 505 495 537 497 497 508 514 527 509 466 482 448 0 0 0 0 0 0 0 0 0
0 0 0 0 0 0 0 0 0 0 0 0 0 0 0 0 0 0 0 0 0 0 0 0 487 496 497 495 499 500 489 498 499 483 498 497 498 501 494 500 499 495 506 497 495 506 508 505 505 500 505 506 503 504 500 503 504 507 503 505 510 504 500 516 500 511 519 506 504 504 504 510 510 508 497 533 559 570 553 537 535 564 545 548 542 580 539 550 547 531 537 562 548 577 571 537 552 563 531 574 557 567 517 565 534 536 546 517 569 539 0 0 0 0 0 0 0 0 0 0
0 0 0 0 0 0 0 0 0 0 0 0 0 0 0 0 0 0 0 0 0 0 0 477 488 495 490 493 479 492 494 501 486 492 493 484 502 488 493 486 491 491 501 495 493 500 492 489 488 507 510 496 499 499 499 502 501 506 500 509 506 498 507 507 498 492 508 501 499 505 503 504 507 507 507 496 488 511 515 519 494 500 521 534 508 513 490 503 534 517 527 503 518 515 547 519 495 477 499 538 500 491 508 499 495 496 502 502 473 490 436 0 0 0 0 0 0 0 0 0
0 0 0 0 0 0 0 0 0 0 0 0 0 0 0 0 0 0 0 0 0 0 0 503 490 508 481 493 489 503 493 495 499 496 498 490 497 488 497 502 488 506 498 505 506 502 509 507 494 508 495 506 497 504 496 505 509 507 502 508 507 507 509 509 508 498 504 513 509 512 508 508 512 514 507 514 512 520 568 545 505 565 535 552 532 550 514 555 534 546 556 525 555 525 538 530 551 541 543 543 547 540 531 583 540 560 556 535 591 580 560 0 0 0 0 0 0 0 0 0
0 0 0 0 0 0 0 0 0 0 0 0 0 0 0 0 0 0 0 0 0 0 450 489 492 500 488 494 492 494 486 500 495 494 484 493 498 495 489 486 497 499 502 502 504 499 507 501 509 506 494 512 501 500 507 497 504 504 503 508 509 506 510 503 500 503 504 515 506 502 509 510 507 493 502 506 530 528 553 545 499 585 545 549 537 542 567 548 564 566 576 569 556 560 559 562 558 533 544 538 573 543 566 551 542 587 585 581 510 534 573 600 602 0 0 0 0 0 0 0
0 0 0 0 0 0 0 0 0 0 0 0 0 0 0 0 0 0 0 0 0 0 481 490 490 491 493 493 494 493 492 493 496 485 491 497 488 498 494 497 496 499 500 499 504 501 503 503 506 505 500 507 502 505 501 503 509 508 503 508 501 505 501 508 504 510 508 503 515 501 504 512 510 514 506 498 510 534 557 555 535 533 562 546 521 539 512 553 531 537 539 535 509 528 524 532 520 538 546 516 543 518 537 538 550 559 520 519 538 542 506 0 0 0 0 0 0 0 0 0
0 0 0 0 0 0 0 0 0 0 0 0 0 0 0 0 0 0 0 0 0 0 506 494 497 485 489 505 490 496 493 486 501 494 493 498 487 495 493 496 499 499 501 498 498 508 501 497 494 504 502 499 501 496 502 503 508 506 509 503 499 510 502 507 505 506 510 503 514 507 503 512 516 507 517 512 514 530 555 525 538 518 509 530 554 556 575 548 537 583 559 547 547 554 532 570 552 568 544 534 548 567 557 564 551 564 564 596 543 553 593 546 573 606 0 0 0 0 0 0
0 0 0 0 0 0 0 0 0 0 0 0 0 0 0 0 0 0 0 0 0 0 492 497 494 490 488 487 487 497 494 491 487 499 485 483 487 494 499 493 498 498 488 497 496 497 500 498 503 508 497 509 497 492 497 503 502 498 498 506 502 511 508 498 505 500 496 501 504 505 518 508 496 501 501 517 504 523 529 536 514 529 530 514 496 527 500 543 509 507 507 524 504 535 499 531 518 534 514 533 528 556 520 514 523 519 537 532 526 500 501 546 521 0 0 0 0 0 0 0
0 0 0 0 0 0 0 0 0 0 0 0 0 0 0 0 0 0 0 0 0 0 484 489 482 484 493 487 498 496 485 490 497 479 485 487 493 486 492 487 499 489 497 501 495 495 489 497 501 504 500 504 501 499 499 497 500 500 497 494 497 502 500 502 508 504 503 503 497 500 502 502 515 500 507 501 502 490 488 519 475 504 488 502 480 492 490 503 496 503 518 506 519 505 472 473 482 497 502 502 495 512 518 495 500 493 478 491 515 474 515 479 497 0 0 0 0 0 0 0
0 0 0 0 0 0 0 0 0 0 0 0 0 0 0 0 0 0 0 0 0 0 485 479 486 488 488 482 481 489 489 483 484 492 505 484 489 496 499 496 495 496 491 495 490 494 499 498 501 498 500 497 502 503 499 499 498 499 500 501 505 498 502 508 505 508 508 505 498 502 496 504 514 512 509 503 510 518 542 499 521 518 542 515 514 540 520 537 535 501 524 502 524 536 496 550 522 500 543 516 505 520 541 524 563 529 497 534 545 522 515 526 547 0 0 0 0 0 0 0
0 0 0 0 0 0 0 0 0 0 0 0 0 0 0 0 0 0 0 0 0 367 476 484 487 483 484 485 486 480 485 491 488 483 484 480 498 488 497 489 487 489 492 496 494 493 496 496 496 494 496 506 495 500 496 506 503 497 502 505 501 505 497 503 496 504 499 500 505 502 499 501 502 505 500 501 504 494 494 509 498 495 476 493 488 489 498 488 495 512 493 493 495 466 521 444 493 456 489 457 483 506 472 473 479 510 473 487 444 455 466 0 0 0 0 0 0 0 0 0
0 0 0 0 0 0 0 0 0 0 0 0 0 0 0 0 0 0 0 0 0 447 486 477 483 487 487 477 479 481 482 492 491 501 492 489 492 490 488 493 491 496 489 500 496 500 490 495 494 495 497 498 498 501 499 501 505 503 501 502 501 498 502 496 509 499 507 505 503 495 499 499 505 497 505 510 507 500 526 514 506 535 489 531 517 513 481 538 522 528 529 526 527 532 526 502 514 512 491 507 504 488 511 507 511 531 524 501 534 547 553 529 508 0 0 0 0 0 0 0
0 0 0 0 0 0 0 0 0 0 0 0 0 0 0 0 0 0 0 0 0 463 486 484 492 482 482 490 479 488 484 486 487 488 489 485 486 489 498 493 493 490 492 497 492 495 493 492 494 493 498 502 499 497 494 506 498 499 501 501 508 502 502 502 501 503 506 501 505 507 508 504 506 513 509 508 510 510 541 519 515 538 513 515 541 527 507 532 502 531 533 537 536 538 544 508 547 536 530 558 508 544 537 534 558 521 503 503 564 588 554 0 545 0 0 0 0 0 0 0
0 0 0 0 0 0 0 0 0 0 0 0 0 0 0 0 0 0 0 0 0 429 479 477 485 483 480 477 489 491 487 484 487 490 487 492 486 489 483 494 489 489 493 494 494 490 494 502 500 496 497 501 497 499 500 501 495 494 500 501 495 503 504 500 496 503 507 503 498 507 501 499 507 501 501 504 509 500 525 501 490 502 503 491 491 494 516 514 529 487 524 506 514 519 500 518 527 502 493 515 518 485 519 521 514 533 482 485 483 497 522 465 490 531 0 0 0 0 0 0
0 0 0 0 0 0 0 0 0 0 0 0 0 0 0 0 0 0 0 0 0 502 485 483 487 479 483 484 487 485 489 485 485 488 488 486 487 487 487 490 491 499 493 494 496 492 495 496 496 492 497 504 499 500 500 499 500 497 500 500 502 502 504 502 505 505 506 498 505 506 504 506 502 509 504 500 498 511 537 508 525 533 532 540 522 519 524 527 514 530 543 525 528 517 541 528 535 532 527 560 570 533 544 541 560 548 519 557 519 526 520 545 507 0 0 0 0 0 0 0
0 0 0 0 0 0 0 0 0 0 0 0 0 0 0 0 0 0 0 0 0 423 476 481 486 478 479 477 485 484 487 492 486 486 489 488 486 494 491 491 493 492 493 490 491 492 493 493 491 499 487 495 494 496 495 498 495 498 502 498 496 496 496 505 496 504 501 498 501 501 502 502 502 506 499 497 508 502 516 503 503 515 514 500 523 519 522 501 512 513 510 496 502 484 472 517 503 502 509 498 512 509 489 518 487 512 481 506 549 520 498 496 492 0 0 0 0 0 0 0
0 0 0 0 0 0 0 0 0 0 0 0 0 0 0 0 0 0 0 0 0 435 477 482 476 473 474 480 479 478 483 477 486 478 481 485 483 489 488 487 492 489 489 488 489 492 490 492 495 498 498 495 492 497 496 499 491 500 499 493 497 496 498 496 500 497 498 497 495 504 505 494 504 501 494 500 499 491 486 493 493 483 487 481 495 485 497 488 507 494 492 479 480 481 481 484 508 472 493 478 492 492 511 466 490 499 511 478 466 497 486 491 448 439 0 0 0 0 0 0
0 0 0 0 0 0 0 0 0 0 0 0 0 0 0 0 0 0 0 0 0 467 480 479 477 476 479 476 479 486 485 483 484 483 483 483 487 488 485 490 490 489 484 492 494 493 489 494 490 487 491 493 494 496 499 495 500 500 501 495 497 495 498 503 504 499 499 499 500 498 498 498 494 498 493 497 496 504 508 513 485 500 501 502 512 528 508 506 494 517 504 492 515 514 498 507 492 515 500 524 517 533 523 516 536 534 533 509 508 459 505 520 544 0 0 0 0 0 0 0
0 0 0 0 0 0 0 0 0 0 0 0 0 0 0 0 0 0 0 0 0 420 477 476 478 473 473 475 478 485 477 485 479 485 478 483 479 486 484 481 491 485 482 487 487 494 489 496 491 490 494 490 496 489 496 496 492 496 495 494 495 496 499 496 500 499 502 497 499 499 499 495 493 501 498 496 495 495 484 478 487 474 476 476 491 481 496 481 493 476 471 474 476 471 467 466 474 471 500 475 477 445 449 460 452 463 454 478 454 495 453 458 465 463 0 0 0 0 0 0
0 0 0 0 0 0 0 0 0 0 0 0 0 0 0 0 0 0 0 0 0 459 470 478 466 478 474 475 480 486 483 486 481 479 487 487 485 482 487 483 486 488 488 489 493 491 494 487 487 494 498 496 498 496 498 501 495 498 496 495 495 496 494 499 501 501 500 501 499 498 498 498 495 500 500 501 499 500 494 496 500 492 515 511 488 496 506 485 504 498 486 499 507 508 500 476 496 501 515 503 497 504 502 517 519 517 499 483 482 485 531 452 508 547 0 0 0 0 0 0
0 0 0 0 0 0 0 0 0 0 0 0 0 0 0 0 0 0 0 0 0 497 474 476 479 479 478 473 480 479 479 482 484 483 484 483 482 481 487 487 490 491 495 487 487 491 490 492 495 494 494 497 492 494 495 494 491 495 494 495 497 498 503 506 500 501 497 498 499 501 500 498 500 499 503 496 498 497 509 502 499 490 506 500 493 488 509 517 499 502 488 509 497 507 519 513 505 508 506 514 502 511 517 517 519 521 534 527 524 552 579 529 564 0 0 0 0 0 0 0
0 0 0 0 0 0 0 0 0 0 0 0 0 0 0 0 0 0 0 0 0 0 471 473 465 475 476 476 483 481 479 482 488 478 480 480 486 490 486 486 485 485 486 489 486 491 492 491 497 493 494 497 492 499 499 494 491 493 495 489 503 500 496 498 499 500 491 497 495 495 497 502 499 497 497 494 500 491 490 487 519 495 511 490 490 500 501 500 501 515 490 532 509 487 501 493 522 528 516 513 495 513 513 538 534 500 476 513 533 511 492 486 480 481 0 0 0 0 0 0
0 0 0 0 0 0 0 0 0 0 0 0 0 0 0 0 0 0 0 0 0 0 512 475 471 470 482 478 477 483 480 484 482 488 483 483 485 484 487 481 489 489 487 490 494 490 489 487 493 490 491 494 499 500 494 494 498 502 495 496 498 495 493 502 501 498 501 499 496 499 506 496 502 496 502 499 502 502 524 528 508 515 533 531 522 541 546 524 527 521 529 529 530 538 528 529 522 537 529 535 517 527 535 510 569 525 508 526 502 486 538 487 561 517 0 0 0 0 0 0
0 0 0 0 0 0 0 0 0 0 0 0 0 0 0 0 0 0 0 0 0 0 505 477 474 481 473 476 478 478 479 482 481 483 480 482 483 483 482 484 489 482 490 487 489 488 492 485 492 494 493 494 491 493 491 491 493 495 496 493 494 496 498 496 499 500 496 496 494 495 494 499 495 495 493 494 498 502 490 494 503 511 501 495 516 505 520 522 498 532 521 503 503 531 521 512 516 502 506 509 502 486 517 488 522 515 475 505 518 497 488 502 497 490 482 0 0 0 0 0
0 0 0 0 0 0 0 0 0 0 0 0 0 0 0 0 0 0 0 0 0 0 596 467 472 481 477 474 474 475 477 475 480 479 486 487 483 482 482 485 485 488 488 488 489 483 490 487 488 488 488 492 491 489 495 492 491 497 489 496 492 499 499 498 495 497 499 500 498 495 497 491 492 496 493 492 495 498 498 492 494 507 508 487 487 500 492 499 491 510 485 511 484 490 497 514 509 521 502 500 511 478 512 486 499 472 481 478 480 457 437 460 431 442 476 424 0 0 0 0
0 0 0 0 0 0 0 0 0 0 0 0 0 0 0 0 0 0 0 0 0 0 0 477 470 475 481 480 472 476 473 480 477 477 475 478 482 478 483 488 486 486 489 490 490 490 489 493 492 492 497 490 494 488 496 495 495 493 492 495 491 498 493 494 499 492 496 497 498 493 498 494 497 496 492 494 494 506 482 507 508 497 499 497 501 508 495 521 495 498 504 497 486 508 521 505 501 512 511 512 516 511 505 472 513 503 463 488 491 472 487 466 490 0 0 0 0 0 0 0
0 0 0 0 0 0 0 0 0 0 0 0 0 0 0 0 0 0 0 0 0 0 0 486 471 469 473 475 477 480 474 480 477 476 478 483 481 475 484 479 480 482 485 486 485 490 491 493 490 490 490 488 489 489 494 490 495 493 496 490 491 493 496 492 495 496 496 497 499 493 497 494 494 489 490 487 489 489 488 483 489 486 484 484 488 491 481 485 493 483 482 507 479 492 476 485 496 481 488 473 477 471 484 469 473 478 453 464 470 444 466 476 476 0 0 0 0 0 0 0
0 0 0 0 0 0 0 0 0 0 0 0 0 0 0 0 0 0 0 0 0 0 0 502 470 471 474 473 477 475 473 475 480 482 477 482 476 478 486 484 480 486 490 486 483 492 489 486 488 485 494 491 491 490 499 487 500 497 487 488 494 493 496 498 495 490 495 495 496 492 497 493 494 501 492 491 488 496 497 516 487 488 498 507 487 513 493 487 500 514 493 502 491 495 507 502 500 478 489 507 493 492 511 468 468 493 472 473 455 481 493 484 510 495 0 0 0 0 0 0
0 0 0 0 0 0 0 0 0 0 0 0 0 0 0 0 0 0 0 0 0 0 0 0 487 471 472 474 477 478 476 471 476 480 481 477 481 484 481 484 484 484 485 488 490 492 493 491 491 495 490 491 492 495 492 492 494 492 491 490 493 499 492 493 498 496 492 493 495 497 496 497 495 495 494 491 496 496 513 510 490 514 502 518 509 493 525 516 500 536 496 513 517 498 524 514 490 497 509 532 509 546 494 559 487 506 522 479 500 537 520 521 486 540 513 549 0 0 0 0
0 0 0 0 0 0 0 0 0 0 0 0 0 0 0 0 0 0 0 0 0 0 0 0 512 467 470 470 467 474 483 475 479 475 480 476 480 480 484 478 480 479 479 481 486 484 489 491 488 491 494 489 490 496 489 493 491 493 493 490 495 486 495 493 496 495 492 492 488 493 500 494 491 494 494 494 487 496 485 486 486 489 492 492 496 523 487 481 517 483 484 497 480 542 520 499 508 496 519 484 485 501 493 476 464 478 477 467 460 492 477 494 447 439 503 0 0 0 0 0
0 0 0 0 0 0 0 0 0 0 0 0 0 0 0 0 0 0 0 0 0 0 0 0 0 476 468 468 470 473 475 478 479 479 476 480 477 480 481 484 477 482 484 485 481 485 488 489 488 484 492 484 489 488 489 490 491 486 489 493 491 494 495 492 493 493 491 494 491 498 492 493 494 490 498 491 485 491 511 507 504 502 503 506 498 497 503 487 510 503 517 515 502 514 540 516 530 528 518 522 512 537 525 518 520 517 506 527 535 514 540 498 544 516 611 0 0 0 0 0
0 0 0 0 0 0 0 0 0 0 0 0 0 0 0 0 0 0 0 0 0 0 0 0 0 509 468 474 472 474 472 472 475 469 471 477 475 473 482 475 480 482 478 481 482 484 479 485 487 483 483 483 485 486 491 489 492 488 486 494 488 488 492 491 492 489 490 488 491 489 492 491 496 491 485 484 478 484 492 488 488 492 477 491 496 499 500 488 503 478 496 499 492 493 510 525 485 511 473 498 513 501 486 477 440 471 475 470 466 456 474 492 478 474 0 0 0 0 0 0
0 0 0 0 0 0 0 0 0 0 0 0 0 0 0 0 0 0 0 0 0 0 0 0 0 0 490 468 467 472 469 472 466 470 476 474 474 479 477 476 478 478 480 483 485 483 481 482 483 486 490 485 488 482 488 488 489 489 488 489 489 488 486 489 492 489 489 486 489 489 492 491 489 485 482 481 478 484 493 494 479 489 484 496 481 484 485 476 483 491 492 497 473 471 491 481 498 482 480 477 489 477 466 476 471 466 470 452 458 445 434 437 459 453 434 0 0 0 0 0
0 0 0 0 0 0 0 0 0 0 0 0 0 0 0 0 0 0 0 0 0 0 0 0 0 0 0 467 468 466 467 471 473 472 473 473 473 477 475 476 477 483 477 476 476 478 487 480 483 482 482 484 478 488 487 482 485 486 484 491 487 482 491 486 486 490 491 494 486 491 494 488 488 484 488 481 475 496 493 483 481 487 482 478 484 502 504 483 477 491 479 495 499 503 491 479 501 506 501 488 471 479 464 486 477 495 474 464 453 446 463 475 439 481 466 0 0 0 0 0
0 0 0 0 0 0 0 0 0 0 0 0 0 0 0 0 0 0 0 0 0 0 0 0 0 0 0 458 463 460 469 465 471 471 465 471 472 471 470 474 477 478 478 480 479 478 482 484 476 480 483 483 485 485 483 486 485 483 485 486 487 488 487 488 491 490 489 488 483 491 482 480 473 475 475 494 478 479 486 471 477 485 480 489 481 470 472 453 474 466 458 468 467 474 471 475 493 477 482 468 478 472 467 465 452 427 435 473 450 457 421 421 424 443 0 0 0 0 0 0
0 0 0 0 0 0 0 0 0 0 0 0 0 0 0 0 0 0 0 0 0 0 0 0 0 0 0 0 534 470 469 467 469 474 474 469 475 474 470 476 478 477 479 476 474 486 477 484 481 485 483 481 481 484 483 483 485 482 483 486 487 485 483 485 484 489 492 485 490 485 485 489 474 493 476 507 472 472 469 489 493 482 479 500 487 481 487 479 483 495 481 474 487 492 476 470 469 479 494 492 478 486 496 470 490 500 463 457 463 495 442 439 452 477 470 0 0 0 0 0
0 0 0 0 0 246 245 240 339 0 0 0 0 0 0 0 0 0 0 0 0 2362 0 0 0 0 0 0 0 499 462 468 469 467 464 469 471 473 472 476 473 480 481 479 476 474 476 483 479 480 482 485 481 484 483 481 485 488 489 486 483 485 491 488 487 489 484 489 482 481 478 485 484 484 482 490 494 483 487 489 490 503 495 494 491 500 501 520 477 496 501 490 515 484 506 501 489 510 482 476 478 510 512 483 480 490 501 482 493 496 529 484 485 487 477 0 0 0 0 0
0 0 0 0 242 229 231 231 231 300 382 0 0 0 0 0 0 0 0 0 0 0 0 0 0 0 0 0 0 0 457 464 470 470 472 471 472 470 475 469 474 479 472 472 476 475 481 477 480 475 483 483 485 479 478 484 483 477 483 481 481 484 482 487 481 490 486 487 481 483 487 482 486 473 497 487 491 472 478 488 479 474 478 487 494 480 484 477 485 495 484 500 492 487 473 478 484 494 495 489 497 497 492 496 471 447 451 464 479 485 458 476 453 487 0 0 0 0 0 0
0 0 0 256 227 231 229 229 237 241 361 0 0 0 0 0 0 0 0 0 0 0 0 0 0 0 0 0 0 0 0 491 466 470 471 465 462 468 469 477 472 471 469 470 476 478 472 477 481 486 483 481 479 481 482 481 484 479 481 482 482 487 485 481 485 481 484 480 478 487 491 495 485 495 486 479 486 492 489 483 486 486 502 480 484 488 489 486 502 496 494 486 509 505 498 491 507 523 494 516 506 510 486 511 496 498 529 523 508 491 478 511 535 542 498 0 0 0 0 0
237 248 240 214 242 274 302 230 245 237 321 0 388 399 443 415 443 399 415 438 474 457 424 452 451 443 444 462 431 466 453 463 472 466 467 462 465 465 465 465 464 470 478 469 472 469 478 473 472 476 477 474 472 482 480 487 475 483 480 482 478 479 475 478 478 476 470 474 471 477 473 468 478 470 467 475 478 469 481 486 465 473 473 481 465 480 476 468 475 463 476 488 476 494 485 466 471 471 485 472 483 472 506 481 509 459 447 471 457 463 465 452 459 508 422 0 0 0 0 0
198 214 232 211 229 248 248 228 224 254 369 377 399 388 369 388 388 393 389 411 399 407 424 419 416 430 420 441 435 445 455 451 454 457 450 461 447 460 461 458 456 463 457 463 458 465 465 470 470 472 460 470 467 466 468 472 477 466 470 474 472 463 474 467 466 472 476 474 467 470 464 462 457 462 461 450 447 457 451 446 459 449 456 450 457 450 441 450 447 452 447 443 447 433 457 428 446 446 452 451 452 428 459 442 430 452 429 434 456 413 424 437 414 410 425 424 400 419 0 0
179 190 214 224 231 235 233 228 237 296 372 371 388 366 369 368 384 379 372 389 393 379 396 403 399 407 419 427 431 437 449 445 443 439 440 439 442 452 446 447 451 445 437 444 448 452 453 454 456 454 454 459 459 453 453 461 456 452 458 464 459 459 454 462 458 461 454 456 459 454 458 452 453 440 440 441 431 438 424 433 429 429 424 435 417 436 417 426 430 424 429 424 415 421 436 412 441 422 409 419 419 429 428 425 414 425 415 423 428 402 413 406 403 411 418 441 401 414 389 0
232 238 245 229 221 223 229 227 244 326 309 313 310 325 326 330 346 321 330 329 336 334 350 359 371 380 382 403 403 418 414 419 420 426 423 427 432 430 435 432 427 428 426 431 432 435 428 434 439 439 435 440 432 442 439 445 439 447 437 441 441 441 444 445 436 437 438 434 435 438 434 427 428 419 413 411 404 398 392 391 387 383 394 394 389 400 392 389 384 367 381 370 392 384 402 377 389 383 390 380 382 381 376 368 375 388 374 365 380 395 370 394 366 359 353 346 369 340 383 361
294 265 286 231 239 236 233 250 295 302 308 312 316 308 310 314 308 297 306 328 330 324 336 340 356 366 379 387 392 397 401 400 407 414 409 406 409 405 414 418 421 416 415 416 413 412 412 421 414 419 411 419 421 423 428 428 419 420 422 426 424 423 422 426 418 421 428 422 414 414 411 417 403 404 391 398 383 386 368 361 363 359 368 372 357 358 362 357 359 360 367 354 350 354 370 358 356 361 379 352 370 356 362 367 355 376 350 359 358 357 360 361 356 355 363 383 375 370 328 331
286 288 291 263 264 240 257 282 276 297 277 305 285 294 286 283 289 289 290 284 307 317 327 321 325 353 368 379 368 375 393 387 399 390 393 390 397 393 401 395 395 393 400 398 390 403 401 390 400 396 392 400 401 406 407 396 400 399 398 398 400 407 404 403 396 390 400 392 399 402 390 395 392 388 376 370 356 354 343 342 335 335 337 346 339 341 337 342 332 338 334 336 334 331 336 353 329 330 335 329 339 338 336 349 335 345 325 333 341 334 319 348 344 342 363 341 342 318 331 339
251 245 245 254 249 244 248 248 254 267 260 259 258 267 263 264 266 262 265 277 269 280 283 299 312 319 323 341 349 354 361 362 365 362 357 366 367 369 360 372 368 366 372 375 366 380 371 376 369 376 374 376 376 377 376 379 373 385 381 374 376 376 378 374 380 373 372 372 365 375 371 367 357 352 348 343 334 324 306 303 298 301 308 298 312 313 301 303 298 296 299 302 311 319 299 302 305 300 296 292 310 305 308 305 304 303 306 297 306 289 302 312 322 313 297 305 313 302 280 301
245 222 231 245 240 237 243 248 253 253 244 262 249 257 254 251 247 245 250 258 260 268 271 283 299 307 321 336 337 327 335 337 348 349 342 342 353 344 342 348 348 351 348 350 351 350 351 349 350 346 343 350 350 357 360 354 354 353 361 352 353 350 354 343 354 362 348 356 354 348 349 350 347 346 327 325 317 300 298 287 284 273 290 280 290 282 287 291 292 284 284 284 288 284 283 281 280 285 285 291 291 276 286 289 283 284 285 274 289 297 283 296 305 300 280 284 298 314 300 312
211 220 226 216 224 219 224 220 226 230 238 229 218 224 227 225 235 232 235 240 239 247 250 264 282 282 292 297 301 307 310 315 319 323 317 318 324 322 330 327 323 322 317 320 322 326 328 330 325 323 325 326 327 320 331 327 329 321 330 327 326 330 324 330 331 327 329 329 330 322 322 322 324 306 305 292 287 279 270 268 266 264 255 254 263 260 257 256 252 257 251 262 264 255 261 261 258 256 262 256 261 256 256 259 254 258 259 260 258 271 271 269 258 268 260 277 261 263 278 273
202 207 205 217 216 208 223 213 216 218 212 215 209 210 217 215 215 221 216 225 226 233 241 250 253 261 268 274 283 282 290 290 291 292 293 297 293 298 302 303 296 295 296 299 302 296 304 297 304 305 307 301 299 305 300 301 309 304 309 304 309 306 311 303 304 305 306 302 304 304 295 304 302 289 288 277 263 262 256 250 243 247 245 247 241 248 249 241 240 252 251 246 251 239 242 243 235 239 243 241 238 244 249 240 240 238 238 245 242 237 230 244 234 244 246 237 248 219 227 228
184 177 197 206 203 204 209 208 203 204 206 199 208 191 201 189 211 194 210 211 216 221 234 237 242 249 253 259 272 271 271 272 275 277 273 282 281 281 280 282 278 281 282 286 283 281 282 286 285 287 279 277 278 279 279 286 287 285 284 288 288 290 287 289 288 285 284 290 288 285 280 280 278 273 270 257 253 249 241 235 232 231 232 231 228 227 225 224 227 218 226 227 224 229 223 224 222 224 223 219 221 230 220 220 230 228 222 230 231 229 234 249 244 227 235 238 230 217 245 222
175 175 173 171 186 181 181 200 178 178 185 177 179 186 187 186 182 180 185 187 206 194 221 225 225 228 236 246 246 250 251 254 257 255 261 258 255 257 265 265 266 263 261 267 264 261 264 270 265 266 266 265 261 265 263 272 265 271 266 273 266 261 267 269 267 268 266 269 267 266 267 253 258 260 251 239 239 234 219 221 215 204 216 219 218 217 198 211 213 201 213 214 215 211 212 215 211 212 209 212 217 212 210 214 207 211 206 211 216 209 213 209 218 214 202 208 218 211 198 213
173 176 169 177 173 175 176 181 183 178 176 184 176 180 183 186 183 186 189 179 188 193 191 212 217 222 227 225 235 234 234 245 245 245 237 238 240 241 252 247 244 243 248 248 253 253 246 248 247 251 248 252 250 251 245 252 249 253 253 253 251 251 254 251 245 252 252 250 247 252 246 244 242 243 236 227 225 224 214 214 195 196 195 188 194 193 196 198 196 191 192 192 195 185 187 190 186 203 188 195 183 194 190 193 192 191 201 205 188 201 206 200 210 203 214 198 210 218 217 203
171 174 172 176 176 174 178 177 176 177 175 176 178 178 180 182 176 179 180 184 188 188 187 194 194 206 213 218 217 227 226 226 228 228 229 229 229 232 233 226 230 231 233 233 234 237 233 230 236 232 237 230 237 236 232 234 237 240 234 241 235 242 237 233 235 236 235 230 234 236 236 231 227 222 220 218 198 212 186 187 186 186 192 193 196 184 192 195 194 191 192 183 191 190 183 191 181 191 190 188 175 179 188 183 189 185 188 175 184 183 185 182 193 205 209 193 212 202 217 241
165 163 170 169 172 167 163 170 171 169 167 167 168 166 171 170 174 173 174 179 177 186 188 181 187 185 185 186 193 208 213 213 194 209 213 214 214 202 214 200 213 220 218 216 219 221 217 216 220 219 220 221 222 221 221 217 223 224 222 221 221 222 224 220 218 220 217 216 221 221 223 217 219 211 194 193 188 195 192 191 188 183 187 186 186 182 186 182 182 186 192 181 187 179 186 186 176 179 186 181 185 185 184 181 180 181 181 177 179 178 174 174 175 180 174 189 183 167 171 199
152 156 165 163 163 167 161 169 163 167 159 161 167 163 163 166 167 175 169 177 176 177 180 182 184 190 184 183 194 188 190 189 184 189 187 194 187 193 188 191 193 197 195 199 198 196 195 194 194 198 197 199 197 199 192 194 198 196 195 197 203 196 202 191 195 196 197 195 198 196 200 198 198 199 191 197 187 190 187 182 178 179 177 175 175 178 179 180 176 178 178 178 175 174 178 173 171 171 170 176 174 173 175 173 174 177 174 169 174 172 178 175 179 176 174 176 177 174 190 168
144 146 153 153 161 156 158 160 159 162 160 157 153 154 157 156 156 162 159 163 166 164 176 175 178 178 179 181 183 185 187 186 191 191 189 191 192 190 189 194 194 193 192 190 195 197 196 198 199 194 192 197 196 195 187 194 197 198 195 189 197 198 199 188 190 196 196 195 200 194 198 194 192 194 190 184 187 184 180 174 174 170 166 166 166 168 172 166 170 165 170 168 170 167 168 168 165 163 161 170 167 164 174 165 163 163 158 161 167 164 169 164 168 175 175 163 166 164 176 159
145 143 147 147 149 149 146 150 152 152 150 149 152 154 151 151 153 152 154 160 163 167 170 174 172 173 174 174 175 180 177 179 184 182 181 182 184 181 181 184 183 184 187 188 181 185 187 184 189 189 187 190 189 187 190 187 187 191 0 190 191 188 187 186 190 188 189 185 187 188 185 185 182 180 179 173 173 174 173 166 160 161 163 162 159 162 163 163 166 164 158 160 162 162 160 163 156 159 166 163 158 163 160 157 157 160 157 159 158 161 157 163 153 162 160 161 154 154 166 172
134 141 137 141 143 149 152 144 145 144 146 145 146 146 147 146 146 146 146 151 154 160 163 164 169 168 169 169 167 171 172 173 176 173 170 174 179 172 175 174 177 180 178 176 176 182 177 181 176 177 179 178 183 181 179 180 181 0 0 179 179 181 182 182 180 178 175 178 180 175 178 178 171 174 173 173 168 167 163 160 162 161 154 157 160 159 157 156 153 154 151 153 161 156 153 152 154 155 158 155 157 155 154 157 153 144 147 153 158 160 154 150 152 155 151 164 156 160 164 154
136 133 131 138 144 143 152 141 137 138 140 143 145 138 145 139 142 144 143 146 150 156 155 158 162 159 160 157 165 163 163 165 166 165 165 167 166 169 167 172 173 0 170 168 171 173 168 171 171 168 173 173 175 174 177 0 176 173 0 176 172 0 173 172 172 171 173 165 173 172 166 165 170 170 164 163 165 158 157 153 149 155 153 147 152 150 152 146 149 154 146 150 149 147 151 144 151 148 157 149 146 144 145 145 145 141 144 145 143 141 137 146 140 153 142 142 135 147 141 154
129 126 129 125 133 134 143 138 132 120 133 130 126 137 138 136 135 133 138 142 142 145 150 151 149 158 159 157 158 160 161 158 159 163 159 158 165 164 0 0 0 0 0 0 0 0 0 165 165 165 168 164 166 166 0 0 170 166 169 0 0 0 0 0 168 166 170 0 162 165 163 162 158 162 155 157 152 155 149 152 150 145 150 147 145 150 144 145 146 146 144 148 143 145 141 140 140 146 141 142 141 141 142 138 135 137 137 138 135 146 142 146 141 151 143 139 138 140 145 133
116 120 124 117 130 132 134 131 134 129 133 134 126 127 133 126 122 139 136 137 139 144 150 147 149 150 154 155 153 156 151 155 157 158 154 156 157 0 0 0 0 0 0 0 0 0 0 0 0 161 162 162 0 0 0 0 0 0 0 0 0 0 0 0 161 161 0 0 0 0 0 157 160 158 155 150 150 152 148 144 144 138 146 142 141 140 142 140 146 143 137 139 140 141 138 139 143 141 142 139 137 133 139 134 130 136 136 137 141 140 135 146 140 140 138 135 139 128 140 168
115 107 119 122 127 126 127 130 131 129 132 121 120 118 121 130 131 124 133 134 129 128 134 143 141 142 143 144 143 152 150 150 156 152 151 150 0 0 0 0 0 0 0 0 0 0 0 0 153 155 157 0 0 0 0 0 0 0 0 0 0 0 0 0 0 0 0 0 0 0 0 0 147 150 145 146 146 141 142 145 130 141 128 129 125 127 138 137 130 132 139 138 134 136 118 127 139 136 137 133 135 138 135 132 127 134 130 133 137 137 135 134 137 146 136 138 132 128 111 142
106 109 112 114 112 114 122 120 115 122 115 115 119 115 128 123 120 130 129 116 131 124 130 123 136 138 139 141 144 145 144 144 143 146 147 144 0 0 0 0 0 0 0 0 0 0 0 0 146 0 0 0 0 0 0 0 0 0 0 0 0 0 0 0 0 0 0 0 0 0 0 0 0 142 142 141 140 132 129 132 128 123 123 124 138 121 127 127 123 129 126 123 121 128 124 129 128 133 131 120 120 131 134 118 130 130 128 124 135 138 137 142 129 130 128 129 114 107 141 138
110 110 115 117 115 115 117 116 120 119 113 121 119 117 121 121 119 119 122 116 118 115 121 118 136 129 137 139 0 141 0 0 0 141 135 0 0 0 0 0 0 0 0 0 0 0 0 0 0 0 0 0 0 0 0 0 0 0 0 0 0 0 0 0 0 0 0 0 0 0 0 0 0 142 136 136 128 121 121 124 122 118 123 125 115 122 119 119 119 117 117 123 117 117 113 119 121 120 120 118 121 125 120 124 120 112 118 124 105 126 117 113 126 121 131 121 117 134 164 134
99 100 106 111 106 101 107 104 103 104 112 107 105 107 107 108 109 112 117 110 113 115 111 116 117 122 124 123 120 126 130 0 0 0 126 0 0 0 0 0 0 0 0 0 0 0 0 0 0 0 0 0 0 0 0 0 0 0 0 0 0 0 0 0 0 0 0 0 0 0 0 0 128 0 0 123 123 119 121 118 115 113 107 114 113 115 111 112 111 116 113 114 111 110 110 105 114 112 111 112 116 113 107 116 113 118 107 105 127 102 104 115 99 117 114 107 109 131 119 135
98 100 93 97 101 100 102 104 104 104 102 105 103 104 108 103 106 110 114 107 110 108 108 107 116 111 116 119 119 122 0 128 0 0 0 0 0 0 0 0 0 0 0 0 0 0 0 0 0 0 0 0 0 0 0 0 0 0 0 0 0 0 0 0 0 0 0 0 0 0 0 0 0 123 0 118 119 114 115 112 111 110 105 106 110 112 113 117 110 112 113 114 111 115 107 112 106 107 103 119 109 106 109 105 109 114 107 110 110 116 107 103 115 97 110 120 115 103 107 117
95 103 100 102 99 101 102 92 95 99 98 97 99 96 102 96 103 101 113 116 111 105 99 107 114 107 112 113 117 120 118 115 121 0 0 0 0 0 0 0 0 0 0 0 0 0 0 0 0 0 0 0 0 0 0 0 0 0 0 0 0 0 0 0 0 0 0 0 0 0 0 0 123 121 108 121 114 116 119 116 105 111 104 121 105 105 103 100 102 106 105 107 111 98 101 100 107 104 111 103 105 109 107 103 108 107 106 89 98 93 97 100 101 92 100 84 112 99 100 113
87 81 80 84 85 82 82 95 89 84 87 92 96 94 93 90 82 94 91 88 95 88 102 108 100 104 112 108 0 116 106 107 117 0 0 0 0 0 0 0 0 0 0 0 0 0 0 0 0 0 0 0 0 0 0 0 0 0 0 0 0 0 0 0 0 0 0 0 0 0 0 116 111 111 106 112 110 108 103 100 101 103 98 92 103 95 88 102 105 103 90 94 102 82 83 96 93 101 88 99 90 100 92 92 78 90 95 93 93 89 80 85 86 96 93 105 96 95 99 103
97 85 92 88 100 96 100 108 91 93 96 94 93 94 95 97 100 90 99 97 98 106 106 107 104 108 113 109 0 104 110 112 117 113 120 108 114 0 114 0 0 115 0 0 0 0 0 0 0 0 0 0 0 0 0 0 0 0 0 0 116 0 0 0 112 0 0 0 112 0 111 111 115 113 115 105 108 108 103 98 113 106 105 88 94 100 108 105 102 104 105 105 111 100 99 104 99 92 103 111 106 98 95 105 91 105 103 89 90 87 96 90 87 97 106 97 113 119 122 115
88 93 90 89 99 97 92 93 84 99 85 93 88 95 89 85 98 101 99 97 98 94 96 109 89 103 108 100 100 106 96 102 104 102 99 103 0 115 116 0 108 0 0 0 0 0 0 0 0 0 0 0 0 0 108 0 0 114 0 0 110 106 107 111 112 112 105 100 114 105 110 103 104 99 111 106 101 92 104 95 98 96 101 87 97 90 98 103 106 95 97 105 109 84 95 83 88 90 94 86 93 88 94 95 89 91 95 89 98 92 93 93 91 94 97 88 108 106 119 93
86 87 83 88 92 94 105 92 90 82 91 89 88 92 91 91 91 87 93 91 79 92 95 86 86 92 92 92 105 93 97 101 100 97 94 109 102 103 103 104 106 99 99 110 109 91 0 0 94 0 0 108 106 94 100 111 109 103 111 107 100 106 112 104 101 111 105 98 99 110 98 106 106 102 105 92 97 98 99 92 97 93 93 96 92 92 91 92 96 89 99 90 96 94 94 94 84 93 93 88 92 90 91 92 87 85 96 83 80 96 85 101 90 104 94 110 124 101 126 143
84 80 86 89 84 83 99 100 87 90 87 81 82 91 86 93 88 96 90 98 83 97 95 93 93 96 95 89 100 101 94 84 97 94 99 99 101 100 96 109 105 96 99 106 99 95 105 0 104 104 98 105 96 101 102 104 99 108 97 105 105 92 95 102 103 101 99 103 95 108 95 102 99 95 104 87 97 96 95 97 98 96 85 93 97 100 86 90 94 89 88 96 87 93 82 83 92 92 95 87 82 95 82 89 90 102 99 97 93 86 89 93 107 92 107 113 107 95 95 126
80 74 71 68 83 84 86 86 90 82 88 83 87 80 89 85 87 86 86 84 87 85 93 88 87 83 94 94 86 95 93 95 96 94 93 97 97 86 94 97 94 90 85 90 98 93 89 100 91 90 94 98 85 89 88 83 103 90 99 98 99 82 82 97 95 83 97 99 98 97 95 85 93 93 85 97 94 94 95 97 88 94 83 90 85 91 90 89 87 88 90 79 87 82 88 89 84 94 80 93 82 89 79 71 80 78 82 88 82 84 79 83 80 90 73 94 119 86 72 62
75 75 84 86 74 87 81 90 83 81 84 89 82 84 84 87 88 90 87 86 83 88 85 85 86 86 93 87 95 92 85 95 93 96 86 96 86 92 95 93 94 83 95 90 88 99 92 88 100 90 92 89 97 87 99 97 91 85 90 96 96 99 92 94 92 97 86 97 110 95 96 92 85 83 95 84 84 87 84 93 93 89 87 89 78 85 91 81 95 93 76 92 75 80 94 83 89 89 81 81 93 82 79 81 79 81 85 84 84 87 94 83 80 108 108 95 108 101 82 158
