0 0 0 0 0 0 0 0 0 0 0 0 0 0 0 0 0 0 0 0 0 0 0 0 0 0 0 0 0 0 0 0 0 0 0 0 0 0 0 0 0 0 0 0 0 0 0 0 0 0 0 0 0 0 0 0 0 0 0 0 0 0 0 0 0 0 0 0 0 0 0 0 0 0 0 0 0 0 0 0 0 0 0 0 0 0 0 0 0 0 0 0 0 0 0 0 0 0 0 0 0 0 0 0 0 0 0 0 0 0 0 0 0 0 0 0 0 0 0 0
0 0 0 0 0 0 0 0 0 0 0 0 0 0 0 0 0 0 0 0 0 0 0 0 0 0 0 0 0 0 0 0 0 0 0 0 0 0 0 0 0 0 0 0 0 0 0 0 0 0 0 0 0 0 0 0 0 0 0 0 0 0 0 0 0 0 0 0 0 0 0 0 0 0 0 0 0 0 0 0 0 0 0 0 0 0 0 0 0 0 0 0 0 0 0 0 0 0 0 0 0 0 0 0 0 0 0 0 0 0 0 0 0 0 0 0 0 0 0 0
0 0 0 0 0 0 0 0 0 0 0 0 0 0 0 0 0 0 0 0 0 0 0 0 0 0 0 0 0 0 0 0 0 0 0 0 0 0 0 0 0 0 0 0 0 0 0 0 0 0 0 0 0 0 0 0 0 0 0 0 0 0 0 0 0 0 0 0 0 0 0 0 0 0 0 0 0 0 0 0 0 0 0 0 0 0 0 0 0 0 0 0 0 0 0 0 0 0 0 0 0 0 0 0 0 0 0 0 0 0 0 0 0 0 0 0 0 0 0 0
0 0 0 0 0 0 0 0 0 0 0 0 0 0 0 0 0 0 0 0 0 0 0 0 0 0 0 0 0 0 0 0 0 0 0 0 0 0 0 0 0 0 0 0 0 0 0 0 0 0 0 0 0 0 0 0 0 0 0 0 0 0 0 0 0 0 0 0 0 0 0 0 0 0 0 0 0 0 0 0 0 0 0 0 0 0 0 0 0 0 0 0 0 0 0 0 0 0 0 0 0 0 0 0 0 0 0 0 0 0 0 0 0 0 0 0 0 0 0 0
0 0 0 0 0 0 0 0 0 0 0 0 0 0 0 0 0 0 0 0 0 0 0 0 0 0 0 0 0 0 0 0 0 0 0 0 0 0 0 0 0 0 0 0 0 0 0 0 0 0 0 0 0 0 0 0 0 0 0 0 0 0 0 0 0 0 0 0 0 0 0 0 0 0 0 0 0 0 0 0 0 0 0 0 0 0 0 0 0 0 0 0 0 0 0 0 0 0 0 0 0 0 0 0 0 0 0 0 0 0 0 0 0 0 0 0 0 0 0 0
0 0 0 0 0 0 0 0 0 0 0 0 0 0 0 0 0 0 0 0 0 0 0 0 0 0 0 0 0 0 0 0 0 0 0 0 0 0 0 460 513 520 490 508 501 491 481 509 495 512 512 517 479 507 475 513 0 0 0 0 0 0 0 0 0 0 0 0 0 0 0 0 0 0 0 0 0 0 0 0 0 0 0 0 0 0 0 0 0 0 0 0 0 0 0 0 0 0 0 0 0 0 0 0 0 0 0 0 0 0 0 0 0 0 0 0 0 0 0 0
0 0 0 0 0 0 0 0 0 0 0 0 0 0 0 0 0 0 0 0 0 0 0 0 0 0 0 0 0 0 0 0 0 0 0 0 0 533 505 515 504 514 510 498 511 502 518 511 508 517 501 502 488 504 518 516 503 519 523 534 0 0 0 0 0 0 0 0 0 0 0 0 0 0 0 0 0 0 0 0 0 0 0 0 0 0 0 0 0 0 0 0 0 0 0 0 0 0 0 0 0 0 0 0 0 0 0 0 0 0 0 0 0 0 0 0 0 0 0 0
0 0 0 0 0 0 0 0 0 0 0 0 0 0 0 0 0 0 0 0 0 0 0 0 0 0 0 0 0 0 0 0 0 0 0 499 497 510 504 497 494 499 499 510 487 508 502 504 507 504 512 499 514 497 514 510 506 497 503 506 513 512 474 472 511 0 0 0 0 0 0 0 0 0 0 0 0 0 0 0 0 0 0 0 0 0 0 0 0 0 0 0 0 0 0 0 0 0 0 0 0 0 0 0 0 0 0 0 0 0 0 0 0 0 0 0 0 0 0 0
0 0 0 0 0 0 0 0 0 0 0 0 0 0 0 0 0 0 0 0 0 0 0 0 0 0 0 0 0 0 0 0 0 496 499 505 499 505 492 497 512 511 501 505 510 505 503 508 502 528 499 499 518 511 507 516 520 502 515 510 517 508 521 517 519 516 535 556 604 576 596 575 582 0 600 573 592 610 576 562 0 0 0 0 0 0 0 0 0 0 0 0 0 0 0 0 0 0 0 0 0 0 0 0 0 0 0 0 0 0 0 0 0 0 0 0 0 0 0 0
0 0 0 0 0 0 0 0 0 0 0 0 0 0 0 0 0 0 0 0 0 0 0 0 0 0 0 0 0 0 0 571 524 519 504 512 487 515 508 505 507 506 510 515 494 509 511 505 510 518 513 503 518 512 506 510 515 510 497 521 513 513 515 511 514 512 507 518 531 627 608 637 558 608 619 605 591 625 569 609 601 613 589 655 0 614 0 622 650 651 649 653 612 608 606 610 618 576 646 619 0 614 615 566 0 0 0 0 0 0 0 0 0 0 0 0 0 0 0 0
0 0 0 0 0 0 0 0 0 0 0 0 0 0 0 0 0 0 0 0 0 0 0 0 0 0 0 0 0 0 512 501 508 481 484 486 493 504 498 506 508 501 507 506 503 502 511 507 507 499 503 504 494 513 511 512 502 503 494 514 506 500 510 514 509 509 525 513 501 524 521 551 547 559 569 586 551 587 567 590 523 562 622 592 569 575 559 533 590 566 583 593 576 547 578 585 571 579 559 605 560 544 599 599 576 556 578 0 0 0 0 0 0 0 0 0 0 0 0 0
0 0 0 0 0 0 0 0 0 0 0 0 0 0 0 0 0 0 0 0 0 0 0 0 0 0 0 0 582 508 490 492 507 509 507 502 503 503 498 506 510 500 501 506 507 507 513 507 502 517 500 509 505 518 509 509 501 515 507 511 511 504 516 518 514 510 507 503 512 525 527 571 583 563 599 613 540 590 599 590 602 577 579 587 607 605 589 582 585 576 583 633 597 584 630 589 589 593 616 573 619 596 601 555 617 641 598 607 643 0 0 0 0 0 0 0 0 0 0 0
0 0 0 0 0 0 0 0 0 0 0 0 0 0 0 0 0 0 0 0 0 0 0 0 0 0 0 475 497 501 495 490 513 498 501 490 498 504 508 497 503 508 506 496 499 495 504 507 508 511 503 507 514 506 514 504 502 503 507 510 513 510 504 510 508 503 506 513 509 520 515 511 562 573 568 551 552 587 549 565 541 519 538 540 564 531 578 532 587 553 602 523 569 565 591 573 576 536 575 535 552 577 551 549 569 532 545 543 0 0 0 0 0 0 0 0 0 0 0 0
0 0 0 0 0 0 0 0 0 0 0 0 0 0 0 0 0 0 0 0 0 0 0 0 0 0 490 497 486 502 490 492 494 484 501 496 491 499 494 503 493 500 492 491 498 511 499 497 489 488 504 505 511 499 502 505 501 501 510 511 502 505 501 499 504 513 505 501 504 506 507 507 526 500 526 524 506 520 483 521 564 523 537 494 524 533 510 523 545 535 533 521 478 524 526 562 521 517 543 516 518 500 508 529 539 495 518 476 523 475 0 0 0 0 0 0 0 0 0 0
0 0 0 0 0 0 0 0 0 0 0 0 0 0 0 0 0 0 0 0 0 0 0 0 0 492 503 489 503 499 503 499 485 494 492 493 499 500 502 497 507 506 507 504 500 504 504 510 501 507 500 504 506 504 502 505 498 506 504 504 511 511 510 510 513 508 511 503 513 513 506 520 505 541 565 580 525 542 560 558 569 551 535 536 536 555 541 554 581 540 553 559 550 550 576 566 617 567 543 546 554 556 588 533 574 610 567 556 541 534 523 0 0 0 0 0 0 0 0 0
0 0 0 0 0 0 0 0 0 0 0 0 0 0 0 0 0 0 0 0 0 0 0 0 0 481 497 486 496 494 492 489 494 499 480 484 488 501 496 494 508 498 502 495 494 492 509 504 489 499 497 497 510 503 501 498 505 507 498 512 504 498 502 500 503 504 512 508 500 494 503 510 513 509 512 502 505 494 508 494 525 540 530 512 478 477 502 511 511 487 533 517 534 537 530 511 541 529 489 545 515 528 502 513 550 520 499 495 497 0 0 0 0 439 0 0 0 0 0 0
0 0 0 0 0 0 0 0 0 0 0 0 0 0 0 0 0 0 0 0 0 0 0 0 494 488 486 484 503 499 499 504 494 497 498 498 510 500 506 501 498 506 504 498 496 504 500 499 501 501 503 499 500 504 500 514 506 504 507 504 503 504 508 514 504 516 505 502 507 514 506 508 516 513 527 560 522 550 523 539 532 532 517 535 561 543 516 542 543 554 553 525 554 536 557 550 524 551 543 553 519 559 536 573 534 516 523 502 483 530 526 0 0 0 0 0 0 0 0 0
0 0 0 0 0 0 0 0 0 0 0 0 0 0 0 0 0 0 0 0 0 0 0 0 510 490 496 493 498 490 495 494 501 501 498 498 506 495 498 503 499 496 511 494 506 511 507 496 500 505 500 504 503 507 511 503 504 506 507 504 513 505 511 520 512 508 508 509 505 507 506 510 513 516 512 549 528 576 558 541 562 595 561 552 550 549 577 558 546 540 566 544 565 591 608 568 591 559 572 543 576 532 599 574 570 560 565 553 569 554 0 0 0 0 0 0 0 0 0 0
0 0 0 0 0 0 0 0 0 0 0 0 0 0 0 0 0 0 0 0 0 0 0 443 491 495 500 490 487 497 496 500 494 490 497 488 508 502 498 492 503 493 498 498 495 505 506 497 500 505 502 504 502 509 500 502 505 499 495 508 516 494 505 506 506 503 509 513 510 509 501 504 492 500 510 496 526 529 531 553 513 518 504 513 511 561 537 535 525 517 539 541 524 535 548 519 494 537 561 550 523 529 529 546 518 538 523 510 511 542 513 0 0 0 0 0 0 0 0 0
0 0 0 0 0 0 0 0 0 0 0 0 0 0 0 0 0 0 0 0 0 0 0 510 498 493 486 495 487 498 500 496 505 501 498 501 490 495 492 505 490 508 504 498 502 504 500 509 501 509 505 502 506 512 503 514 510 513 509 506 506 506 510 506 505 498 510 508 507 520 515 510 514 513 516 519 544 535 551 563 564 551 542 562 519 560 559 555 565 576 540 541 563 578 586 562 582 575 578 568 574 575 587 564 569 564 575 527 562 530 543 590 0 0 0 0 0 0 0 0
0 0 0 0 0 0 0 0 0 0 0 0 0 0 0 0 0 0 0 0 0 0 459 495 492 491 487 488 500 482 492 508 495 497 490 490 495 490 498 494 494 500 491 507 494 490 502 496 493 502 494 503 498 499 501 499 506 505 501 499 495 512 510 505 504 505 500 511 493 507 505 507 511 506 505 506 528 530 527 540 503 515 516 504 522 528 534 518 509 529 535 540 552 540 519 519 520 519 531 540 552 530 525 499 536 491 517 530 557 508 552 525 516 0 0 0 0 0 0 0
0 0 0 0 0 0 0 0 0 0 0 0 0 0 0 0 0 0 0 0 0 0 464 485 487 483 488 484 496 491 491 488 493 486 491 488 487 495 490 489 495 488 497 505 499 502 498 498 498 495 503 500 496 506 496 501 506 497 499 504 508 512 500 508 506 508 506 512 514 500 503 502 505 509 498 512 514 514 498 494 506 506 503 514 501 512 494 518 512 542 522 516 512 540 512 541 494 532 521 497 488 514 494 508 483 527 538 522 506 508 472 488 0 0 0 0 0 0 0 0
0 0 0 0 0 0 0 0 0 0 0 0 0 0 0 0 0 0 0 0 0 0 477 489 487 488 490 492 479 488 495 484 492 488 490 481 486 498 495 499 496 501 502 505 499 499 498 495 490 501 490 499 498 494 503 503 502 507 509 499 507 513 508 509 503 500 508 512 510 497 506 503 513 505 513 509 513 523 532 527 510 524 529 522 517 513 568 511 545 542 515 530 543 528 547 552 518 522 506 530 537 551 523 536 498 541 548 529 546 560 555 564 502 0 0 0 0 0 0 0
0 0 0 0 0 0 0 0 0 0 0 0 0 0 0 0 0 0 0 0 0 0 475 487 486 481 488 491 484 486 490 483 482 497 485 482 486 490 493 496 497 494 496 493 493 489 497 498 496 499 495 502 504 502 500 501 504 497 505 498 507 505 501 502 497 495 496 501 498 500 503 507 499 496 495 505 509 506 507 518 519 513 508 482 505 505 516 488 485 517 502 471 486 463 481 497 476 492 484 476 479 500 491 515 499 533 517 483 476 489 484 482 504 0 0 0 0 0 0 0
0 0 0 0 0 0 0 0 0 0 0 0 0 0 0 0 0 0 0 0 0 0 489 482 486 495 492 492 487 498 488 490 491 487 491 493 488 486 488 494 494 498 499 504 495 494 492 496 507 505 496 502 505 499 504 504 506 501 500 501 505 508 503 509 506 507 506 500 506 505 507 497 504 510 509 505 502 523 516 493 523 503 492 507 500 514 515 541 529 527 528 525 524 525 534 550 485 532 549 539 528 516 512 538 539 551 551 523 489 543 516 527 541 0 0 0 0 0 0 0
0 0 0 0 0 0 0 0 0 0 0 0 0 0 0 0 0 0 0 0 0 0 483 481 490 485 489 489 493 484 495 489 495 492 503 484 487 490 498 492 492 495 493 493 491 491 493 499 500 498 497 499 501 506 505 500 506 500 507 503 501 497 503 505 507 506 502 503 500 502 502 503 506 504 509 508 509 519 525 512 524 525 523 510 530 541 526 551 541 580 538 532 574 551 532 542 549 559 541 541 518 546 526 551 551 552 599 564 605 0 566 610 610 0 0 0 0 0 0 0
0 0 0 0 0 0 0 0 0 0 0 0 0 0 0 0 0 0 0 0 0 445 488 496 485 483 498 485 505 482 482 491 479 496 491 479 501 493 489 498 491 499 491 488 494 494 498 500 492 492 500 498 499 503 501 500 497 506 504 498 505 506 504 504 508 499 505 508 502 500 508 498 501 514 505 505 507 517 496 508 516 508 523 486 515 513 500 520 521 507 507 493 525 514 508 501 491 509 520 508 513 479 505 504 527 519 531 523 517 510 499 0 0 0 0 0 0 0 0 0
0 0 0 0 0 0 0 0 0 0 0 0 0 0 0 0 0 0 0 0 0 451 487 480 488 495 484 488 486 482 484 484 486 491 485 500 489 489 492 489 500 497 497 493 493 498 494 494 502 497 499 499 501 498 505 497 502 507 499 507 503 502 498 500 504 509 502 508 509 500 504 505 502 505 514 507 504 515 536 531 536 543 537 536 563 538 545 534 525 570 521 518 591 518 571 547 543 535 515 556 528 516 547 540 529 534 557 535 536 533 561 510 560 0 0 0 0 0 0 0
0 0 0 0 0 0 0 0 0 0 0 0 0 0 0 0 0 0 0 0 0 503 475 474 489 483 488 487 482 481 479 481 482 492 484 486 486 490 484 489 491 492 489 492 488 491 492 491 498 497 495 495 496 499 495 500 496 497 506 502 505 497 505 504 500 500 505 503 504 508 502 500 498 510 505 499 505 501 510 519 507 518 504 504 508 491 503 496 534 512 535 499 498 515 489 512 522 516 514 540 513 519 503 510 515 486 499 506 487 468 502 526 475 0 478 0 0 0 0 0
0 0 0 0 0 0 0 0 0 0 0 0 0 0 0 0 0 0 0 0 0 436 477 470 481 481 486 478 484 489 483 484 481 490 484 487 485 488 489 491 489 493 487 498 494 495 493 498 495 488 494 498 499 503 500 499 500 497 502 496 497 495 497 500 501 499 501 505 499 502 496 503 501 498 503 497 502 507 508 505 512 475 499 514 497 496 491 494 494 506 500 462 485 498 489 489 462 514 496 471 484 492 475 498 526 492 504 482 466 494 494 458 519 0 0 0 0 0 0 0
0 0 0 0 0 0 0 0 0 0 0 0 0 0 0 0 0 0 0 0 0 455 490 478 482 475 478 476 485 485 483 484 486 490 485 481 487 489 493 489 491 494 488 493 497 491 494 491 490 491 497 499 495 502 499 495 493 495 498 504 501 503 499 502 502 500 499 501 507 503 499 508 498 507 502 497 502 508 493 501 496 495 505 537 517 511 505 510 503 504 508 476 501 502 486 508 510 512 502 519 505 520 469 498 502 529 529 487 499 535 478 508 478 0 0 0 0 0 0 0
0 0 0 0 0 0 0 0 0 0 0 0 0 0 0 0 0 0 0 0 0 443 470 478 478 480 478 479 478 482 480 482 481 481 481 486 487 489 482 489 492 492 490 491 488 490 494 492 498 492 489 495 494 499 493 501 496 494 498 494 497 493 500 499 503 500 498 500 501 501 500 499 502 504 497 502 497 494 486 486 480 503 489 499 479 489 491 489 481 485 481 486 473 495 496 503 475 457 480 490 473 477 480 473 470 490 464 465 500 515 463 481 552 0 0 0 0 0 0 0
0 0 0 0 0 0 0 0 0 0 0 0 0 0 0 0 0 0 0 0 0 449 478 479 479 473 476 477 482 481 486 483 482 478 478 487 489 493 487 489 492 489 488 495 489 490 488 492 494 493 498 492 494 501 495 499 494 500 499 496 499 497 496 496 498 501 503 499 499 501 502 497 503 506 498 497 503 504 510 499 515 491 518 507 518 507 503 491 485 497 488 509 493 488 499 507 495 515 514 488 524 508 502 549 526 499 507 489 521 487 517 509 544 560 0 0 0 0 0 0
0 0 0 0 0 0 0 0 0 0 0 0 0 0 0 0 0 0 0 0 0 495 473 475 479 479 485 477 477 478 478 488 481 487 483 487 485 487 494 497 484 490 485 496 491 493 487 492 492 491 492 494 492 498 497 500 496 492 494 498 501 495 504 497 497 501 499 501 497 500 502 496 495 497 498 495 501 498 507 509 516 514 511 515 513 527 511 498 520 501 508 519 509 517 518 509 509 498 510 538 536 526 545 512 531 562 528 511 543 525 508 533 540 0 0 0 0 0 0 0
0 0 0 0 0 0 0 0 0 0 0 0 0 0 0 0 0 0 0 0 0 440 473 474 477 477 476 476 479 482 477 485 481 490 482 485 490 484 492 486 487 489 485 488 489 491 492 495 493 495 497 493 493 495 494 494 499 499 493 496 495 503 499 496 499 503 499 501 499 499 501 501 496 500 500 496 504 501 506 502 492 503 511 489 508 489 490 507 484 489 488 497 493 502 497 487 505 498 514 487 502 518 499 453 534 517 476 530 504 478 512 514 468 529 0 0 0 0 0 0
0 0 0 0 0 0 0 0 0 0 0 0 0 0 0 0 0 0 0 0 0 474 472 478 476 485 480 477 482 480 481 485 480 480 483 485 486 485 485 491 493 491 489 488 490 490 492 492 496 499 494 493 499 493 497 498 494 503 498 497 501 499 502 499 502 499 503 507 500 500 506 496 499 505 500 497 505 501 515 493 521 551 507 516 508 514 530 522 524 507 540 520 526 497 508 526 575 521 527 516 532 514 517 542 569 542 499 522 524 500 545 526 561 552 0 0 0 0 0 0
0 0 0 0 0 0 0 0 0 0 0 0 0 0 0 0 0 0 0 0 0 464 473 468 483 471 481 476 481 480 480 486 479 487 483 489 486 481 483 488 483 488 488 484 490 491 488 489 488 496 490 497 493 494 495 494 494 495 493 497 500 497 498 495 498 493 494 501 498 497 496 492 499 499 505 497 488 495 497 497 504 501 485 474 485 496 497 500 507 485 480 504 502 492 506 477 496 484 508 505 518 513 510 497 486 490 489 495 459 477 478 452 523 481 0 0 0 0 0 0
0 0 0 0 0 0 0 0 0 0 0 0 0 0 0 0 0 0 0 0 0 0 473 472 474 482 473 478 477 479 473 485 481 483 482 480 491 480 486 489 484 485 486 487 486 489 495 489 495 491 491 491 496 496 493 496 495 494 491 492 496 501 497 496 499 501 498 495 499 494 497 494 497 497 493 493 492 494 489 504 480 494 489 485 492 500 483 499 483 497 512 489 498 492 495 492 456 510 491 486 476 495 471 467 521 471 441 490 510 456 456 473 429 422 468 0 0 0 0 0
0 0 0 0 0 0 0 0 0 0 0 0 0 0 0 0 0 0 0 0 0 0 502 483 470 480 478 474 476 479 482 482 480 483 484 483 479 483 491 486 483 484 490 490 489 490 488 493 494 491 500 494 493 493 491 494 494 492 495 494 500 499 489 496 498 498 502 496 499 497 501 495 502 494 496 498 499 513 513 490 518 532 520 513 540 511 519 503 514 528 553 511 533 494 529 516 527 500 525 497 500 492 518 480 507 508 509 490 524 523 522 498 467 532 0 0 0 0 0 0
0 0 0 0 0 0 0 0 0 0 0 0 0 0 0 0 0 0 0 0 0 0 498 466 467 481 480 475 481 472 480 478 478 483 482 486 485 481 480 481 486 482 484 486 492 485 488 489 491 490 496 491 492 497 493 498 495 492 490 497 497 497 494 493 496 499 501 500 496 492 493 490 495 494 492 491 499 499 493 491 493 501 504 510 507 498 508 495 508 516 531 503 511 493 502 501 498 471 505 501 476 492 505 486 513 486 502 502 505 486 480 455 454 521 440 0 0 0 0 0
0 0 0 0 0 0 0 0 0 0 0 0 0 0 0 0 0 0 0 0 0 0 584 476 474 476 477 480 480 477 480 476 476 476 479 483 484 484 483 485 487 493 487 488 492 486 491 490 493 491 493 495 491 493 492 496 493 497 498 496 492 498 497 498 499 499 501 498 495 499 497 494 491 502 487 495 495 494 498 489 498 497 532 499 527 507 514 510 519 500 505 511 516 530 510 518 521 531 532 515 515 503 507 508 484 509 500 498 513 526 490 498 499 527 0 0 0 0 0 0
0 0 0 0 0 0 0 0 0 0 0 0 0 0 0 0 0 0 0 0 0 0 771 483 468 477 472 484 473 476 476 487 480 480 476 479 479 483 482 485 492 485 485 487 492 489 488 489 496 490 493 492 492 489 491 494 494 497 497 499 493 491 491 497 499 498 494 500 499 496 500 494 497 497 493 494 496 489 490 504 519 500 490 494 507 506 502 499 504 507 494 513 503 522 533 503 533 538 543 520 508 525 497 521 500 493 524 489 506 529 528 529 0 0 0 0 0 0 0 0
0 0 0 0 0 0 0 0 0 0 0 0 0 0 0 0 0 0 0 0 0 0 0 490 472 475 472 476 480 472 478 477 477 482 481 478 481 481 484 481 482 484 490 485 484 488 490 490 492 495 489 490 489 490 495 497 498 493 500 495 492 493 493 494 493 497 493 499 501 497 497 491 496 495 494 490 489 483 484 504 500 497 494 487 496 488 511 497 505 501 495 506 497 517 513 528 528 527 494 487 541 520 520 522 494 489 481 480 483 508 510 540 473 494 0 0 0 0 0 0
0 0 0 0 0 0 0 0 0 0 0 0 0 0 0 0 0 0 0 0 0 0 0 521 466 478 474 477 477 474 478 480 481 478 482 484 482 482 479 484 484 482 488 486 493 491 489 491 493 487 493 494 491 488 497 489 496 493 492 495 496 494 492 500 500 496 498 497 493 494 496 493 496 498 495 495 493 518 499 501 509 519 509 511 507 505 509 518 523 520 523 515 501 507 517 525 526 527 508 520 532 512 543 531 511 494 509 486 493 521 498 479 527 592 514 0 0 0 0 0
0 0 0 0 0 0 0 0 0 0 0 0 0 0 0 0 0 0 0 0 0 0 0 0 474 468 466 472 473 470 479 475 470 478 477 476 476 485 479 479 485 485 482 485 488 488 490 487 492 494 487 492 489 492 487 496 491 495 489 491 493 489 494 494 498 493 494 496 492 497 500 490 496 492 493 490 486 501 498 493 496 514 488 511 513 509 503 496 498 494 493 498 496 479 511 499 495 498 483 487 494 497 467 497 486 490 535 500 477 465 472 467 492 445 490 469 0 0 0 0
0 0 0 0 0 0 0 0 0 0 0 0 0 0 0 0 0 0 0 0 0 0 0 0 502 467 472 471 466 475 481 472 473 472 476 481 480 477 481 486 483 477 479 485 484 480 489 487 491 493 489 495 491 496 490 489 494 490 492 492 492 492 496 493 493 497 492 494 495 490 498 495 491 494 494 492 494 488 475 507 487 483 482 487 507 480 488 494 482 511 491 483 495 502 519 496 520 488 485 492 477 507 493 467 492 474 474 449 460 451 449 493 456 442 427 519 0 0 0 0
0 0 0 0 0 0 0 0 0 0 0 0 0 0 0 0 0 0 0 0 0 0 0 0 0 480 468 475 468 466 472 474 477 476 475 475 479 478 478 482 480 481 484 484 484 486 491 482 485 488 491 487 488 488 485 488 487 487 491 491 494 498 495 497 494 495 492 496 491 497 490 490 494 490 490 484 486 491 492 501 489 481 513 502 487 491 482 491 505 516 486 487 491 491 503 512 505 491 506 499 498 502 505 493 449 506 475 502 486 490 485 480 515 487 0 0 0 0 0 0
0 0 0 0 0 0 0 0 0 0 0 0 0 0 0 0 0 0 0 0 0 0 0 0 0 497 464 461 465 473 467 472 468 478 474 470 474 478 481 474 477 480 479 480 482 478 474 480 484 486 481 484 481 488 488 485 486 485 489 489 488 491 492 489 489 487 496 489 496 490 494 485 496 489 493 476 471 470 483 472 481 483 480 481 484 478 492 480 477 481 484 478 475 476 458 491 461 464 491 456 476 477 468 485 448 440 440 445 450 452 405 463 418 419 0 0 0 0 0 0
0 0 0 0 0 0 0 0 0 0 0 0 0 0 0 0 0 0 0 0 0 0 0 0 0 0 482 471 467 471 463 471 472 473 475 477 478 479 477 479 472 481 479 474 484 487 487 483 489 486 489 486 486 490 494 484 483 488 489 491 486 493 489 493 494 494 491 487 492 491 492 494 490 490 490 494 480 485 499 479 501 487 484 491 480 494 482 467 486 500 494 497 496 491 491 494 487 477 507 505 510 494 476 487 481 465 492 456 468 477 476 491 525 504 436 0 0 0 0 0
0 0 0 0 0 0 0 0 0 0 0 0 0 0 0 0 0 0 0 0 0 0 0 0 0 0 0 469 469 468 466 475 473 472 476 475 475 476 475 479 482 483 479 480 476 485 481 480 486 482 485 485 484 484 486 480 487 488 483 491 489 489 495 489 485 493 485 495 489 493 493 482 485 484 486 491 494 496 494 494 483 489 506 504 484 477 501 480 485 490 494 513 516 503 499 501 484 498 512 507 516 533 500 479 496 492 484 500 492 499 462 518 489 498 0 0 0 0 0 0
0 0 0 0 0 0 0 0 0 0 0 0 0 0 0 0 0 0 0 0 0 0 0 0 0 0 0 492 463 464 464 467 472 468 476 470 475 475 471 476 475 474 477 478 482 472 482 481 483 486 482 483 485 485 480 483 488 481 485 491 487 486 487 488 485 491 490 485 486 490 486 485 484 475 489 495 492 481 483 487 486 481 486 479 502 491 483 500 490 486 500 494 487 496 475 513 485 484 488 509 495 502 476 479 452 435 487 448 482 432 440 498 461 487 441 0 0 0 0 0
0 0 0 0 0 0 0 0 0 0 0 0 0 0 0 0 0 0 0 0 0 0 0 0 0 0 0 0 525 471 466 471 474 471 476 472 478 477 474 473 480 483 481 480 478 479 477 482 484 483 488 482 485 485 484 479 484 486 485 489 489 488 487 485 490 484 487 486 492 485 487 490 478 485 496 493 491 489 499 485 484 481 492 482 494 489 497 498 497 496 510 506 508 483 486 513 481 502 511 499 519 521 508 505 498 508 507 491 490 473 499 501 505 490 525 0 0 0 0 0
0 0 0 0 0 261 242 255 300 0 0 0 0 0 0 0 0 0 0 0 0 2356 0 0 0 0 0 0 0 490 459 470 467 470 461 470 475 470 470 476 472 478 479 470 475 477 477 476 480 476 480 478 481 481 484 482 483 486 482 483 482 483 487 485 481 487 483 481 476 486 477 485 480 489 472 486 490 475 483 471 486 488 489 487 488 481 488 489 479 486 483 488 496 489 487 475 464 485 486 487 475 487 492 468 466 478 488 482 477 459 483 461 462 469 490 0 0 0 0 0
0 0 0 0 241 235 230 230 241 282 363 0 0 0 0 0 0 0 0 0 0 0 0 0 0 0 0 0 0 0 440 457 464 474 466 469 470 469 475 467 475 475 467 471 481 474 477 481 480 483 478 482 479 483 481 480 481 482 483 479 479 480 485 485 482 484 484 484 476 480 475 473 478 477 471 490 472 473 469 471 493 486 480 481 467 476 473 473 485 474 478 479 481 460 468 499 461 468 485 483 487 466 474 462 484 457 462 442 442 453 471 431 435 389 0 0 0 0 0 0
0 0 0 230 219 227 226 223 235 240 328 0 0 0 0 0 0 0 0 0 0 0 0 0 0 0 0 0 0 0 0 466 462 470 469 466 466 470 464 472 469 472 469 475 474 474 472 472 474 472 480 476 480 478 478 481 482 481 479 479 480 485 478 482 476 474 480 475 481 476 480 481 484 486 478 487 485 484 472 482 489 478 479 483 489 469 498 481 496 491 474 471 497 490 511 477 494 457 486 491 468 484 479 476 450 462 451 451 472 469 456 452 437 424 446 0 0 0 0 0
207 199 214 224 216 281 266 233 226 239 317 0 365 399 391 407 403 411 400 419 430 452 414 426 432 434 439 452 442 447 444 459 458 465 464 460 464 464 465 463 463 473 475 466 476 474 474 471 472 474 469 475 475 475 478 478 475 479 483 481 480 479 477 478 475 477 476 472 481 472 481 471 462 466 467 465 463 468 462 459 466 460 475 474 454 469 467 476 461 471 471 462 473 454 479 456 452 461 459 472 460 457 447 448 464 418 461 434 444 447 445 472 423 435 404 0 0 0 0 0
193 181 225 225 251 236 261 230 229 250 346 415 390 396 380 407 412 398 404 408 415 405 429 431 423 422 425 430 432 445 455 453 453 457 452 459 460 467 460 460 463 462 461 465 459 469 472 470 468 474 470 465 472 466 472 472 468 468 466 469 472 474 479 472 473 471 478 474 470 471 468 468 467 473 469 452 454 454 457 469 455 461 455 464 457 454 445 452 464 452 454 451 451 441 450 462 445 467 452 477 450 437 452 448 429 429 460 434 435 439 448 437 451 411 434 413 441 0 0 0
205 173 223 212 229 231 232 231 226 326 376 376 362 358 368 384 385 379 380 380 389 389 394 399 407 408 423 432 427 443 442 445 440 444 442 449 438 446 443 452 440 447 446 454 451 456 450 458 465 460 456 457 455 454 457 462 459 462 458 459 463 463 451 461 462 467 463 454 456 456 455 452 443 448 433 437 432 441 428 434 443 429 432 437 427 435 435 428 440 423 429 437 443 441 437 422 428 443 432 425 437 435 428 438 440 410 416 419 427 455 441 420 416 442 439 451 425 456 0 0
267 278 238 215 230 228 230 234 252 331 331 332 332 337 331 329 326 335 353 334 332 348 360 370 377 374 395 400 411 417 416 424 421 427 430 433 438 435 434 428 430 435 434 428 432 440 438 436 439 441 450 438 446 439 439 447 447 444 439 443 447 443 440 446 434 450 441 443 444 440 432 431 431 430 415 412 407 404 390 404 398 389 400 395 394 396 398 395 396 402 390 382 413 402 400 391 388 390 390 394 387 389 399 391 403 390 387 386 384 384 384 369 400 385 379 384 420 410 347 401
311 304 296 244 236 234 234 248 314 324 324 308 330 316 323 314 324 320 320 319 330 336 342 352 353 375 384 390 397 399 407 408 404 410 411 422 413 418 417 416 417 416 414 412 418 416 417 426 421 417 416 423 422 425 428 422 426 427 425 424 418 429 417 422 423 418 430 424 422 418 412 413 406 407 401 397 393 377 374 375 375 365 369 374 364 359 365 376 362 372 370 370 372 369 376 368 358 370 366 373 363 353 373 385 365 383 363 377 357 374 362 382 395 366 398 381 410 411 347 326
290 281 286 279 254 249 256 265 278 284 285 276 275 286 284 279 291 291 289 287 307 301 316 324 333 342 363 375 368 380 385 391 391 390 384 386 392 396 394 398 396 389 388 391 381 395 389 394 390 395 396 401 398 400 406 394 401 395 403 400 396 402 398 395 394 384 397 391 397 402 393 388 386 389 382 356 360 350 338 339 339 335 331 325 329 329 336 343 340 336 338 338 330 340 329 328 322 334 327 332 335 327 329 343 333 366 344 335 333 327 325 329 337 323 323 317 327 369 353 326
259 243 245 234 252 244 247 254 261 256 259 260 257 262 264 258 259 270 266 269 275 285 295 303 315 317 330 341 349 356 358 365 370 362 357 362 364 375 368 370 376 370 366 371 370 372 374 368 361 377 376 373 369 373 374 378 375 375 380 377 380 376 373 375 369 373 378 376 366 370 368 359 363 358 352 342 334 311 323 316 308 296 306 300 307 305 309 299 296 292 300 306 306 304 302 303 282 292 289 303 303 296 304 293 304 298 311 298 291 303 305 295 299 305 281 290 291 306 308 304
225 230 232 236 233 230 238 232 248 250 230 236 239 247 243 253 243 240 244 252 256 268 272 286 297 299 318 325 328 335 328 338 346 341 344 340 343 346 342 346 353 346 350 343 350 342 344 348 349 344 337 353 350 348 353 350 344 356 354 350 353 353 354 340 353 353 346 345 352 347 344 339 342 330 329 330 307 294 286 291 289 274 281 276 281 280 276 287 288 277 277 289 288 285 278 273 275 277 280 284 280 274 275 278 266 278 271 279 273 277 286 280 288 278 273 287 293 287 278 308
207 215 219 221 226 217 227 223 212 228 229 227 224 223 223 226 224 222 232 240 240 241 256 259 275 281 296 296 301 298 312 309 316 319 311 316 317 320 322 325 324 313 316 315 326 318 327 324 323 329 322 321 330 323 325 323 332 322 328 321 325 328 327 330 327 324 325 324 326 323 325 316 319 312 302 291 283 273 273 264 268 265 255 262 260 253 257 249 256 252 249 260 265 252 259 255 265 241 250 252 255 251 260 264 249 254 250 260 260 263 259 245 259 248 266 271 251 258 246 265
209 197 202 215 214 213 216 218 213 216 211 211 210 210 210 219 223 219 220 225 234 236 245 250 251 264 271 275 279 287 287 296 297 295 293 294 294 306 308 306 294 296 305 300 304 296 304 301 304 306 312 301 297 304 299 302 305 308 303 305 306 299 310 308 308 311 306 306 303 304 297 303 302 289 285 275 269 265 257 253 253 248 243 251 246 247 252 245 243 241 248 244 243 236 245 238 237 237 244 243 244 243 250 251 245 242 245 251 244 249 239 253 251 239 245 256 232 262 259 248
183 201 201 199 199 207 210 211 200 205 206 198 206 191 203 186 207 205 212 210 217 225 232 225 244 245 248 259 266 267 271 269 269 274 280 278 280 285 285 284 280 284 285 290 291 286 283 285 285 286 286 277 280 284 284 286 292 291 287 287 285 291 287 285 290 289 281 285 287 287 283 286 280 270 268 263 256 248 240 237 235 229 234 229 230 232 234 226 228 228 231 234 225 229 228 225 228 220 223 223 223 234 232 230 232 223 231 223 233 235 249 232 238 242 260 242 251 227 257 262
180 179 171 179 182 197 200 183 182 183 183 185 178 182 189 187 188 190 189 207 211 215 221 235 233 235 237 240 244 251 261 262 256 257 257 258 258 265 263 268 264 263 266 269 261 261 267 270 262 271 265 266 262 263 268 265 268 269 263 275 272 268 266 271 264 270 274 268 270 267 268 259 255 258 255 244 235 228 228 221 219 218 220 215 198 217 216 216 217 216 211 219 218 197 214 216 216 210 215 213 223 219 212 215 214 209 217 217 214 224 217 223 226 227 223 216 235 232 235 207
170 169 171 177 176 170 171 178 182 176 185 186 181 181 181 187 184 186 189 189 189 190 187 216 213 224 220 222 229 232 236 244 246 241 239 242 238 245 249 249 247 243 247 251 251 253 250 246 249 254 246 251 248 251 244 249 252 252 251 252 256 248 251 252 243 251 250 247 243 249 246 240 245 241 238 230 226 216 214 200 197 198 195 190 195 190 193 198 192 197 193 193 196 185 195 193 189 212 190 194 205 206 191 195 188 197 202 202 202 206 203 204 218 200 213 225 213 209 226 232
165 167 173 172 177 175 175 175 174 183 170 172 175 179 176 178 181 180 188 184 188 187 180 193 211 208 214 219 217 222 228 225 225 226 227 233 227 234 227 227 230 230 234 233 235 237 230 229 236 234 231 233 234 231 233 234 239 237 241 237 236 237 238 237 233 233 237 226 232 233 233 233 228 225 220 215 196 195 189 188 194 196 193 192 187 183 184 191 192 190 190 182 189 190 190 184 182 184 188 185 187 181 180 180 186 180 182 178 175 178 185 198 193 198 196 198 205 213 209 201
163 165 173 170 172 171 169 167 170 165 168 164 168 171 171 175 169 174 174 177 178 185 190 182 187 183 185 193 208 209 215 212 213 211 214 215 215 216 211 198 216 218 219 215 222 223 220 222 219 223 221 222 218 219 224 222 221 220 219 222 220 224 219 219 216 219 220 217 218 220 224 202 216 197 196 192 187 189 190 190 188 182 189 184 187 184 188 185 188 186 185 179 183 184 184 181 181 180 184 185 182 176 182 182 179 182 182 178 177 176 172 177 175 177 184 176 199 174 192 208
151 157 164 158 159 163 161 159 163 163 161 163 162 160 164 163 163 170 168 175 172 177 180 188 182 188 188 188 192 187 194 189 183 183 185 191 190 189 187 191 193 193 192 195 201 198 194 194 196 213 199 198 197 200 194 192 193 193 198 195 215 200 198 194 196 197 193 192 193 194 198 193 197 192 189 197 196 189 185 176 175 181 180 176 175 171 173 178 178 174 175 180 172 174 176 170 172 173 168 171 175 176 169 172 174 168 172 170 171 173 171 180 167 170 180 173 175 176 188 181
147 149 153 151 151 155 154 160 157 157 161 156 158 151 156 155 160 160 156 165 165 165 176 173 182 181 177 183 185 184 191 183 187 190 189 188 193 193 188 194 192 192 189 197 193 197 196 194 195 193 196 198 194 198 198 195 196 190 194 201 198 199 199 199 192 197 195 195 199 198 197 193 190 189 187 184 188 185 174 175 172 172 166 167 163 172 170 171 170 168 170 168 170 162 168 168 164 163 164 169 166 168 166 167 169 163 154 164 164 169 162 161 170 166 172 163 147 162 176 147
147 145 147 150 149 150 149 153 151 148 152 149 150 152 153 148 152 145 156 163 160 167 165 177 171 170 176 175 176 180 179 177 185 181 177 179 182 180 183 185 183 183 186 186 185 188 184 185 187 188 185 190 188 186 186 186 188 191 0 190 191 189 187 186 189 188 191 188 184 186 186 182 181 184 175 173 176 172 170 166 161 159 162 162 161 160 163 162 164 162 158 163 162 162 160 164 159 161 164 165 160 163 162 160 157 159 158 162 156 165 159 161 160 161 159 168 163 160 155 188
141 140 137 140 143 150 149 146 145 145 146 145 143 144 145 146 147 147 150 156 156 159 167 164 168 167 169 169 172 171 172 175 175 177 172 173 172 172 175 179 176 181 175 180 175 180 176 178 178 180 182 181 180 180 181 180 181 0 0 179 181 180 181 182 179 178 181 178 178 176 174 178 176 177 172 172 169 165 163 160 164 153 155 157 157 159 156 153 151 155 150 155 156 154 155 153 153 157 158 153 158 153 157 153 153 150 148 149 163 158 154 147 146 156 153 155 155 163 174 165
140 139 135 138 141 145 153 142 144 141 139 142 144 144 143 142 138 150 145 149 152 157 155 159 161 159 162 161 167 166 165 166 169 167 164 168 167 171 167 171 171 0 170 0 169 173 172 172 174 171 174 173 176 173 175 0 175 176 0 177 0 0 174 177 171 173 172 170 175 170 168 168 170 169 165 164 167 158 160 151 154 153 149 153 153 151 151 149 150 157 146 152 153 152 149 147 153 148 154 150 150 148 146 149 151 143 144 148 146 146 147 146 147 160 148 144 152 156 150 158
130 125 129 125 136 138 141 142 136 133 134 132 132 132 135 134 137 136 139 142 142 146 148 155 149 158 157 154 157 161 159 157 162 163 160 156 162 163 0 0 0 0 0 0 0 0 0 165 169 167 167 166 168 168 0 0 171 168 0 0 0 0 0 0 167 166 168 0 164 163 164 166 164 160 157 158 149 157 149 151 149 146 148 149 145 147 143 147 145 144 145 147 146 147 141 140 143 146 144 145 138 142 142 138 139 137 140 138 139 145 143 152 149 152 154 135 143 148 160 146
115 120 122 124 130 134 136 132 134 131 127 133 125 128 133 125 119 139 139 136 142 143 147 147 148 149 154 155 154 156 153 155 156 160 153 153 155 0 0 0 0 0 0 0 0 0 0 0 0 163 164 162 0 0 0 0 0 0 0 0 0 0 0 0 163 0 0 0 0 0 0 157 164 156 156 150 151 151 152 146 142 140 147 143 139 144 142 137 144 142 137 142 138 139 138 139 145 141 139 138 140 137 139 137 130 137 132 136 143 137 139 151 137 141 137 141 137 117 132 170
113 106 118 125 126 117 130 130 128 128 131 121 120 119 120 130 131 133 130 133 135 134 134 143 142 142 144 143 146 150 152 147 151 151 150 147 0 0 0 0 0 0 0 0 0 0 0 0 154 153 156 0 0 0 0 0 0 0 0 0 0 0 0 0 0 0 0 0 0 0 0 0 151 151 148 149 145 146 142 144 129 141 127 129 126 127 138 140 127 132 140 137 130 127 118 136 138 136 132 133 136 137 135 121 128 134 134 126 132 138 134 139 140 138 151 133 133 132 105 137
101 111 112 109 110 114 123 120 115 128 117 114 115 113 128 121 127 121 117 117 123 124 127 125 137 141 142 141 142 144 143 144 143 141 146 142 0 0 0 0 0 0 0 0 0 0 0 0 146 0 0 0 0 0 0 0 0 0 0 0 0 0 0 0 0 0 0 0 0 0 0 0 142 142 143 140 139 132 127 140 127 123 122 123 127 119 125 125 124 127 126 121 119 126 125 134 128 124 123 120 118 130 131 117 121 129 115 120 121 137 121 138 113 119 115 128 110 100 111 132
107 109 115 116 114 114 115 117 119 119 113 117 112 114 118 121 121 117 122 116 117 115 123 118 130 136 139 130 0 141 0 0 127 141 133 0 0 0 0 0 0 0 0 0 0 0 0 0 0 0 0 0 0 0 0 0 0 0 0 0 0 0 0 0 0 0 0 0 0 0 0 0 0 144 137 127 125 121 117 126 123 120 121 126 113 122 119 120 116 120 121 124 116 120 112 120 122 120 122 119 119 125 120 122 118 113 113 122 110 129 119 110 119 114 117 117 107 128 142 128
104 100 106 110 106 104 106 105 105 104 110 108 105 107 102 110 109 114 119 107 112 113 112 117 122 120 126 121 119 127 0 0 0 0 0 0 0 0 0 0 0 0 0 0 0 0 0 0 0 0 0 0 0 0 0 0 0 0 0 0 0 0 0 0 0 0 0 0 0 0 0 0 130 0 0 124 121 120 126 118 117 116 109 115 114 116 110 115 107 114 115 116 114 111 111 106 113 114 111 113 113 111 112 112 112 117 111 107 110 106 111 109 104 123 113 98 113 128 107 132
100 100 90 96 100 102 104 102 103 104 104 102 103 105 107 103 107 110 115 106 108 110 109 113 114 110 115 121 120 121 0 129 0 0 0 0 0 0 0 0 0 0 0 0 0 0 0 0 0 0 0 0 0 0 0 0 0 0 0 0 0 0 0 0 0 0 0 0 0 0 0 0 0 122 0 116 120 115 114 110 110 110 104 104 112 105 109 115 107 110 117 112 114 113 106 116 109 109 98 118 111 111 110 105 109 114 111 112 110 113 107 106 116 101 105 123 123 114 96 127
100 103 97 103 99 101 104 93 95 98 97 96 100 97 99 97 105 106 111 115 113 109 96 111 113 105 114 116 113 120 117 120 122 0 0 0 0 0 0 0 0 0 0 0 0 0 0 0 0 0 0 0 0 0 0 0 0 0 0 0 0 0 0 0 0 0 0 0 0 0 0 0 121 121 110 120 112 115 116 120 108 115 102 117 106 108 104 100 105 105 104 109 115 96 97 101 107 103 111 107 101 117 109 102 109 106 107 100 106 99 103 111 105 94 104 95 133 127 114 120
89 85 85 86 85 86 84 96 92 85 92 94 100 96 94 89 79 98 92 87 92 87 102 105 102 102 114 108 0 0 104 105 120 0 0 0 0 0 0 0 0 0 0 0 0 0 0 0 0 0 0 0 0 0 0 0 0 0 0 0 0 0 0 0 0 0 0 0 0 0 0 115 112 109 105 112 107 106 104 102 102 103 98 93 104 98 90 100 105 104 94 97 105 84 88 96 95 107 91 96 91 100 90 94 81 91 98 95 95 92 81 91 81 92 94 97 129 102 125 137
96 86 92 88 98 98 97 107 90 94 99 96 93 96 97 96 97 91 101 98 98 104 105 102 103 104 111 106 0 106 111 109 117 112 121 110 114 0 0 0 0 119 0 0 0 0 0 0 0 0 0 0 0 0 0 0 0 0 0 0 116 0 0 114 111 0 0 0 114 0 111 112 114 113 116 108 106 112 105 99 112 110 106 91 98 101 106 105 102 105 106 107 109 98 99 104 101 97 105 110 106 93 98 102 98 106 101 91 95 85 93 94 93 98 110 98 98 97 136 145
86 93 94 92 99 98 91 94 84 97 88 93 84 90 90 88 97 96 99 95 100 93 99 108 91 103 106 100 105 108 95 102 105 102 101 102 0 114 115 0 110 0 0 0 0 0 0 0 0 0 0 0 0 0 0 0 0 111 0 0 111 106 110 111 115 111 106 100 112 107 113 107 105 103 113 109 100 92 103 96 94 94 97 84 97 94 93 102 109 94 98 102 112 86 95 85 88 91 95 88 94 90 93 96 85 91 102 91 94 90 97 89 83 95 94 80 116 135 106 114
87 86 84 86 92 92 103 88 91 81 87 88 84 91 89 90 92 88 93 88 79 91 96 86 88 95 94 91 104 90 95 99 96 99 95 110 99 100 100 103 104 98 100 108 110 91 0 0 94 0 0 107 107 92 103 109 107 102 108 108 101 103 109 103 103 110 103 97 100 109 97 109 108 102 107 95 94 99 100 91 91 91 93 96 95 92 86 95 94 94 99 96 93 94 95 90 89 94 92 82 89 90 91 89 87 84 96 83 83 87 88 95 95 97 78 102 89 81 97 106
84 84 84 83 81 82 98 103 87 83 88 83 90 87 82 90 89 91 88 97 85 97 95 86 93 95 94 88 95 100 93 84 98 97 97 99 100 98 94 107 104 96 99 107 100 93 104 0 102 102 98 105 99 100 98 101 99 107 96 107 104 94 95 103 104 99 94 102 96 105 100 103 101 93 104 83 92 97 96 98 98 96 94 90 96 92 87 86 93 89 86 100 89 91 93 81 94 93 99 86 92 92 84 92 89 101 90 87 88 91 82 87 101 85 92 111 78 80 122 77
84 74 71 71 79 83 87 90 86 82 87 84 87 80 91 85 88 88 86 84 88 85 82 91 88 85 90 94 95 94 90 93 81 95 93 97 96 86 93 84 95 91 87 91 94 94 91 100 94 89 92 85 99 92 89 83 100 92 99 95 98 99 83 97 96 98 97 94 98 85 92 84 93 94 97 97 95 98 97 96 87 92 82 88 87 93 90 87 87 92 94 80 91 81 87 87 86 80 80 92 82 86 81 72 83 78 90 85 81 82 89 88 97 96 88 121 108 84 127 56
72 74 82 88 74 85 81 89 84 83 84 90 81 83 83 85 87 90 83 88 87 91 86 90 89 94 90 86 94 90 86 95 92 98 86 92 87 92 88 94 96 83 93 92 86 97 91 90 100 86 92 98 97 86 101 95 91 86 90 97 94 84 93 94 90 97 91 96 106 94 97 95 86 96 94 87 84 83 96 94 91 89 88 90 76 84 90 80 96 90 78 90 75 80 93 84 89 93 77 82 89 82 79 82 78 86 79 86 85 87 86 92 85 110 113 97 114 97 138 212
