0 0 0 0 0 0 0 0 0 0 0 0 0 0 0 0 0 0 0 0 0 0 0 0 0 0 0 0 0 0 0 0 0 0 0 0 0 0 0 0 0 0 0 0 0 0 0 0 0 0 0 0 0 0 0 0 0 0 0 0 0 0 0 0 0 0 0 0 0 0 0 0 0 0 0 0 0 0 0 0 0 0 0 0 0 0 0 0 0 0 0 0 0 0 0 0 0 0 0 0 0 0 0 0 0 0 0 0 0 0 0 0 0 0 0 0 0 0 0 0
0 0 0 0 0 0 0 0 0 0 0 0 0 0 0 0 0 0 0 0 0 0 0 0 0 0 0 0 0 0 0 0 0 0 0 0 0 0 0 0 0 0 0 0 0 0 0 0 0 0 0 0 0 0 0 0 0 0 0 0 0 0 0 0 0 0 0 0 0 0 0 0 0 0 0 0 0 0 0 0 0 0 0 0 0 0 0 0 0 0 0 0 0 0 0 0 0 0 0 0 0 0 0 0 0 0 0 0 0 0 0 0 0 0 0 0 0 0 0 0
0 0 0 0 0 0 0 0 0 0 0 0 0 0 0 0 0 0 0 0 0 0 0 0 0 0 0 0 0 0 0 0 0 0 0 0 0 0 0 0 0 0 0 0 0 0 0 0 0 0 0 0 0 0 0 0 0 0 0 0 0 0 0 0 0 0 0 0 0 0 0 0 0 0 0 0 0 0 0 0 0 0 0 0 0 0 0 0 0 0 0 0 0 0 0 0 0 0 0 0 0 0 0 0 0 0 0 0 0 0 0 0 0 0 0 0 0 0 0 0
0 0 0 0 0 0 0 0 0 0 0 0 0 0 0 0 0 0 0 0 0 0 0 0 0 0 0 0 0 0 0 0 0 0 0 0 0 0 0 0 0 0 0 0 0 0 0 0 0 0 0 0 0 0 0 0 0 0 0 0 0 0 0 0 0 0 0 0 0 0 0 0 0 0 0 0 0 0 0 0 0 0 0 0 0 0 0 0 0 0 0 0 0 0 0 0 0 0 0 0 0 0 0 0 0 0 0 0 0 0 0 0 0 0 0 0 0 0 0 0
0 0 0 0 0 0 0 0 0 0 0 0 0 0 0 0 0 0 0 0 0 0 0 0 0 0 0 0 0 0 0 0 0 0 0 0 0 0 0 0 0 0 0 0 0 0 0 0 0 0 0 0 0 0 0 0 0 0 0 0 0 0 0 0 0 0 0 0 0 0 0 0 0 0 0 0 0 0 0 0 0 0 0 0 0 0 0 0 0 0 0 0 0 0 0 0 0 0 0 0 0 0 0 0 0 0 0 0 0 0 0 0 0 0 0 0 0 0 0 0
0 0 0 0 0 0 0 0 0 0 0 0 0 0 0 0 0 0 0 0 0 0 0 0 0 0 0 0 0 0 0 0 0 0 0 0 0 0 0 564 522 519 500 505 497 536 532 532 513 524 522 517 516 547 525 511 0 0 0 0 0 0 0 0 0 0 0 0 0 0 0 0 0 0 0 0 0 0 0 0 0 0 0 0 0 0 0 0 0 0 0 0 0 0 0 0 0 0 0 0 0 0 0 0 0 0 0 0 0 0 0 0 0 0 0 0 0 0 0 0
0 0 0 0 0 0 0 0 0 0 0 0 0 0 0 0 0 0 0 0 0 0 0 0 0 0 0 0 0 0 0 0 0 0 0 0 0 548 512 516 511 490 514 494 499 523 517 520 507 525 492 503 520 494 506 521 513 502 533 533 0 0 0 0 0 0 0 0 0 0 0 0 0 0 0 0 0 0 0 0 0 0 0 0 0 0 0 0 0 0 0 0 0 0 0 0 0 0 0 0 0 0 0 0 0 0 0 0 0 0 0 0 0 0 0 0 0 0 0 0
0 0 0 0 0 0 0 0 0 0 0 0 0 0 0 0 0 0 0 0 0 0 0 0 0 0 0 0 0 0 0 0 0 0 0 489 510 487 494 495 506 490 502 496 506 510 496 502 508 503 501 508 506 499 510 498 505 499 491 506 499 497 502 509 463 0 0 0 0 0 0 0 0 0 0 0 0 0 0 0 0 0 0 0 0 0 0 0 0 0 0 0 0 0 0 0 0 0 0 0 0 0 0 0 0 0 0 0 0 0 0 0 0 0 0 0 0 0 0 0
0 0 0 0 0 0 0 0 0 0 0 0 0 0 0 0 0 0 0 0 0 0 0 0 0 0 0 0 0 0 0 0 0 528 506 512 498 512 497 500 519 520 503 511 502 511 497 515 502 524 507 503 520 507 505 521 505 494 510 514 511 523 512 510 524 527 504 563 614 610 569 615 610 623 598 621 640 638 580 573 0 0 0 0 0 0 0 0 0 0 0 0 0 0 0 0 0 0 0 0 0 0 0 0 0 0 0 0 0 0 0 0 0 0 0 0 0 0 0 0
0 0 0 0 0 0 0 0 0 0 0 0 0 0 0 0 0 0 0 0 0 0 0 0 0 0 0 0 0 0 0 529 497 490 487 476 490 486 510 489 494 481 494 492 485 496 495 506 504 498 501 496 508 504 507 503 499 513 503 500 507 491 510 506 492 517 496 514 513 513 541 538 574 560 529 567 558 541 562 569 579 494 506 561 0 0 0 539 548 609 558 528 591 591 476 567 546 603 531 566 0 526 544 549 0 0 0 0 0 0 0 0 0 0 0 0 0 0 0 0
0 0 0 0 0 0 0 0 0 0 0 0 0 0 0 0 0 0 0 0 0 0 0 0 0 0 0 0 0 0 529 499 506 501 494 502 506 499 504 509 504 515 504 501 494 514 507 507 512 498 504 506 502 513 508 511 516 507 503 508 511 493 503 512 512 503 524 504 515 505 553 581 551 544 576 577 571 591 599 559 558 570 584 579 543 538 604 546 578 576 581 548 553 593 556 581 589 569 578 560 541 603 543 540 579 587 605 0 530 0 0 0 0 0 0 0 0 0 0 0
0 0 0 0 0 0 0 0 0 0 0 0 0 0 0 0 0 0 0 0 0 0 0 0 0 0 0 0 547 515 509 496 500 500 507 500 500 488 497 508 505 504 504 502 515 513 505 509 505 515 503 515 501 504 503 513 502 506 502 510 501 496 508 510 512 505 501 511 511 522 517 572 557 591 561 571 553 583 605 575 584 624 577 596 588 558 617 576 584 624 587 579 617 556 594 612 617 597 568 581 641 575 608 544 582 575 609 583 0 0 0 0 0 0 0 0 0 0 0 0
0 0 0 0 0 0 0 0 0 0 0 0 0 0 0 0 0 0 0 0 0 0 0 0 0 0 0 466 498 502 503 497 502 487 491 499 495 504 502 504 496 501 496 498 494 505 498 502 493 504 498 502 511 504 502 507 498 498 502 506 509 507 509 509 514 506 503 508 506 499 518 509 503 574 505 526 549 561 556 578 531 544 543 553 547 510 524 558 552 520 527 550 527 544 544 553 566 540 529 526 543 514 542 551 522 538 508 536 0 0 0 0 0 0 0 0 0 0 0 0
0 0 0 0 0 0 0 0 0 0 0 0 0 0 0 0 0 0 0 0 0 0 0 0 0 0 512 503 484 495 498 500 500 501 502 504 499 489 508 496 508 507 507 503 511 512 503 503 508 500 508 508 506 503 505 501 508 510 512 510 513 513 506 508 515 518 510 498 514 504 510 515 539 549 560 580 578 560 592 565 572 559 602 541 582 602 567 604 586 576 571 568 591 564 544 584 540 554 552 568 567 566 592 592 574 565 590 554 553 0 0 0 0 0 0 0 0 0 0 0
0 0 0 0 0 0 0 0 0 0 0 0 0 0 0 0 0 0 0 0 0 0 0 0 0 473 499 483 492 500 502 500 497 490 487 495 493 497 505 496 496 505 500 502 498 505 502 496 504 510 504 500 506 500 504 504 505 501 515 502 510 505 497 509 506 504 499 508 514 512 514 506 503 534 522 550 537 547 557 578 555 541 530 538 529 563 545 546 578 541 563 560 567 551 557 531 555 567 576 553 542 523 577 499 564 535 525 540 511 0 0 0 0 0 0 0 0 0 0 0
0 0 0 0 0 0 0 0 0 0 0 0 0 0 0 0 0 0 0 0 0 0 0 0 0 474 491 477 491 488 482 498 488 503 480 498 498 497 483 495 498 502 500 492 502 498 503 502 505 509 501 510 505 501 496 509 502 496 505 500 511 495 511 502 500 512 511 509 504 498 511 504 507 510 545 527 543 519 543 517 549 554 530 530 553 489 546 545 506 541 539 542 535 526 521 543 539 520 576 556 519 536 507 514 484 515 504 526 540 523 529 0 532 519 0 0 0 0 0 0
0 0 0 0 0 0 0 0 0 0 0 0 0 0 0 0 0 0 0 0 0 0 0 0 509 493 505 496 495 496 500 494 494 494 494 502 498 503 501 501 499 511 500 504 497 498 499 490 495 509 496 506 503 505 506 520 498 499 503 506 502 504 499 503 509 510 508 512 503 512 513 505 515 512 528 532 558 533 550 546 545 567 547 542 543 546 542 555 558 557 538 548 542 551 571 559 553 565 539 558 573 581 538 597 565 583 553 575 571 536 557 0 0 0 0 0 0 0 0 0
0 0 0 0 0 0 0 0 0 0 0 0 0 0 0 0 0 0 0 0 0 0 0 0 478 488 504 486 484 496 493 500 496 482 482 486 499 488 490 497 490 488 496 487 501 497 507 491 507 496 494 495 502 508 499 496 495 501 503 503 497 505 506 502 505 503 507 498 504 509 494 502 496 510 504 524 504 520 498 484 518 509 555 506 541 534 526 501 520 508 533 525 516 552 532 538 497 520 517 496 499 481 531 533 530 506 536 501 521 549 0 0 0 0 0 0 0 0 0 0
0 0 0 0 0 0 0 0 0 0 0 0 0 0 0 0 0 0 0 0 0 0 0 496 501 500 478 492 489 491 492 495 496 499 499 488 499 487 494 497 494 494 501 488 501 502 501 496 499 501 501 500 503 508 503 502 507 503 496 505 513 501 503 501 497 508 510 511 513 511 509 507 516 504 505 513 531 514 495 536 504 506 537 531 518 557 524 536 536 531 529 521 534 518 529 537 549 523 535 522 567 534 539 492 557 591 512 554 520 580 587 0 0 0 0 0 0 0 0 0
0 0 0 0 0 0 0 0 0 0 0 0 0 0 0 0 0 0 0 0 0 0 0 504 496 503 490 502 490 492 496 493 504 492 494 489 490 490 496 495 494 499 500 501 509 502 500 506 489 502 493 503 502 505 507 511 504 510 502 501 504 508 507 502 504 506 497 508 500 514 519 515 504 507 508 524 549 519 527 584 555 547 565 561 534 552 551 561 547 552 535 565 591 540 562 591 541 540 559 545 541 561 572 562 592 566 550 525 589 536 519 0 0 0 0 0 0 0 0 0
0 0 0 0 0 0 0 0 0 0 0 0 0 0 0 0 0 0 0 0 0 0 430 477 485 486 490 485 488 491 494 500 491 488 483 493 486 492 493 486 508 498 503 495 488 492 499 496 498 495 494 492 493 496 502 510 503 505 501 508 503 505 499 501 497 508 504 500 500 497 508 499 509 495 503 500 503 524 543 535 521 513 538 512 513 525 500 515 518 505 525 495 491 527 517 527 537 510 503 523 537 509 517 519 519 531 500 513 507 499 460 496 485 0 0 0 0 0 0 0
0 0 0 0 0 0 0 0 0 0 0 0 0 0 0 0 0 0 0 0 0 0 517 489 490 492 493 488 500 494 495 489 494 489 494 497 485 491 496 490 499 502 498 507 499 505 512 495 501 494 499 502 502 507 498 504 505 509 506 515 505 501 504 508 510 509 520 511 513 505 506 505 513 513 515 514 511 555 509 531 544 566 561 563 563 534 529 549 551 574 575 570 519 544 564 539 551 524 572 529 557 546 546 540 536 556 581 552 543 542 560 561 0 0 0 0 0 0 0 0
0 0 0 0 0 0 0 0 0 0 0 0 0 0 0 0 0 0 0 0 0 0 492 487 482 484 496 486 485 487 483 478 491 486 490 484 487 489 492 500 491 497 493 492 498 501 495 495 495 496 498 498 504 496 496 493 507 501 505 495 503 507 506 504 503 506 509 504 497 503 506 499 507 498 498 506 503 514 522 520 507 542 496 508 538 530 524 495 489 548 527 518 509 511 500 497 525 524 529 504 533 526 500 552 496 521 496 520 558 513 555 539 513 0 0 0 0 0 0 0
0 0 0 0 0 0 0 0 0 0 0 0 0 0 0 0 0 0 0 0 0 0 479 479 495 476 486 496 493 490 491 485 484 494 490 484 498 492 490 491 494 500 496 494 497 493 504 501 500 502 496 503 502 499 497 504 507 491 501 498 501 511 502 500 502 502 503 502 498 502 508 498 506 501 498 500 502 510 505 531 501 491 495 517 525 512 526 524 526 518 524 521 526 528 522 485 487 496 495 517 509 496 506 510 501 504 532 531 508 476 500 480 467 486 0 0 0 0 0 0
0 0 0 0 0 0 0 0 0 0 0 0 0 0 0 0 0 0 0 0 0 0 496 486 492 488 486 492 495 497 488 485 494 485 488 489 487 495 491 490 497 489 505 501 500 493 494 495 495 502 498 502 500 500 505 497 501 504 504 504 508 498 501 502 508 501 500 496 504 504 498 502 506 505 509 509 505 523 522 519 523 522 525 506 544 553 535 532 506 517 505 534 536 524 510 523 533 532 527 517 533 513 551 568 485 553 551 577 553 532 530 556 520 0 0 0 0 0 0 0
0 0 0 0 0 0 0 0 0 0 0 0 0 0 0 0 0 0 0 0 0 0 476 473 477 489 491 483 481 488 488 480 488 487 497 481 498 488 489 489 492 492 491 493 495 490 493 498 496 490 495 494 498 500 500 500 505 495 495 498 505 495 506 496 505 498 497 499 498 496 497 502 508 499 498 500 506 510 510 510 514 510 526 510 525 506 498 485 483 487 492 546 513 503 470 498 475 500 499 484 466 482 478 473 462 475 449 474 0 468 472 487 445 0 0 0 0 0 0 0
0 0 0 0 0 0 0 0 0 0 0 0 0 0 0 0 0 0 0 0 0 461 485 479 483 489 496 494 491 487 484 486 484 496 483 482 496 493 494 500 490 494 495 493 494 496 502 501 492 499 496 499 500 500 503 503 498 508 503 503 511 500 499 502 502 502 498 503 499 506 510 503 507 514 503 508 504 509 509 513 524 508 509 491 542 511 505 498 507 517 538 534 510 504 513 520 522 511 502 501 535 522 508 505 536 521 497 501 509 504 524 0 519 0 0 0 0 0 0 0
0 0 0 0 0 0 0 0 0 0 0 0 0 0 0 0 0 0 0 0 0 508 486 480 493 483 486 483 480 490 478 482 483 483 489 496 489 485 489 489 495 497 495 494 499 492 490 496 498 496 498 502 495 506 500 499 499 505 501 512 502 495 508 500 502 505 501 504 503 508 500 507 504 503 515 503 499 503 510 537 509 538 533 501 535 523 517 527 553 558 544 485 540 523 534 518 528 567 523 535 548 522 552 579 552 527 545 535 545 535 554 592 0 0 0 0 0 0 0 0
0 0 0 0 0 0 0 0 0 0 0 0 0 0 0 0 0 0 0 0 0 457 470 480 475 474 482 478 476 484 483 483 481 482 488 487 481 494 491 489 492 489 493 492 488 494 494 490 496 495 494 495 495 493 501 498 495 496 502 493 506 499 498 501 499 497 501 501 499 501 498 494 498 501 508 491 494 493 509 498 514 503 483 514 504 528 507 490 516 505 505 500 494 532 508 474 523 501 515 530 485 491 498 494 475 486 489 476 464 460 522 509 472 0 0 0 0 0 0 0
0 0 0 0 0 0 0 0 0 0 0 0 0 0 0 0 0 0 0 0 0 486 486 476 489 477 485 485 486 490 491 485 491 490 488 487 489 485 494 492 488 493 498 494 497 492 490 498 494 496 491 497 498 500 500 492 501 499 504 502 496 499 497 501 500 498 509 503 502 508 507 505 502 498 508 504 495 509 512 517 512 499 498 510 518 501 516 521 511 524 513 538 510 505 524 538 500 539 525 554 552 531 532 559 566 533 522 508 522 562 585 531 547 0 0 0 0 0 0 0
0 0 0 0 0 0 0 0 0 0 0 0 0 0 0 0 0 0 0 0 0 449 484 478 479 484 479 482 480 485 485 479 476 485 490 485 483 489 485 490 488 490 492 491 495 486 495 494 491 498 495 499 497 492 496 492 496 495 499 499 500 500 498 495 499 499 503 502 501 500 498 500 503 501 502 497 498 495 495 500 487 525 507 508 495 511 484 504 485 493 517 477 517 494 508 497 495 513 511 513 510 486 492 514 488 495 490 474 515 500 487 512 494 0 0 0 0 0 0 0
0 0 0 0 0 0 0 0 0 0 0 0 0 0 0 0 0 0 0 0 0 466 473 483 477 479 482 479 478 483 485 483 485 484 488 490 485 489 490 491 490 492 490 488 489 494 495 497 493 490 488 494 492 494 496 494 491 495 495 498 497 495 495 497 500 500 503 500 495 502 498 502 500 501 509 497 503 490 505 495 500 516 497 505 501 498 508 508 489 498 485 504 508 498 509 498 480 499 480 502 506 519 517 521 510 533 483 518 507 480 493 492 508 461 0 0 0 0 0 0
0 0 0 0 0 0 0 0 0 0 0 0 0 0 0 0 0 0 0 0 0 481 474 476 478 479 478 477 480 486 485 478 487 483 490 486 484 485 486 491 490 490 493 490 493 487 492 490 493 499 496 496 497 501 497 495 495 498 505 498 500 495 497 503 505 492 493 497 498 506 499 499 505 506 503 501 496 501 500 496 489 505 496 498 500 524 499 515 513 526 508 506 500 502 498 485 529 528 512 524 489 499 496 523 518 508 497 481 519 517 528 562 513 486 0 0 0 0 0 0
0 0 0 0 0 0 0 0 0 0 0 0 0 0 0 0 0 0 0 0 0 433 475 475 473 476 476 478 473 473 482 488 483 487 477 483 482 483 485 490 485 484 483 487 490 490 484 490 489 487 486 494 493 492 490 494 495 496 494 493 499 493 498 499 500 497 501 493 493 496 499 494 497 494 496 498 494 499 498 480 498 502 480 485 484 490 477 489 504 482 486 515 483 485 500 493 467 485 460 505 486 487 510 483 523 492 518 464 480 480 465 505 485 0 0 0 0 0 0 0
0 0 0 0 0 0 0 0 0 0 0 0 0 0 0 0 0 0 0 0 0 442 480 475 475 475 477 480 479 483 480 482 486 485 477 486 485 483 485 487 493 489 491 491 487 493 491 493 490 490 496 490 491 495 497 497 491 495 492 491 494 502 503 498 499 499 496 497 498 496 499 497 498 506 494 495 507 508 506 508 504 508 520 504 497 518 515 501 508 517 494 490 491 487 499 505 509 504 489 502 553 499 477 506 550 506 529 507 508 523 497 513 555 554 0 0 0 0 0 0
0 0 0 0 0 0 0 0 0 0 0 0 0 0 0 0 0 0 0 0 0 457 473 469 475 474 478 482 478 480 480 484 484 481 484 485 485 485 489 489 487 487 487 491 486 490 485 486 490 502 487 491 493 493 500 495 494 498 498 495 502 498 502 502 500 497 505 496 494 498 496 496 496 504 496 498 504 497 515 520 504 522 499 532 489 511 502 504 527 514 480 512 508 544 544 503 519 527 496 528 517 503 526 514 519 531 506 517 549 498 522 507 539 485 0 0 0 0 0 0
0 0 0 0 0 0 0 0 0 0 0 0 0 0 0 0 0 0 0 0 0 479 469 475 481 466 482 473 474 479 474 485 480 486 481 482 480 481 477 489 486 486 486 487 486 489 489 490 494 495 493 488 488 492 494 494 491 489 492 494 497 501 498 501 495 501 495 496 497 495 500 490 500 498 496 499 490 495 500 491 499 497 486 483 503 505 488 498 490 492 487 483 491 469 488 477 481 501 515 521 496 482 511 495 469 471 472 495 540 546 517 472 505 429 0 0 0 0 0 0
0 0 0 0 0 0 0 0 0 0 0 0 0 0 0 0 0 0 0 0 0 0 471 482 477 477 473 478 484 478 478 487 494 482 481 481 491 484 489 490 489 481 491 487 493 493 496 490 490 494 497 497 493 498 499 498 494 489 497 497 497 497 501 498 501 498 496 500 497 497 496 502 499 497 500 501 495 495 502 500 526 529 513 512 495 519 524 510 519 507 509 505 526 524 515 518 518 538 526 505 542 519 527 551 563 489 490 509 555 532 525 512 476 513 0 0 0 0 0 0
0 0 0 0 0 0 0 0 0 0 0 0 0 0 0 0 0 0 0 0 0 0 495 474 468 470 481 479 473 480 476 475 478 483 477 477 478 484 488 483 488 481 486 485 485 490 486 488 490 489 489 490 492 494 489 493 490 493 495 494 496 497 497 497 492 493 498 499 497 497 498 495 498 493 492 492 495 501 505 514 507 512 511 497 511 501 506 506 522 495 505 486 494 519 506 515 493 506 494 496 467 506 476 485 497 502 517 481 516 513 484 485 452 0 0 0 0 0 0 0
0 0 0 0 0 0 0 0 0 0 0 0 0 0 0 0 0 0 0 0 0 0 533 466 467 476 474 480 473 476 476 476 481 484 479 486 486 484 483 484 482 488 489 482 489 489 489 484 488 489 488 490 488 493 495 491 492 489 496 495 497 495 497 495 496 496 497 495 494 497 490 488 497 492 488 491 491 489 497 499 506 486 493 488 506 515 499 501 494 499 511 531 506 503 505 493 498 486 516 491 494 500 471 452 475 467 479 503 478 482 502 481 423 507 497 451 0 0 0 0
0 0 0 0 0 0 0 0 0 0 0 0 0 0 0 0 0 0 0 0 0 0 584 465 469 468 478 475 473 474 481 480 479 483 480 484 481 483 484 489 486 489 490 488 486 487 494 487 490 491 494 493 493 494 498 497 494 494 490 496 493 493 499 497 499 496 500 496 496 498 496 498 496 498 499 493 493 503 496 488 511 502 492 529 507 505 501 506 514 519 494 515 524 539 531 550 516 526 537 510 520 501 507 485 537 480 499 503 484 481 518 499 493 513 514 505 0 0 0 0
0 0 0 0 0 0 0 0 0 0 0 0 0 0 0 0 0 0 0 0 0 0 0 472 458 472 476 471 472 472 475 482 475 482 472 478 480 479 482 479 487 482 485 483 488 482 489 487 492 487 487 491 494 495 492 492 491 494 493 493 494 497 492 493 496 493 489 502 501 493 496 492 494 491 492 498 488 489 491 483 485 491 471 488 480 485 480 501 475 486 484 475 507 497 521 519 503 512 474 490 473 487 491 442 501 470 496 487 486 470 461 492 449 0 0 0 0 0 0 0
0 0 0 0 0 0 0 0 0 0 0 0 0 0 0 0 0 0 0 0 0 0 0 503 470 473 473 473 474 477 476 472 473 478 480 479 478 479 487 479 480 480 488 484 488 487 487 492 491 489 491 494 489 493 490 496 496 491 494 489 491 489 494 492 489 497 493 493 495 492 494 495 495 493 496 489 488 490 490 504 493 501 504 491 492 488 501 503 486 512 507 501 489 511 532 511 501 532 505 512 501 533 501 486 502 491 478 509 484 481 526 519 492 480 0 0 0 0 0 0
0 0 0 0 0 0 0 0 0 0 0 0 0 0 0 0 0 0 0 0 0 0 0 525 470 475 470 470 472 473 476 471 478 477 480 483 481 480 477 485 480 479 490 487 486 490 488 487 493 489 492 491 487 491 493 490 495 492 489 493 497 495 492 495 495 495 493 496 494 500 495 495 493 500 493 497 494 495 490 505 493 505 494 513 527 519 514 532 511 513 512 510 503 522 511 511 505 478 520 513 512 528 538 508 494 496 505 512 499 506 520 479 478 521 0 0 0 0 0 0
0 0 0 0 0 0 0 0 0 0 0 0 0 0 0 0 0 0 0 0 0 0 0 0 477 471 468 469 475 474 480 475 473 476 482 475 477 478 479 480 479 481 482 484 486 486 486 487 493 490 488 491 490 493 493 487 485 493 488 494 491 492 495 485 493 496 495 498 494 487 496 491 491 492 492 491 493 495 489 496 485 508 499 485 505 503 505 497 496 516 495 508 493 484 504 491 484 489 470 524 492 514 504 481 478 461 466 459 506 474 444 480 477 458 476 466 0 0 0 0
0 0 0 0 0 0 0 0 0 0 0 0 0 0 0 0 0 0 0 0 0 0 0 0 550 471 472 475 467 477 477 470 477 474 477 480 481 479 484 483 481 476 480 483 487 487 487 488 488 495 492 493 487 492 489 490 488 489 493 495 497 490 496 495 490 497 495 493 493 497 496 495 496 495 499 495 496 499 484 505 500 516 526 497 501 495 526 517 499 523 515 546 527 524 522 540 533 534 538 502 518 543 494 510 481 503 494 492 504 517 496 533 511 524 450 561 0 0 0 0
0 0 0 0 0 0 0 0 0 0 0 0 0 0 0 0 0 0 0 0 0 0 0 0 0 472 471 471 467 471 468 478 475 476 478 473 475 475 478 481 478 480 480 482 485 480 486 485 486 483 484 483 486 486 482 486 491 489 490 488 489 489 495 491 492 492 493 495 492 494 488 491 490 495 488 480 491 478 474 482 487 484 492 487 493 502 509 483 514 496 505 486 503 507 506 506 486 493 473 487 480 514 472 473 493 499 467 486 442 471 507 495 451 494 0 0 0 0 0 0
0 0 0 0 0 0 0 0 0 0 0 0 0 0 0 0 0 0 0 0 0 0 0 0 0 497 469 461 466 469 462 469 473 477 477 479 475 472 478 472 481 479 483 482 483 481 477 480 484 487 482 482 482 487 485 489 486 486 489 489 482 488 492 487 495 490 492 485 489 485 495 483 494 492 487 485 479 478 484 486 494 477 485 482 495 495 500 483 502 509 493 499 465 472 477 483 501 493 461 516 486 497 499 508 443 464 437 461 458 479 471 457 463 453 0 0 0 0 0 0
0 0 0 0 0 0 0 0 0 0 0 0 0 0 0 0 0 0 0 0 0 0 0 0 0 0 502 471 462 473 462 474 472 478 473 473 479 479 476 472 477 479 477 478 481 479 480 482 480 483 483 486 486 488 483 484 488 483 491 488 490 486 486 491 494 489 489 485 492 489 496 495 491 487 487 476 478 482 487 505 486 502 494 498 504 478 497 475 500 483 498 505 504 476 487 476 490 490 518 490 493 510 512 466 472 466 482 468 482 484 468 475 450 502 478 0 0 0 0 0
0 0 0 0 0 0 0 0 0 0 0 0 0 0 0 0 0 0 0 0 0 0 0 0 0 0 0 466 466 465 464 476 473 467 474 470 471 472 472 476 480 483 476 478 476 475 480 481 485 482 481 485 484 481 478 475 486 485 480 490 487 486 489 490 486 485 485 490 488 483 486 483 484 477 489 482 484 478 483 471 481 488 486 477 489 496 470 476 475 468 479 476 475 481 457 497 473 485 509 492 491 468 487 515 476 475 460 484 468 450 449 475 451 456 0 0 0 0 0 0
0 0 0 0 0 0 0 0 0 0 0 0 0 0 0 0 0 0 0 0 0 0 0 0 0 0 0 505 466 466 471 466 472 470 473 474 475 471 468 475 481 479 475 478 478 477 480 484 483 483 483 486 486 488 480 484 487 483 489 491 490 486 489 485 488 483 491 486 488 488 488 485 474 490 497 489 476 490 486 472 494 471 493 503 513 499 488 476 482 500 491 483 494 492 501 486 486 483 505 501 511 475 493 476 468 490 473 515 488 486 457 474 497 475 474 0 0 0 0 0
0 0 0 0 0 0 0 0 0 0 0 0 0 0 0 0 0 0 0 0 0 0 0 0 0 0 0 0 535 466 467 463 472 469 474 470 476 471 472 476 480 474 477 471 479 484 480 479 482 482 484 479 485 485 483 485 484 483 487 488 487 488 483 488 483 484 486 483 484 486 485 491 476 493 483 488 491 485 486 484 481 486 504 500 498 500 510 517 491 502 491 515 495 494 503 488 477 502 517 490 508 496 518 488 482 493 490 501 500 469 503 482 488 541 537 0 0 0 0 0
0 0 0 0 0 240 235 256 304 0 0 0 0 0 0 0 0 0 0 0 0 2377 0 0 0 0 0 0 0 503 462 463 470 466 464 471 473 471 471 477 469 474 479 473 479 479 479 478 479 473 477 479 477 481 481 481 480 486 483 486 482 486 486 486 483 486 480 480 481 488 476 487 471 491 487 476 485 484 487 481 480 474 481 482 479 478 487 484 476 471 472 488 502 474 474 473 472 466 480 473 489 487 466 453 449 454 481 457 477 471 507 460 451 436 437 0 0 0 0 0
0 0 0 0 259 230 234 234 235 300 384 0 0 0 0 0 0 0 0 0 0 2307 0 0 0 0 0 0 0 0 480 464 461 471 468 471 471 472 471 473 473 475 472 472 483 476 478 475 478 483 479 482 482 485 480 483 480 480 481 481 482 481 486 487 482 483 483 485 481 486 482 492 489 489 487 489 490 473 493 483 496 488 477 495 485 485 499 498 480 506 496 490 503 489 496 496 500 511 493 491 505 522 520 483 505 478 473 483 506 514 518 517 494 524 0 0 0 0 0 0
0 0 0 222 218 227 225 226 231 236 334 0 0 0 0 0 0 0 0 0 0 0 0 0 0 0 0 0 0 0 0 468 462 466 462 465 469 465 467 469 466 469 467 471 472 473 469 475 475 478 476 477 480 477 479 474 479 482 477 482 475 479 479 478 479 477 482 475 476 482 470 467 482 473 477 473 471 480 480 475 486 480 486 468 481 480 475 477 474 479 473 484 495 461 490 474 482 482 489 476 476 461 441 474 460 467 448 455 455 473 441 473 436 439 466 0 0 0 0 0
207 228 247 246 242 268 254 229 232 234 304 0 387 402 408 386 412 389 417 421 453 439 437 428 441 442 427 449 437 447 453 453 458 464 457 458 458 463 467 465 460 463 469 471 473 471 473 472 478 470 468 472 474 481 478 474 474 478 479 480 469 479 470 480 476 473 480 470 477 473 469 467 465 468 463 453 460 469 486 459 464 460 472 465 452 457 461 478 457 460 465 466 471 456 476 461 469 466 458 461 469 455 481 468 457 459 454 459 428 427 438 458 427 412 411 406 0 0 0 0
219 201 227 229 248 265 269 235 227 262 392 410 403 400 391 399 417 401 426 415 402 423 426 433 428 435 432 436 440 445 451 453 459 452 455 451 457 465 463 458 460 459 460 460 458 466 471 471 468 464 465 475 470 470 472 467 472 473 472 469 477 471 471 473 472 476 474 474 478 470 474 469 467 469 461 458 460 458 468 465 456 464 464 466 456 457 459 451 463 454 461 455 449 457 452 458 444 453 460 463 448 462 451 445 462 439 440 456 447 444 451 431 450 441 467 498 481 0 0 0
168 167 176 180 204 216 233 226 221 262 352 353 366 351 363 352 358 357 365 369 354 378 377 391 401 396 413 415 420 426 438 434 432 437 437 438 435 442 445 444 440 447 441 449 441 449 440 453 456 460 452 449 455 449 450 452 452 452 452 462 460 462 456 458 456 449 455 452 456 455 456 450 439 438 440 431 426 424 418 420 417 428 413 422 423 420 425 421 421 422 415 418 422 418 418 405 398 418 399 410 401 406 398 396 414 398 406 393 426 388 397 389 390 391 386 393 378 350 394 0
247 259 245 229 240 228 232 232 259 338 320 346 337 342 349 337 354 350 334 359 345 356 378 371 364 384 392 397 419 416 427 425 418 429 430 433 434 428 433 435 429 428 435 432 435 435 440 437 447 434 445 440 443 439 447 446 443 438 442 442 448 443 443 447 445 446 440 441 439 438 433 430 422 431 419 408 411 401 403 404 397 398 401 406 411 411 408 396 396 395 405 381 393 395 393 392 389 407 397 388 402 400 388 411 404 402 380 376 396 402 396 390 396 413 399 410 398 388 398 440
312 280 282 227 238 234 234 250 304 314 295 314 321 311 317 321 317 310 327 325 328 336 338 343 345 359 375 383 388 396 393 403 403 413 408 409 407 416 412 416 419 418 416 414 415 410 414 421 422 417 413 416 423 424 421 424 428 426 417 425 420 420 412 421 422 412 424 419 419 419 416 411 411 407 404 392 375 386 360 366 352 367 362 358 357 363 373 366 367 368 364 356 366 382 385 366 372 359 361 361 363 370 374 366 367 363 365 376 364 363 362 378 362 361 381 360 355 396 398 378
266 267 277 262 257 234 262 273 278 289 279 279 280 286 284 286 289 287 273 279 294 307 306 320 329 349 354 368 367 373 385 388 395 387 391 386 390 392 394 395 394 388 383 389 392 394 399 389 394 388 392 402 397 404 400 381 394 396 400 399 396 397 399 397 392 383 398 399 395 389 389 387 383 387 368 361 352 348 339 325 330 328 326 328 337 331 329 322 331 314 325 332 327 340 322 336 312 318 327 330 334 318 331 331 336 329 339 324 336 316 314 337 339 345 326 294 334 313 357 338
258 259 243 257 261 257 249 255 264 269 270 260 261 272 257 268 269 271 272 281 272 286 297 303 315 320 332 340 352 370 360 366 369 362 361 365 367 369 365 374 365 371 371 373 380 372 364 370 366 377 371 376 373 374 388 382 375 377 373 375 387 380 378 379 375 376 382 376 370 370 368 368 370 359 355 344 335 325 325 309 311 303 317 306 313 311 313 312 302 313 304 313 310 309 312 312 302 310 297 322 308 323 309 314 311 311 320 314 318 300 331 305 337 334 317 319 321 335 328 328
220 225 223 222 227 239 225 243 233 231 241 247 236 251 246 239 238 229 244 246 256 265 271 289 296 298 315 320 328 329 326 334 336 341 338 343 342 338 339 345 354 346 347 349 348 341 346 346 345 343 344 348 347 352 348 351 349 352 357 346 348 354 350 343 351 344 341 349 349 343 345 345 342 333 326 317 301 291 290 294 281 286 284 270 288 275 285 278 275 280 279 274 284 277 273 271 271 279 283 274 276 276 275 268 276 272 271 279 282 274 269 275 269 277 288 284 263 261 248 267
225 213 224 225 231 216 219 219 230 229 219 223 225 233 225 225 229 224 238 235 241 246 253 263 275 284 293 304 298 304 306 308 323 322 322 318 319 323 320 328 322 313 319 321 323 323 329 321 326 320 323 323 333 327 326 327 325 321 331 324 328 326 327 324 322 325 328 322 321 323 319 319 326 310 301 295 283 269 267 271 264 268 262 265 255 260 257 254 262 247 254 256 262 254 266 256 254 253 250 264 253 258 271 264 257 250 257 267 248 254 265 270 262 265 255 270 257 244 250 261
208 211 209 218 220 211 212 214 211 217 205 213 208 210 211 218 213 217 224 218 229 231 247 253 253 265 267 274 280 281 289 293 302 289 295 296 297 294 303 298 302 299 298 304 306 294 307 303 304 306 310 301 302 302 303 304 305 305 304 299 306 309 304 307 305 308 301 307 303 310 295 305 301 287 288 280 267 266 256 253 250 251 251 243 251 248 245 239 244 247 242 245 250 249 242 235 248 239 242 236 246 245 246 245 239 240 243 239 244 253 250 248 256 254 253 264 251 251 256 275
177 193 197 198 193 195 203 204 202 191 184 184 201 185 199 181 207 206 205 212 216 226 233 229 236 242 247 254 266 267 265 267 272 273 278 278 278 276 281 284 279 279 286 285 281 276 281 281 281 281 274 280 280 283 276 281 286 287 280 290 280 287 281 287 287 283 280 281 281 283 283 277 276 269 265 258 249 246 237 231 234 228 232 229 222 230 226 222 228 224 223 225 224 225 220 222 220 221 225 215 218 231 224 222 221 215 215 218 228 237 230 227 229 223 229 218 231 212 216 233
193 193 168 190 187 184 186 201 183 185 180 179 179 198 183 183 183 187 190 190 216 212 221 228 230 234 237 245 244 249 253 256 255 254 259 256 258 257 264 270 262 264 264 269 267 264 268 269 266 265 268 267 266 263 269 267 265 268 264 268 270 267 264 272 266 275 264 269 269 270 265 255 257 254 255 244 240 232 226 220 223 219 218 218 217 223 219 211 216 216 216 222 220 197 215 217 212 210 208 218 213 220 217 213 209 212 215 218 224 222 229 229 248 234 236 219 239 231 227 238
174 174 169 174 179 178 170 176 178 176 180 181 183 179 186 175 180 181 188 185 183 189 191 215 210 216 228 220 227 232 231 241 244 237 241 234 240 244 247 243 241 246 248 249 254 251 247 246 244 248 246 252 252 250 245 247 250 247 248 252 252 243 254 249 245 253 253 246 246 246 246 244 242 236 237 228 221 218 198 198 197 197 189 188 190 188 191 212 197 189 191 209 188 183 192 191 193 187 204 185 190 209 205 186 190 194 190 205 200 197 208 203 217 206 185 197 215 206 209 207
170 170 174 171 170 171 172 168 170 174 182 173 167 174 176 175 174 183 181 183 188 187 181 193 208 206 211 215 212 220 227 228 225 227 229 229 230 231 230 229 227 230 233 233 234 232 230 229 233 233 233 235 235 234 230 231 232 234 235 241 236 239 236 235 233 233 234 228 228 229 227 231 229 228 220 214 195 197 190 191 192 193 192 193 189 192 193 190 191 190 189 189 187 190 181 184 189 187 186 181 185 184 178 185 180 182 184 177 176 182 176 182 194 185 201 200 202 195 174 179
163 164 170 173 171 170 171 169 168 165 169 165 169 165 176 173 172 178 176 181 180 183 188 182 189 189 183 185 193 211 210 212 211 214 215 214 215 216 213 198 215 221 217 216 220 219 221 215 222 224 217 221 219 219 220 218 222 221 221 222 221 222 219 219 221 218 221 219 224 217 221 215 218 211 193 195 188 195 193 191 191 186 189 188 186 183 184 185 185 186 185 181 186 183 182 183 175 182 179 184 188 186 173 185 182 181 182 180 175 179 172 182 176 196 202 179 208 199 196 198
153 152 161 156 159 162 157 162 163 161 156 156 158 160 160 158 163 170 169 174 176 174 179 181 183 186 186 191 190 191 194 188 188 185 195 189 196 186 185 191 193 191 189 194 197 191 196 193 194 195 198 196 197 199 194 190 197 192 193 195 203 196 197 188 190 196 195 191 195 195 200 192 193 189 195 195 193 190 186 180 175 176 174 172 176 173 170 179 177 174 175 173 171 174 171 169 167 164 166 171 168 179 173 171 171 168 165 163 170 177 167 172 173 177 176 168 168 166 165 173
144 151 149 153 156 159 155 157 154 157 154 155 155 154 157 152 159 162 157 167 168 169 178 176 179 181 176 183 183 184 188 186 188 188 189 191 192 194 191 191 192 195 189 195 192 198 194 193 199 192 193 198 196 195 187 196 195 198 196 197 195 198 198 199 190 193 195 199 196 194 192 193 190 194 188 186 187 184 174 173 170 169 165 165 166 165 171 169 170 168 170 168 166 169 168 168 164 168 165 168 171 165 170 167 165 164 157 162 165 166 169 160 169 171 174 163 154 168 160 159
145 146 146 146 148 150 146 149 155 151 147 153 153 153 153 149 155 149 152 158 159 163 167 175 169 170 171 172 175 178 176 176 180 181 177 183 180 180 182 184 182 181 186 186 182 184 184 186 184 184 187 189 188 187 190 186 189 189 0 187 190 187 184 187 187 189 191 187 184 185 188 186 181 180 175 176 176 173 171 164 161 158 163 158 159 161 165 160 165 161 157 161 158 163 164 164 157 159 165 160 161 163 161 158 153 155 158 155 157 165 154 161 160 159 157 167 168 165 168 165
133 141 132 141 142 147 142 144 141 140 144 145 142 146 142 146 142 145 147 149 157 159 160 163 168 165 168 165 166 170 171 170 176 169 170 172 173 172 171 174 173 179 176 175 174 176 176 179 175 175 178 179 180 179 181 178 180 0 0 177 177 176 176 180 179 174 177 178 178 171 173 175 172 172 172 170 166 163 163 161 158 156 152 156 155 155 154 155 151 152 150 153 153 154 154 152 151 149 158 152 150 154 149 153 148 148 140 153 153 150 150 142 146 143 148 149 152 146 124 145
138 133 134 138 143 142 150 143 140 140 141 139 142 143 142 139 142 147 144 146 149 155 156 156 159 159 164 161 163 167 161 165 166 165 164 168 164 169 166 170 174 0 172 0 169 171 169 170 172 173 173 173 173 173 174 0 172 171 0 174 171 0 172 172 171 171 172 167 173 173 167 165 168 170 166 163 164 159 156 152 152 154 152 150 152 150 151 146 151 157 145 154 149 148 152 147 153 151 157 149 147 143 145 146 148 149 145 142 145 146 150 147 146 155 161 153 142 160 154 165
131 122 128 114 134 135 142 140 136 119 136 131 132 135 138 135 136 136 135 140 139 147 149 151 146 157 157 158 156 161 158 155 157 162 156 158 160 161 0 0 0 0 0 0 0 0 0 165 162 165 167 161 166 165 0 0 0 168 0 0 0 0 0 0 168 167 166 0 161 163 160 164 162 158 157 157 152 156 148 150 148 144 148 148 144 149 144 146 145 143 143 146 145 145 139 137 143 147 146 146 138 137 142 134 136 137 139 138 140 146 145 141 139 148 153 138 137 143 140 138
122 127 122 115 127 132 135 129 134 130 127 132 131 127 124 127 119 135 140 133 139 138 146 147 148 149 152 153 152 155 153 154 157 157 153 156 156 0 0 0 0 0 0 0 0 0 0 0 155 161 163 160 0 0 0 0 0 0 0 0 0 0 0 0 160 0 0 0 0 0 0 155 159 151 152 149 150 153 147 148 140 142 143 139 138 141 139 136 145 141 139 141 139 139 136 135 140 142 137 139 139 137 135 134 128 133 124 132 132 140 130 146 136 147 129 129 138 132 134 141
114 110 120 123 128 124 128 129 119 126 131 121 121 121 119 122 124 132 129 132 135 125 132 140 141 140 147 147 145 151 153 147 152 151 149 147 0 0 0 0 0 0 0 0 0 0 0 0 150 153 154 0 0 0 0 0 0 0 0 0 0 0 0 0 0 0 0 0 0 0 0 0 150 150 149 149 146 143 142 145 138 138 127 129 125 127 138 139 129 137 142 136 131 127 121 127 141 138 135 134 128 138 133 132 127 133 131 134 133 141 138 141 139 142 147 135 136 130 118 147
103 109 111 111 107 113 118 118 113 119 115 111 114 115 127 119 123 118 114 113 130 123 127 123 134 135 141 140 142 144 141 142 139 143 142 142 0 0 0 0 0 0 0 0 0 0 0 0 0 0 0 0 0 0 0 0 0 0 0 0 0 0 0 0 0 0 0 0 0 0 0 0 143 141 142 139 138 131 130 129 125 122 121 120 125 119 125 124 121 123 121 121 119 126 123 126 128 124 122 117 118 131 130 116 117 129 116 117 128 130 125 130 113 127 123 127 113 109 111 108
110 110 116 117 111 114 113 117 119 116 114 121 114 114 118 124 119 128 122 114 117 114 120 116 139 127 136 138 0 134 0 0 0 137 139 0 0 0 0 0 0 0 0 0 0 0 0 0 0 0 0 0 0 0 0 0 0 0 0 0 0 0 0 0 0 0 0 0 0 0 0 0 0 141 126 126 124 128 120 125 117 118 118 125 112 121 114 119 120 116 115 122 116 115 116 120 119 115 120 118 120 125 120 119 132 115 127 122 105 130 126 111 122 119 127 116 116 132 135 145
101 99 108 111 105 103 105 103 101 104 111 104 106 106 107 110 108 115 118 111 114 118 110 117 119 119 122 118 117 125 0 0 0 0 124 0 0 0 0 0 0 0 0 0 0 0 0 0 0 0 0 0 0 0 0 0 0 0 0 0 0 0 0 0 0 0 0 0 0 0 0 0 129 0 0 127 115 119 121 117 115 115 108 118 115 116 112 112 113 111 114 115 110 111 115 105 111 112 115 110 115 109 107 111 112 118 112 112 109 111 112 107 104 120 116 99 107 111 115 132
97 95 90 94 100 100 100 100 101 102 102 99 103 101 105 102 108 107 116 106 109 110 106 110 112 110 115 115 115 120 0 127 0 0 0 0 0 0 0 0 0 0 0 0 0 0 0 0 0 0 0 0 0 0 0 0 0 0 0 0 0 0 0 0 0 0 0 0 0 0 0 0 0 126 0 115 120 115 112 109 112 107 103 102 109 107 110 115 105 110 112 114 108 115 106 117 105 103 100 114 111 104 110 100 109 114 108 105 113 108 96 98 105 101 103 134 122 98 86 118
97 103 100 102 96 97 103 92 94 97 99 96 99 94 97 93 103 105 112 115 111 103 97 108 109 107 111 116 115 124 119 119 123 0 0 0 0 0 0 0 0 0 0 0 0 0 0 0 0 0 0 0 0 0 0 0 0 0 0 0 0 0 0 0 0 0 0 0 0 0 0 0 123 122 0 121 112 116 116 116 105 109 100 117 108 109 104 100 101 105 108 106 112 89 98 101 108 101 110 104 105 106 107 104 106 107 108 102 101 97 104 100 98 95 104 107 132 129 130 119
73 82 82 84 82 85 80 91 90 83 88 92 97 96 92 89 78 93 93 86 91 84 98 103 98 104 111 107 0 0 106 109 116 0 0 0 0 0 0 0 0 0 0 0 0 0 0 0 0 0 0 0 0 0 0 0 0 0 0 0 0 0 0 0 0 0 0 0 0 0 0 0 111 109 103 111 106 103 105 98 100 101 97 95 102 94 87 100 105 98 91 93 105 84 84 96 91 103 85 97 90 93 91 86 86 90 95 93 92 83 80 85 86 96 89 93 102 84 107 134
92 84 91 89 95 97 95 105 88 93 96 94 93 86 96 95 99 91 104 95 94 105 104 101 106 104 111 108 0 103 109 107 119 109 119 109 0 0 0 0 0 116 0 0 0 0 0 0 0 0 0 0 0 0 0 0 0 0 0 0 116 0 0 112 111 0 0 0 110 0 104 108 115 112 113 106 107 108 101 96 110 101 105 84 91 98 102 101 101 100 104 104 107 99 99 101 100 89 97 107 100 98 89 100 93 105 99 85 86 86 90 91 83 102 100 88 89 97 116 110
86 93 91 89 96 100 92 91 86 97 84 88 89 96 92 85 95 98 98 92 99 88 100 111 91 101 106 101 102 108 94 0 105 102 98 103 0 116 115 0 110 0 0 0 0 0 0 0 0 0 0 0 0 0 0 0 0 106 0 0 0 105 105 110 110 111 105 98 110 108 107 105 103 100 111 108 101 94 102 100 96 100 100 84 94 92 93 105 106 95 97 103 109 85 86 84 92 89 94 87 94 88 91 96 96 87 103 92 96 87 88 91 86 96 102 100 124 145 153 118
85 85 81 86 92 92 99 88 84 84 88 88 85 91 92 89 90 86 91 87 77 90 94 86 85 92 92 90 103 86 92 98 98 96 91 112 99 100 102 103 103 97 98 107 106 90 0 0 93 0 0 106 104 93 100 106 107 98 107 105 100 104 107 99 99 106 103 97 102 107 98 105 103 101 103 93 94 95 97 89 95 91 90 96 89 90 88 89 95 94 101 88 94 94 92 90 87 94 90 85 88 86 90 87 87 82 91 82 81 90 85 96 98 98 77 91 88 81 106 102
83 79 86 84 86 82 97 100 89 83 91 83 82 87 85 92 87 94 89 97 85 98 94 92 91 96 94 90 96 99 97 85 95 95 96 98 98 99 92 105 103 98 99 106 100 96 105 0 101 102 99 105 99 98 102 104 101 103 96 105 103 94 95 102 104 100 98 97 94 105 98 100 101 94 103 86 93 95 94 85 96 94 85 93 100 94 87 83 91 90 86 95 88 91 92 81 92 93 94 87 83 95 81 88 85 100 93 92 94 82 86 88 107 88 94 138 112 88 117 79
84 72 70 67 80 82 88 88 86 80 89 82 85 80 87 86 87 86 84 84 92 85 92 88 86 85 88 94 84 93 88 92 95 91 96 95 94 96 91 95 93 88 97 90 94 92 89 99 91 88 92 97 97 91 92 88 98 87 97 94 94 98 82 97 98 82 88 93 96 94 88 86 92 93 85 97 94 95 93 95 86 91 85 87 84 92 88 86 87 87 78 76 86 82 85 87 81 75 80 90 81 89 81 75 80 82 84 81 76 75 74 89 84 85 89 85 147 113 133 73
72 74 78 82 71 82 80 88 85 81 83 90 78 81 83 87 86 89 83 85 83 92 85 92 86 93 93 84 94 91 95 96 88 97 88 89 96 91 95 95 89 96 97 84 91 98 89 90 101 85 90 97 96 85 104 92 86 84 86 95 99 98 91 92 88 92 89 88 102 91 94 98 81 96 95 83 94 83 95 94 90 87 88 86 78 86 89 80 91 89 79 86 80 79 89 83 88 83 78 80 82 81 78 77 77 80 80 90 76 88 88 83 80 104 87 86 102 70 85 194
