0 0 0 0 0 0 0 0 0 0 0 0 0 0 0 0 0 0 0 0 0 0 0 0 0 0 0 0 0 0 0 0 0 0 0 0 0 0 0 0 0 0 0 0 0 0 0 0 0 0 0 0 0 0 0 0 0 0 0 0 0 0 0 0 0 0 0 0 0 0 0 0 0 0 0 0 0 0 0 0 0 0 0 0 0 0 0 0 0 0 0 0 0 0 0 0 0 0 0 0 0 0 0 0 0 0 0 0 0 0 0 0 0 0 0 0 0 0 0 0
0 0 0 0 0 0 0 0 0 0 0 0 0 0 0 0 0 0 0 0 0 0 0 0 0 0 0 0 0 0 0 0 0 0 0 0 0 0 0 0 0 0 0 0 0 0 0 0 0 0 0 0 0 0 0 0 0 0 0 0 0 0 0 0 0 0 0 0 0 0 0 0 0 0 0 0 0 0 0 0 0 0 0 0 0 0 0 0 0 0 0 0 0 0 0 0 0 0 0 0 0 0 0 0 0 0 0 0 0 0 0 0 0 0 0 0 0 0 0 0
0 0 0 0 0 0 0 0 0 0 0 0 0 0 0 0 0 0 0 0 0 0 0 0 0 0 0 0 0 0 0 0 0 0 0 0 0 0 0 0 0 0 0 0 0 0 0 0 0 0 0 0 0 0 0 0 0 0 0 0 0 0 0 0 0 0 0 0 0 0 0 0 0 0 0 0 0 0 0 0 0 0 0 0 0 0 0 0 0 0 0 0 0 0 0 0 0 0 0 0 0 0 0 0 0 0 0 0 0 0 0 0 0 0 0 0 0 0 0 0
0 0 0 0 0 0 0 0 0 0 0 0 0 0 0 0 0 0 0 0 0 0 0 0 0 0 0 0 0 0 0 0 0 0 0 0 0 0 0 0 0 0 0 0 0 0 0 0 0 0 0 0 0 0 0 0 0 0 0 0 0 0 0 0 0 0 0 0 0 0 0 0 0 0 0 0 0 0 0 0 0 0 0 0 0 0 0 0 0 0 0 0 0 0 0 0 0 0 0 0 0 0 0 0 0 0 0 0 0 0 0 0 0 0 0 0 0 0 0 0
0 0 0 0 0 0 0 0 0 0 0 0 0 0 0 0 0 0 0 0 0 0 0 0 0 0 0 0 0 0 0 0 0 0 0 0 0 0 0 0 0 0 0 0 0 0 0 0 0 0 0 0 0 0 0 0 0 0 0 0 0 0 0 0 0 0 0 0 0 0 0 0 0 0 0 0 0 0 0 0 0 0 0 0 0 0 0 0 0 0 0 0 0 0 0 0 0 0 0 0 0 0 0 0 0 0 0 0 0 0 0 0 0 0 0 0 0 0 0 0
0 0 0 0 0 0 0 0 0 0 0 0 0 0 0 0 0 0 0 0 0 0 0 0 0 0 0 0 0 0 0 0 0 0 0 0 0 0 0 546 558 514 495 492 505 517 518 520 512 513 481 518 489 544 495 0 0 0 0 0 0 0 0 0 0 0 0 0 0 0 0 0 0 0 0 0 0 0 0 0 0 0 0 0 0 0 0 0 0 0 0 0 0 0 0 0 0 0 0 0 0 0 0 0 0 0 0 0 0 0 0 0 0 0 0 0 0 0 0 0
0 0 0 0 0 0 0 0 0 0 0 0 0 0 0 0 0 0 0 0 0 0 0 0 0 0 0 0 0 0 0 0 0 0 0 0 0 494 503 495 481 488 488 494 497 491 491 491 516 509 497 507 490 492 502 495 489 478 504 460 0 0 0 0 0 0 0 0 0 0 0 0 0 0 0 0 0 0 0 0 0 0 0 0 0 0 0 0 0 0 0 0 0 0 0 0 0 0 0 0 0 0 0 0 0 0 0 0 0 0 0 0 0 0 0 0 0 0 0 0
0 0 0 0 0 0 0 0 0 0 0 0 0 0 0 0 0 0 0 0 0 0 0 0 0 0 0 0 0 0 0 0 0 0 0 492 514 509 502 499 513 492 493 515 501 502 504 517 507 499 510 495 511 506 509 522 504 506 490 502 520 518 490 512 526 0 0 0 0 0 0 0 0 0 0 0 0 0 0 0 0 0 0 0 0 0 0 0 0 0 0 0 0 0 0 0 0 0 0 0 0 0 0 0 0 0 0 0 0 0 0 0 0 0 0 0 0 0 0 0
0 0 0 0 0 0 0 0 0 0 0 0 0 0 0 0 0 0 0 0 0 0 0 0 0 0 0 0 0 0 0 0 0 518 505 506 514 519 509 501 508 504 499 497 503 511 507 520 504 515 508 493 518 516 512 521 506 508 521 506 510 513 512 512 515 534 511 547 545 508 641 577 614 0 665 558 648 629 0 637 0 0 0 0 0 0 0 0 0 0 0 0 0 0 0 0 0 0 0 0 0 0 0 0 0 0 0 0 0 0 0 0 0 0 0 0 0 0 0 0
0 0 0 0 0 0 0 0 0 0 0 0 0 0 0 0 0 0 0 0 0 0 0 0 0 0 0 0 0 0 0 516 495 499 489 502 501 505 503 489 499 499 507 501 506 510 496 512 503 509 500 502 499 500 499 498 503 505 503 507 503 507 500 496 512 503 517 520 504 541 534 565 544 544 577 592 568 561 553 594 584 554 561 621 0 583 0 599 577 573 526 563 528 587 519 603 593 551 592 556 541 568 521 593 515 0 0 0 0 0 0 0 0 0 0 0 0 0 0 0
0 0 0 0 0 0 0 0 0 0 0 0 0 0 0 0 0 0 0 0 0 0 0 0 0 0 0 0 0 0 515 518 517 506 490 516 509 505 493 513 505 512 516 509 510 507 506 512 508 512 514 514 507 509 501 516 506 507 505 522 512 510 507 518 507 506 507 515 521 524 548 574 583 581 593 603 605 608 604 625 587 607 589 611 619 630 594 586 573 606 570 606 595 580 605 562 579 620 572 640 606 614 595 611 614 589 539 586 606 0 0 0 0 0 0 0 0 0 0 0
0 0 0 0 0 0 0 0 0 0 0 0 0 0 0 0 0 0 0 0 0 0 0 0 0 0 0 0 488 483 509 494 501 492 499 494 506 495 499 503 495 510 490 490 509 503 500 503 494 499 497 499 507 506 500 504 505 511 503 496 500 498 507 502 511 502 507 496 515 519 514 555 567 563 572 586 565 553 519 556 549 589 606 545 535 555 537 554 545 565 581 546 541 573 582 574 554 599 537 576 526 551 512 562 571 536 524 563 534 0 0 0 0 0 0 0 0 0 0 0
0 0 0 0 0 0 0 0 0 0 0 0 0 0 0 0 0 0 0 0 0 0 0 0 0 0 0 477 503 507 498 495 508 493 497 499 493 501 500 499 508 502 499 509 501 501 505 503 497 504 492 511 505 501 510 503 503 516 499 517 502 501 508 500 503 498 515 497 508 504 516 513 533 546 555 542 557 559 562 557 521 536 545 535 558 545 545 561 535 547 542 593 538 565 504 553 557 553 559 522 559 533 577 550 510 488 506 576 0 0 0 0 0 0 0 0 0 0 0 0
0 0 0 0 0 0 0 0 0 0 0 0 0 0 0 0 0 0 0 0 0 0 0 0 0 0 498 498 494 500 501 509 489 499 503 501 495 500 504 501 501 511 505 509 506 507 505 500 507 501 511 505 500 505 509 511 501 509 512 511 506 508 510 500 516 508 503 508 516 501 509 512 513 524 574 551 552 551 556 588 564 557 596 559 555 574 567 527 597 574 598 571 589 581 550 590 549 561 567 574 569 609 595 579 569 538 500 583 617 0 0 0 0 0 0 0 0 0 0 0
0 0 0 0 0 0 0 0 0 0 0 0 0 0 0 0 0 0 0 0 0 0 0 0 0 489 479 492 496 488 498 491 492 479 484 484 496 490 502 496 501 492 492 513 503 501 501 507 500 503 493 499 496 497 501 506 498 508 497 502 504 511 506 508 502 495 498 506 510 521 507 511 490 527 540 507 513 517 536 543 501 532 512 546 538 533 537 537 527 524 540 543 490 508 520 532 527 488 543 539 525 525 526 499 511 531 541 531 521 0 0 0 0 0 0 0 0 0 0 0
0 0 0 0 0 0 0 0 0 0 0 0 0 0 0 0 0 0 0 0 0 0 0 0 0 505 497 497 504 488 496 496 497 514 482 498 498 499 495 499 498 506 504 504 492 494 507 495 501 500 498 506 503 503 507 500 510 502 502 510 510 500 508 505 511 514 511 511 508 501 513 514 509 529 530 519 538 542 572 509 542 552 569 550 507 552 546 542 554 578 560 511 525 560 545 554 541 533 588 558 563 563 538 552 553 551 591 552 520 562 629 0 493 578 0 0 0 0 0 0
0 0 0 0 0 0 0 0 0 0 0 0 0 0 0 0 0 0 0 0 0 0 0 0 500 493 493 496 501 501 502 503 495 495 493 498 497 496 494 503 502 504 506 498 499 510 509 501 498 506 496 504 502 512 508 512 505 506 504 508 502 497 503 509 494 509 502 508 503 511 506 514 506 504 541 555 532 582 526 522 550 550 537 557 539 570 565 567 548 536 559 557 566 558 577 592 554 597 570 576 587 583 569 547 548 562 580 575 580 531 551 0 0 0 0 0 0 0 0 0
0 0 0 0 0 0 0 0 0 0 0 0 0 0 0 0 0 0 0 0 0 0 0 0 480 496 485 491 495 490 493 499 488 494 496 496 495 493 489 501 498 496 493 494 494 501 508 499 502 494 494 502 496 503 500 501 498 501 504 499 506 503 508 504 508 508 507 508 496 505 502 516 508 514 509 507 506 532 507 501 505 532 518 505 553 492 499 548 529 562 529 534 540 528 528 527 553 524 519 522 520 528 530 531 516 525 530 518 514 539 0 0 0 0 0 0 0 0 0 0
0 0 0 0 0 0 0 0 0 0 0 0 0 0 0 0 0 0 0 0 0 0 0 519 502 512 489 498 490 492 498 508 497 493 498 497 498 498 497 502 502 498 494 501 509 508 504 508 507 503 504 502 503 506 503 511 503 506 509 514 510 502 510 504 502 504 507 511 505 499 505 511 512 501 503 518 541 564 543 546 547 528 597 573 554 570 529 566 570 525 556 557 549 544 574 544 563 557 548 540 557 542 563 561 535 581 488 527 562 603 621 0 0 0 0 0 0 0 0 0
0 0 0 0 0 0 0 0 0 0 0 0 0 0 0 0 0 0 0 0 0 0 0 500 486 493 492 486 488 488 496 491 491 498 484 489 490 485 491 491 489 493 497 494 499 490 495 500 497 500 496 498 498 499 503 503 498 509 501 500 502 502 504 496 505 493 504 499 508 514 502 511 502 504 498 509 519 546 515 530 534 518 516 531 532 525 514 526 527 529 535 502 527 511 491 514 551 534 478 533 532 496 538 563 528 515 523 528 522 495 491 0 0 0 0 0 0 0 0 0
0 0 0 0 0 0 0 0 0 0 0 0 0 0 0 0 0 0 0 0 0 0 444 487 485 483 494 493 493 489 490 501 489 489 490 489 485 494 497 486 499 496 496 497 500 492 507 494 497 510 499 499 497 503 506 503 503 494 503 495 500 503 504 509 500 504 500 503 500 510 514 504 507 501 499 514 505 500 534 501 539 531 538 542 519 494 489 520 529 529 502 526 493 522 538 502 522 520 529 527 493 521 510 515 539 512 494 547 484 476 503 496 478 0 0 0 0 0 0 0
0 0 0 0 0 0 0 0 0 0 0 0 0 0 0 0 0 0 0 0 0 0 494 496 489 484 495 503 498 498 493 495 497 490 487 497 487 496 492 488 498 495 501 493 506 503 505 508 502 504 502 496 503 505 500 501 508 506 504 513 501 501 508 509 508 503 511 516 510 508 509 511 509 509 516 501 514 526 521 530 538 537 512 530 532 518 489 529 534 536 518 521 517 511 537 537 529 569 547 570 522 536 570 553 516 531 525 544 560 532 543 0 0 0 0 0 0 0 0 0
0 0 0 0 0 0 0 0 0 0 0 0 0 0 0 0 0 0 0 0 0 0 460 479 479 480 489 491 494 493 483 481 484 483 489 488 484 496 490 488 492 490 491 492 492 495 497 492 496 499 493 496 498 493 494 497 504 504 501 497 499 498 502 502 495 500 503 508 500 508 500 503 500 494 509 498 491 496 515 511 482 531 507 480 483 507 464 478 495 492 496 475 507 487 503 470 513 488 492 482 496 479 527 495 491 527 478 507 512 515 511 500 502 0 0 0 0 0 0 0
0 0 0 0 0 0 0 0 0 0 0 0 0 0 0 0 0 0 0 0 0 0 505 488 484 487 489 496 489 487 491 492 486 488 489 496 485 488 499 489 499 492 499 498 494 500 498 499 503 501 502 503 502 502 497 498 501 502 501 504 504 507 502 507 498 501 502 514 505 499 512 507 500 511 499 508 514 521 544 539 506 525 548 537 521 537 503 539 554 535 495 496 515 565 540 546 518 562 526 521 508 526 536 505 522 525 541 548 514 544 556 559 545 525 0 0 0 0 0 0
0 0 0 0 0 0 0 0 0 0 0 0 0 0 0 0 0 0 0 0 0 0 497 487 477 485 493 487 498 492 496 487 490 481 485 490 486 497 485 499 486 493 508 500 499 493 495 500 495 501 500 496 498 501 507 504 505 504 508 497 509 503 504 502 504 502 499 503 507 507 502 501 508 508 504 502 510 511 520 512 512 491 511 537 520 558 525 531 515 518 519 533 520 501 519 505 514 515 519 521 521 520 522 497 492 524 526 515 515 524 539 516 488 0 0 0 0 0 0 0
0 0 0 0 0 0 0 0 0 0 0 0 0 0 0 0 0 0 0 0 0 0 476 475 488 487 485 490 492 485 493 483 484 491 485 484 493 484 494 488 493 490 492 493 491 496 493 498 494 497 500 494 495 499 504 498 504 504 494 496 501 500 501 506 509 502 501 497 497 500 494 502 492 504 495 507 509 506 507 510 492 492 539 515 512 510 537 514 528 535 527 489 525 529 511 546 516 520 531 517 509 527 479 507 538 537 499 489 517 503 524 510 508 0 0 0 0 0 0 0
0 0 0 0 0 0 0 0 0 0 0 0 0 0 0 0 0 0 0 0 0 446 490 491 492 487 493 490 489 482 491 487 485 497 487 482 503 495 493 497 490 493 491 497 496 493 497 501 493 496 498 503 496 500 498 502 499 501 506 497 499 510 499 508 509 503 501 502 506 501 504 506 504 501 505 510 506 514 531 518 540 547 534 508 517 499 510 534 517 540 512 510 515 484 535 530 528 501 515 497 568 535 555 538 500 523 548 558 531 561 505 0 513 0 0 0 0 0 0 0
0 0 0 0 0 0 0 0 0 0 0 0 0 0 0 0 0 0 0 0 0 442 483 482 488 485 484 480 487 487 478 481 486 493 488 486 493 485 489 490 493 500 489 492 499 500 493 494 494 497 492 497 497 501 499 496 497 500 500 501 499 497 502 492 500 501 498 502 506 505 500 501 500 506 505 498 504 511 517 514 508 514 523 530 500 540 500 522 483 519 482 510 511 522 504 521 514 552 513 498 512 508 513 484 494 496 490 490 533 527 520 499 0 0 0 0 0 0 0 0
0 0 0 0 0 0 0 0 0 0 0 0 0 0 0 0 0 0 0 0 0 445 469 477 486 476 486 487 480 481 489 495 482 491 487 486 486 492 486 490 496 494 491 490 493 488 497 496 497 497 493 493 493 498 496 508 495 500 500 496 508 497 502 496 498 502 510 498 499 503 495 496 494 503 503 491 499 492 505 494 487 528 486 504 501 498 501 509 523 513 492 502 477 495 493 496 506 514 529 510 505 484 495 485 474 480 534 483 475 500 514 459 495 487 0 0 0 0 0 0
0 0 0 0 0 0 0 0 0 0 0 0 0 0 0 0 0 0 0 0 0 487 475 482 487 491 485 479 485 484 488 488 488 490 487 487 486 488 488 494 490 491 495 494 495 496 493 500 492 496 500 504 495 500 504 500 496 498 500 501 496 500 501 500 499 502 501 503 498 505 501 506 505 495 503 505 509 501 506 508 503 519 521 518 525 525 489 509 504 511 521 501 504 498 498 488 528 503 515 527 520 504 514 535 533 521 537 554 538 539 514 526 486 582 0 0 0 0 0 0
0 0 0 0 0 0 0 0 0 0 0 0 0 0 0 0 0 0 0 0 0 448 483 484 484 475 475 476 479 477 480 485 485 489 483 486 481 484 488 486 490 491 488 492 485 491 491 486 492 493 493 494 498 496 496 496 495 496 499 492 494 502 498 492 495 499 507 497 497 498 500 496 498 504 498 498 498 508 507 494 474 516 504 482 490 476 493 514 489 477 489 498 483 505 485 506 484 492 473 484 475 495 441 498 498 487 499 520 486 493 487 494 439 0 0 0 0 0 0 0
0 0 0 0 0 0 0 0 0 0 0 0 0 0 0 0 0 0 0 0 0 470 485 484 478 482 478 479 486 486 482 483 482 486 490 487 483 487 491 485 488 487 495 491 490 492 495 498 497 496 488 493 493 500 495 499 497 499 494 502 496 498 496 499 498 502 496 501 497 500 505 496 504 500 497 496 502 506 506 505 505 528 522 500 509 515 515 508 535 507 515 498 512 494 513 534 514 483 505 514 518 497 495 494 524 480 514 512 513 509 551 545 492 511 0 0 0 0 0 0
0 0 0 0 0 0 0 0 0 0 0 0 0 0 0 0 0 0 0 0 0 493 475 482 475 483 476 477 482 478 485 480 486 480 481 481 488 490 489 487 491 488 491 494 489 494 497 493 493 495 494 492 492 498 498 499 498 501 501 498 500 499 495 497 501 497 499 498 497 503 505 502 503 503 497 495 506 496 508 506 517 516 507 505 512 505 527 503 511 500 518 534 514 508 494 494 490 512 522 515 506 543 532 517 542 485 539 524 509 514 507 519 535 545 0 0 0 0 0 0
0 0 0 0 0 0 0 0 0 0 0 0 0 0 0 0 0 0 0 0 0 451 469 467 472 477 479 476 476 480 482 482 480 488 480 486 478 482 489 489 487 485 487 491 490 492 489 491 494 493 489 494 493 494 495 497 491 498 491 495 495 495 499 501 498 497 495 499 500 498 504 501 494 500 498 502 503 500 501 481 490 501 511 489 503 495 493 511 507 508 487 504 510 492 494 477 510 502 497 498 511 483 479 526 518 529 502 494 496 525 454 495 503 0 0 0 0 0 0 0
0 0 0 0 0 0 0 0 0 0 0 0 0 0 0 0 0 0 0 0 0 466 477 481 477 478 476 480 479 480 485 484 480 487 482 488 482 489 487 489 489 487 488 491 484 491 489 493 495 491 490 491 490 496 497 494 494 494 500 495 497 500 496 496 501 498 498 496 499 505 501 498 493 507 504 505 509 505 525 511 520 512 515 531 528 493 528 538 522 504 500 524 522 528 509 534 501 509 502 517 526 541 534 518 558 522 523 530 527 551 554 511 539 556 526 0 0 0 0 0
0 0 0 0 0 0 0 0 0 0 0 0 0 0 0 0 0 0 0 0 0 426 470 471 471 473 476 474 474 474 475 477 476 485 482 481 483 484 483 483 485 488 491 488 485 486 485 488 485 496 491 490 492 496 496 497 490 500 496 497 494 499 500 500 494 501 493 499 496 494 498 496 495 493 502 499 498 500 504 493 491 505 475 493 484 495 507 488 507 488 487 489 489 479 486 501 487 472 494 501 487 493 482 480 513 478 513 473 495 484 503 484 483 524 0 0 0 0 0 0
0 0 0 0 0 0 0 0 0 0 0 0 0 0 0 0 0 0 0 0 0 444 473 473 479 479 483 479 477 477 479 482 482 486 481 483 486 481 479 483 481 487 490 485 485 492 491 498 494 490 488 493 491 497 493 494 498 492 494 494 494 495 500 500 500 501 497 500 500 493 492 494 499 498 495 498 494 498 496 492 503 493 485 481 469 501 503 486 485 486 504 501 493 479 500 512 484 494 488 487 498 503 511 513 522 508 528 500 498 498 492 465 474 481 471 0 0 0 0 0
0 0 0 0 0 0 0 0 0 0 0 0 0 0 0 0 0 0 0 0 0 0 480 472 479 480 477 474 478 473 484 483 487 480 484 476 483 489 484 489 485 485 485 490 488 495 486 487 493 493 496 498 496 496 498 494 495 498 494 491 496 496 500 499 497 503 500 497 498 493 499 499 496 494 496 498 495 502 507 513 502 496 512 510 497 513 506 491 503 524 507 507 501 499 520 503 525 501 520 485 514 473 514 508 525 503 478 489 515 531 520 466 510 491 0 0 0 0 0 0
0 0 0 0 0 0 0 0 0 0 0 0 0 0 0 0 0 0 0 0 0 0 494 470 465 468 477 476 471 481 474 475 478 480 481 484 478 487 485 479 485 485 482 485 486 489 486 489 494 487 488 496 492 492 488 489 496 490 494 493 492 495 495 494 501 498 494 495 490 498 498 493 495 494 494 494 495 495 499 496 493 491 494 497 491 495 503 487 487 478 510 496 503 508 493 488 503 500 487 473 478 482 484 504 500 509 485 490 473 475 504 459 453 0 0 0 0 0 0 0
0 0 0 0 0 0 0 0 0 0 0 0 0 0 0 0 0 0 0 0 0 0 528 472 470 480 481 478 488 478 476 479 482 484 482 482 482 484 481 490 490 484 487 490 490 487 490 487 490 493 491 497 491 497 492 492 495 491 496 495 496 493 495 496 497 494 499 495 496 498 497 494 497 494 492 493 499 495 495 533 488 493 491 520 521 508 501 520 527 517 537 504 526 517 515 531 526 490 521 520 515 509 499 527 488 480 495 523 526 519 526 533 543 523 530 457 0 0 0 0
0 0 0 0 0 0 0 0 0 0 0 0 0 0 0 0 0 0 0 0 0 0 598 467 473 475 477 479 473 476 476 482 479 484 484 481 484 484 483 486 486 490 487 484 488 488 490 490 489 488 491 496 495 498 496 498 495 496 492 493 491 496 500 498 497 495 498 498 497 494 492 494 498 500 492 495 494 500 491 489 500 509 502 513 515 515 517 513 519 538 530 502 528 542 525 552 516 548 516 511 508 517 527 481 545 504 503 517 535 523 506 458 552 559 525 0 0 0 0 0
0 0 0 0 0 0 0 0 0 0 0 0 0 0 0 0 0 0 0 0 0 0 0 474 465 470 481 470 473 469 473 478 476 481 479 473 480 479 483 480 483 485 485 487 487 487 487 486 486 489 494 492 500 491 495 491 492 492 494 498 491 496 493 491 493 494 493 500 497 497 499 493 494 496 494 494 492 488 487 493 509 489 494 485 499 492 504 496 496 497 502 497 470 500 500 517 495 495 494 518 505 493 468 467 480 473 456 482 479 488 500 487 453 0 0 508 0 0 0 0
0 0 0 0 0 0 0 0 0 0 0 0 0 0 0 0 0 0 0 0 0 0 0 505 474 475 476 478 479 476 474 477 478 475 483 478 480 477 486 484 482 481 491 480 482 485 491 489 485 490 490 491 491 494 497 493 493 493 496 492 492 490 496 492 493 497 495 501 500 494 496 496 498 495 492 492 492 498 496 517 505 505 505 492 516 507 504 508 507 542 517 508 494 522 533 521 517 513 530 556 524 546 536 538 513 512 497 531 514 490 541 486 544 506 0 0 0 0 0 0
0 0 0 0 0 0 0 0 0 0 0 0 0 0 0 0 0 0 0 0 0 0 0 510 469 474 472 477 476 468 475 478 483 475 476 480 478 482 483 481 481 478 486 486 484 485 487 489 491 486 491 499 489 486 493 491 491 491 488 493 492 489 489 494 492 494 491 493 492 492 497 490 488 500 494 490 490 486 495 505 491 505 490 488 490 498 514 510 486 508 497 517 479 490 508 485 503 503 508 482 474 514 459 470 472 461 483 484 464 486 450 471 486 510 0 0 0 0 0 0
0 0 0 0 0 0 0 0 0 0 0 0 0 0 0 0 0 0 0 0 0 0 0 0 476 474 466 471 472 473 472 472 478 476 480 478 479 476 477 479 478 484 484 481 484 486 485 484 493 489 491 493 491 492 491 489 491 491 487 489 490 492 489 489 493 495 491 492 496 495 494 492 494 498 489 488 496 497 497 494 482 486 490 500 498 505 499 504 507 518 502 505 486 488 521 480 508 489 495 506 498 519 499 505 463 484 449 447 485 499 472 465 441 451 448 439 0 0 0 0
0 0 0 0 0 0 0 0 0 0 0 0 0 0 0 0 0 0 0 0 0 0 0 0 514 467 470 476 473 474 477 474 476 477 481 477 479 478 480 484 483 483 479 488 484 486 491 488 488 491 489 489 494 493 487 485 491 493 494 493 492 491 492 494 495 496 495 489 493 493 497 496 494 492 497 489 500 503 483 501 512 509 480 502 493 528 482 532 510 521 506 504 524 524 524 516 525 522 518 516 508 526 504 509 468 499 461 470 485 485 493 504 497 506 493 0 0 0 0 0
0 0 0 0 0 0 0 0 0 0 0 0 0 0 0 0 0 0 0 0 0 0 0 0 0 458 467 474 469 465 469 469 473 470 471 480 476 474 477 480 480 475 479 479 481 476 480 482 483 486 488 488 484 486 485 485 490 489 483 488 490 489 491 485 492 492 488 493 495 497 490 494 496 491 486 488 478 479 491 472 488 477 485 484 492 480 484 481 485 492 503 488 506 490 495 497 474 485 497 488 476 488 483 471 460 471 489 458 433 438 457 431 461 418 0 0 0 0 0 0
0 0 0 0 0 0 0 0 0 0 0 0 0 0 0 0 0 0 0 0 0 0 0 0 0 534 472 475 469 470 470 475 475 473 480 474 474 476 479 478 480 479 482 480 479 484 478 483 482 483 480 488 482 485 489 487 490 485 488 492 491 490 493 490 490 492 495 488 489 495 487 490 495 494 485 486 489 487 494 494 497 495 490 488 484 505 503 484 490 493 507 486 500 508 510 502 502 512 489 547 494 503 501 485 495 468 488 482 485 452 453 509 417 481 467 0 0 0 0 0
0 0 0 0 0 0 0 0 0 0 0 0 0 0 0 0 0 0 0 0 0 0 0 0 0 0 472 469 466 470 468 474 470 474 473 474 476 476 477 476 475 480 482 478 479 483 488 483 480 484 486 485 483 487 488 488 489 491 491 485 490 487 486 492 495 491 491 490 496 491 492 492 488 492 491 485 486 478 482 489 489 486 483 498 471 497 486 495 486 485 481 510 483 503 486 491 474 504 502 509 497 486 506 473 496 463 477 521 456 493 511 515 464 496 0 0 0 0 0 0
0 0 0 0 0 0 0 0 0 0 0 0 0 0 0 0 0 0 0 0 0 0 0 0 0 0 0 468 464 469 465 469 469 473 464 473 472 475 475 479 478 476 476 477 477 479 481 480 484 480 482 488 484 482 480 480 487 488 481 490 482 485 492 486 486 492 486 491 492 489 487 484 486 480 489 477 486 485 493 481 485 478 476 471 484 500 489 490 489 488 471 494 495 478 476 505 480 491 482 510 512 495 465 473 489 492 441 472 469 439 473 487 450 465 474 0 0 0 0 0
0 0 0 0 0 0 0 0 0 0 0 0 0 0 0 0 0 0 0 0 0 0 0 0 0 0 0 546 469 467 466 466 474 472 472 478 474 473 475 473 476 478 478 479 481 478 480 480 480 485 481 480 486 486 481 485 486 480 491 482 488 487 488 487 489 487 487 492 489 486 491 484 483 477 488 508 491 490 488 486 500 480 513 488 500 494 522 474 482 507 480 503 472 530 499 519 490 473 513 499 503 486 505 467 487 473 514 504 488 472 493 474 524 489 522 0 0 0 0 0
0 0 0 0 0 0 0 0 0 0 0 0 0 0 0 0 0 0 0 0 0 0 0 0 0 0 0 0 503 465 468 466 464 467 472 470 473 474 474 473 471 470 478 474 478 481 478 475 479 481 483 480 483 484 480 480 485 481 485 488 484 485 486 486 488 489 489 486 487 488 484 485 471 483 493 489 473 485 488 486 483 481 469 502 494 477 494 487 487 493 488 477 485 471 485 486 469 487 494 462 483 485 495 482 459 447 473 448 463 475 446 497 452 423 460 0 0 0 0 0
0 0 0 0 0 253 224 266 329 0 0 0 0 0 0 0 0 0 0 0 0 0 0 0 0 0 0 0 0 497 457 466 467 470 468 472 466 472 473 474 473 468 479 470 475 479 481 477 477 477 479 482 481 483 481 480 483 484 483 484 486 488 488 486 480 488 481 483 482 487 475 487 477 471 476 474 473 474 468 481 473 479 484 475 482 483 466 484 473 472 468 490 500 457 503 483 497 469 494 473 473 493 489 449 463 467 464 451 466 486 439 448 448 414 482 0 0 0 0 0
0 0 0 0 249 234 229 234 235 299 400 0 0 0 0 0 0 0 0 0 0 2379 0 0 0 0 0 0 0 0 468 464 465 467 469 472 473 469 473 469 472 476 471 472 481 475 481 477 477 477 479 485 482 482 483 481 485 484 488 479 477 479 486 484 484 489 489 487 482 486 481 484 469 478 484 496 481 480 483 478 491 469 489 477 484 498 500 476 478 481 479 504 476 486 479 491 487 494 488 490 489 529 492 469 493 454 448 461 487 484 462 465 516 0 0 0 0 0 0 0
0 0 0 193 219 226 228 219 231 238 310 0 0 0 0 0 0 0 0 0 0 0 0 0 0 0 0 0 0 0 0 455 458 467 464 467 468 466 465 463 464 469 472 468 470 473 471 477 471 476 474 477 478 478 479 475 478 477 477 478 476 485 478 481 477 484 482 481 479 484 467 477 472 476 469 487 473 471 459 473 464 476 474 465 461 472 469 462 475 482 466 480 471 464 465 472 451 444 460 454 476 456 442 457 464 458 458 464 438 426 457 443 429 435 442 0 0 0 0 0
220 240 290 255 274 274 283 235 240 238 323 0 405 445 413 416 424 423 414 433 452 460 458 437 478 435 450 451 459 465 454 470 466 468 458 466 461 470 467 470 466 475 472 474 480 471 470 476 480 474 476 472 477 484 481 480 481 480 477 478 478 479 476 478 482 480 480 481 477 484 481 479 478 473 473 460 480 473 467 468 475 472 466 482 478 480 478 490 463 477 476 463 475 473 476 479 474 478 474 481 469 475 475 483 473 451 477 454 480 481 479 449 487 483 478 486 0 0 0 0
197 205 199 209 216 261 238 230 227 246 359 386 386 398 412 387 397 396 423 412 418 422 402 425 437 419 424 436 440 449 454 460 460 459 451 461 455 461 458 462 461 461 455 465 461 467 472 467 475 470 471 471 472 467 468 473 468 471 471 469 478 472 476 476 471 476 475 477 471 470 470 471 463 471 458 455 467 456 465 475 470 462 448 458 457 453 457 453 444 445 456 448 471 447 459 461 437 459 460 466 451 442 452 442 453 452 444 444 443 439 432 423 440 486 437 481 0 0 0 0
180 195 213 231 213 228 236 226 221 283 400 363 365 360 382 374 377 377 375 371 382 385 392 393 390 409 407 423 431 434 440 441 440 439 438 441 441 444 443 450 443 445 441 448 444 451 447 454 449 447 447 452 460 457 459 457 456 452 459 465 457 462 451 461 455 452 458 457 459 450 455 450 448 447 433 429 425 424 432 431 434 432 425 423 424 437 414 431 428 415 429 430 421 429 430 400 405 422 415 425 420 419 425 409 426 404 389 399 425 421 416 400 427 433 443 443 404 371 0 433
309 282 257 221 235 224 233 230 255 359 339 342 345 352 357 347 354 356 360 360 360 360 366 381 378 389 398 407 417 416 418 428 418 432 430 431 431 435 434 434 431 435 427 431 433 437 436 433 442 441 447 441 442 449 444 448 443 444 443 443 452 440 445 448 440 439 446 437 437 443 435 429 429 426 422 423 412 410 410 394 405 394 400 396 409 406 402 398 396 397 392 379 393 400 403 402 390 403 403 405 402 401 407 420 393 392 394 387 422 406 392 392 386 403 386 402 411 418 436 410
287 287 276 235 233 229 231 246 286 296 299 306 301 300 301 290 314 301 317 323 324 319 341 336 352 364 374 377 398 392 397 409 409 404 403 404 405 406 412 415 408 414 412 407 410 412 417 420 414 415 413 414 421 421 422 425 422 423 417 421 423 420 417 416 416 416 424 421 416 413 408 410 399 400 401 385 390 359 375 361 356 354 355 372 362 360 371 365 350 363 372 359 357 378 352 375 352 371 355 356 368 359 365 371 356 356 351 352 354 339 369 366 363 360 339 372 325 335 334 364
281 283 284 273 254 249 253 283 268 279 286 276 271 296 275 280 279 290 296 287 294 307 311 320 333 343 363 374 360 372 376 386 389 391 376 377 391 402 394 392 397 390 387 394 393 396 399 391 390 389 394 400 393 397 390 399 391 395 401 398 391 396 396 398 387 383 394 393 395 396 384 390 383 384 378 356 358 352 335 326 339 321 330 332 334 329 330 327 336 325 317 338 328 327 331 335 338 323 325 328 334 327 331 339 330 330 326 322 327 315 314 330 356 328 333 338 307 317 316 322
243 245 255 254 249 243 250 254 265 263 256 262 258 257 256 258 262 267 268 269 269 285 291 298 309 320 335 340 355 363 362 364 358 364 362 369 361 369 365 367 370 374 374 371 375 377 369 371 371 372 380 371 376 371 378 378 371 372 378 375 375 371 375 375 366 377 377 381 366 367 365 366 365 360 353 338 332 317 309 316 303 291 306 295 303 300 301 300 303 292 305 302 316 306 314 302 295 296 297 307 313 314 301 307 309 317 314 312 311 294 305 300 288 301 293 285 294 343 280 300
222 227 216 229 228 233 244 235 240 234 231 243 241 241 238 240 234 234 240 238 257 257 271 275 289 301 307 320 325 332 330 336 339 343 336 341 337 342 338 344 345 338 349 349 344 344 343 351 343 342 342 346 344 351 355 347 342 353 355 342 350 350 342 340 351 349 344 351 348 341 344 343 337 339 323 316 300 292 284 282 271 275 284 270 277 269 276 277 264 272 275 277 281 280 269 265 266 263 269 278 272 271 272 270 275 267 271 265 270 273 272 275 277 271 263 269 268 268 250 260
220 216 227 226 234 219 227 225 228 236 229 228 213 228 228 224 239 224 233 235 238 247 254 263 273 284 287 293 297 305 309 310 320 319 317 321 321 323 326 327 316 323 318 322 325 328 327 328 325 326 319 325 332 334 333 328 330 320 331 325 323 327 321 328 333 336 326 333 326 321 321 324 323 309 309 296 286 273 277 272 264 269 267 262 259 257 267 261 259 260 253 251 260 262 268 262 250 255 270 259 261 266 263 270 254 250 261 265 265 262 267 281 270 268 267 271 255 259 285 276
195 209 223 209 215 214 215 218 215 214 213 215 208 214 218 225 214 221 223 220 239 230 247 250 252 263 265 278 284 281 286 294 292 293 295 298 294 299 299 304 301 296 297 298 300 300 298 303 307 304 304 298 304 302 296 302 301 302 303 306 302 306 308 305 303 308 306 295 300 301 298 297 301 294 288 280 270 265 256 255 247 247 248 250 246 243 247 244 239 243 241 249 246 246 245 235 236 240 244 245 248 245 251 251 240 244 239 254 237 255 242 261 250 257 251 258 263 248 247 263
182 195 205 208 200 203 204 205 199 201 200 201 190 203 204 190 206 187 210 210 217 223 231 234 239 244 252 261 264 268 271 265 269 271 281 276 276 273 286 280 277 275 281 283 277 280 281 281 284 283 280 284 278 284 280 281 283 283 283 286 280 289 286 284 285 284 282 283 288 285 281 284 272 272 264 258 260 251 240 231 233 229 228 232 228 226 227 220 228 226 225 230 221 228 229 220 228 221 222 227 226 230 223 231 230 218 224 225 226 231 228 239 244 218 234 235 246 235 225 245
181 181 190 191 186 194 185 189 189 182 183 180 184 186 186 177 190 186 190 206 212 212 220 231 229 234 238 241 245 252 254 254 258 254 262 259 260 260 269 267 262 262 262 267 264 261 266 265 265 263 266 269 264 269 267 267 265 273 260 274 268 272 270 277 271 270 271 269 267 263 266 255 256 253 250 243 245 230 224 222 220 223 218 218 219 225 201 215 220 221 215 221 220 211 216 213 213 207 211 218 222 215 217 210 212 217 212 209 219 226 229 228 239 238 216 226 234 231 237 240
174 174 170 176 180 179 178 174 183 183 184 178 179 179 182 184 185 184 178 188 182 189 206 210 194 218 223 220 229 231 233 241 237 241 237 238 239 247 243 249 243 242 246 248 250 247 243 244 242 251 249 249 246 248 245 244 251 247 248 250 249 246 251 246 242 250 246 248 242 243 243 242 240 238 233 226 219 216 195 198 198 196 186 188 189 198 195 197 193 186 188 207 188 185 188 187 185 184 192 193 190 204 206 187 204 188 188 182 204 205 203 212 202 202 199 198 204 199 206 204
172 173 168 176 171 175 176 176 174 181 179 174 176 171 179 181 178 182 186 186 187 186 183 187 210 205 212 219 218 222 227 229 221 224 225 225 232 229 229 230 227 228 231 233 233 234 226 226 235 234 235 236 235 233 239 230 235 239 237 235 232 238 234 232 235 236 236 231 231 231 230 228 226 226 217 213 194 211 190 189 196 194 193 191 194 193 187 191 189 181 193 184 190 185 184 190 184 187 188 181 185 180 178 182 182 187 185 182 177 178 181 184 193 207 204 203 204 182 203 206
165 164 171 171 174 169 171 170 167 166 170 164 171 174 171 172 175 173 179 182 177 185 178 189 189 183 189 185 207 212 212 211 209 213 210 214 216 215 212 196 214 220 216 216 220 222 221 219 218 220 214 219 216 221 220 218 220 220 221 224 218 225 221 221 218 216 218 216 223 219 223 216 216 214 193 192 186 197 194 191 186 182 184 185 186 187 183 188 188 181 179 180 182 182 182 185 180 183 180 180 182 181 182 185 177 178 184 179 179 176 171 174 178 171 197 169 181 198 190 198
149 155 159 162 164 162 157 165 160 162 158 158 161 159 154 156 159 165 166 172 170 173 181 181 181 183 184 183 191 185 182 185 183 185 194 192 187 185 196 189 192 190 186 191 196 192 192 192 198 192 194 196 194 193 192 194 191 190 190 196 202 197 197 188 195 193 191 194 190 191 196 195 195 191 187 191 193 185 186 177 180 175 176 174 169 171 172 176 170 172 176 174 169 169 171 172 169 166 168 170 168 171 173 171 172 173 168 162 171 166 173 173 170 176 177 167 167 166 165 134
148 145 157 152 158 154 155 159 155 158 160 155 156 156 158 156 152 167 156 166 169 168 176 176 178 182 179 182 187 184 189 188 190 190 192 188 190 193 191 189 192 195 189 198 194 198 196 198 197 194 194 197 197 195 198 192 200 198 195 198 195 189 198 199 194 195 195 187 196 198 196 196 192 190 191 189 189 183 180 174 171 173 166 167 171 167 170 170 171 166 169 168 173 170 168 166 161 164 164 172 165 169 174 169 165 161 163 164 167 169 169 167 177 178 175 167 159 165 171 170
139 143 147 146 148 151 147 149 152 150 147 154 148 153 147 146 152 150 153 158 158 164 163 173 169 172 174 169 174 178 179 180 183 179 176 181 180 181 183 185 187 184 186 183 181 184 183 182 185 185 186 190 187 186 187 187 185 189 187 188 188 186 184 187 188 186 189 185 187 188 185 185 181 179 178 176 174 169 168 165 160 158 161 160 158 161 162 163 161 164 162 163 159 160 160 160 155 155 162 162 155 158 163 156 154 159 150 155 157 162 153 159 162 163 157 169 163 158 174 174
137 141 134 140 143 151 147 143 143 147 147 147 140 145 143 146 142 147 146 149 157 159 161 161 171 165 169 165 167 172 169 170 175 171 170 172 174 171 176 174 174 175 174 176 175 177 174 177 176 176 178 178 181 180 179 181 181 0 0 178 176 176 178 181 180 177 180 180 180 174 175 175 173 174 169 168 171 163 161 164 160 151 155 155 160 157 155 152 151 155 150 153 155 154 155 153 151 152 155 151 159 149 150 153 149 147 143 152 160 154 153 148 147 152 149 143 155 146 147 152
139 133 133 140 141 141 148 142 141 138 139 143 142 143 139 141 140 148 147 149 152 150 152 157 161 159 161 161 162 165 162 162 166 165 164 166 163 170 167 167 172 0 169 167 170 172 173 172 170 172 176 173 171 174 173 0 174 171 0 176 175 0 0 174 172 173 172 169 174 172 168 168 168 169 165 163 165 162 159 152 150 155 152 150 154 152 152 148 151 156 143 152 149 151 151 147 153 151 156 151 148 147 149 151 150 142 141 141 150 151 147 145 149 157 154 157 145 162 152 167
129 124 128 116 133 133 142 136 135 122 135 129 136 124 138 137 136 132 139 140 138 144 147 149 148 154 157 154 156 158 159 158 160 161 157 157 161 162 0 0 0 0 0 0 0 0 0 164 166 167 167 163 166 167 0 0 0 168 166 0 0 0 0 0 166 165 164 0 161 162 162 159 160 159 155 153 152 157 148 150 146 143 146 148 141 150 144 145 143 146 146 147 144 145 139 138 142 147 144 144 139 139 138 138 133 133 137 135 137 138 140 143 145 151 144 138 144 133 139 134
115 127 126 115 126 131 132 131 136 132 131 131 132 134 124 126 120 136 135 135 140 143 147 145 148 150 155 154 152 155 153 158 153 157 152 155 153 0 0 0 0 0 0 0 0 0 0 0 155 163 163 162 0 0 0 0 0 0 0 0 0 0 0 0 0 0 0 0 0 0 0 156 158 153 153 148 147 150 147 142 139 142 143 140 139 143 142 138 145 141 124 144 140 141 137 136 143 140 138 137 133 139 136 135 130 136 137 134 139 140 134 148 133 145 141 133 140 128 130 156
112 110 118 119 129 125 130 129 127 125 130 120 120 129 120 130 132 131 129 134 134 125 134 143 143 142 145 143 145 151 152 147 151 150 147 150 0 0 0 0 0 0 0 0 0 0 0 0 152 154 155 0 0 0 0 0 0 0 0 0 0 0 0 0 0 0 0 0 0 0 0 0 149 151 149 147 146 142 141 144 139 141 136 128 125 125 137 139 136 132 136 129 130 127 121 128 139 138 131 133 128 137 135 133 126 136 134 125 130 136 132 138 140 137 130 134 131 115 124 152
102 110 112 111 106 111 119 113 112 119 113 111 114 112 123 119 119 118 116 118 130 124 133 122 125 137 137 138 141 144 139 143 142 144 141 141 0 0 0 0 0 0 0 0 0 0 0 0 0 0 0 0 0 0 0 0 0 0 0 0 0 0 0 0 0 0 0 0 0 0 0 0 143 140 140 138 138 129 128 129 124 123 119 122 126 120 123 123 122 123 119 124 115 126 123 123 126 122 116 118 115 129 134 117 117 128 117 120 133 131 119 134 118 119 110 111 109 97 111 111
112 108 117 118 111 115 116 125 121 119 117 118 115 118 115 121 117 127 122 115 116 113 123 119 131 137 135 136 0 134 0 0 0 138 141 0 0 0 0 0 0 0 0 0 0 0 0 0 0 0 0 0 0 0 0 0 0 0 0 0 0 0 0 0 0 0 0 0 0 0 0 0 0 144 126 135 127 125 123 130 119 117 124 125 119 118 119 120 120 117 115 120 115 116 113 122 116 122 120 124 115 126 128 118 120 115 116 122 114 134 126 114 131 126 141 119 110 134 143 142
102 100 107 110 102 104 106 104 102 102 107 107 105 105 107 110 106 116 117 108 114 115 114 114 120 123 124 120 0 135 0 0 0 0 0 0 0 0 0 0 0 0 0 0 0 0 0 0 0 0 0 0 0 0 0 0 0 0 0 0 0 0 0 0 0 0 0 0 0 0 0 0 131 0 0 124 119 117 121 115 112 114 111 115 112 113 111 112 111 114 116 116 110 107 108 107 112 112 108 109 114 109 108 115 108 115 109 111 107 105 105 107 102 122 116 101 106 121 110 145
102 99 91 97 101 101 100 101 102 102 98 96 104 103 106 104 107 108 116 109 111 110 108 108 117 110 115 118 119 119 0 127 0 0 0 0 0 0 0 0 0 0 0 0 0 0 0 0 0 0 0 0 0 0 0 0 0 0 0 0 0 0 0 0 0 0 0 0 0 0 0 0 0 126 0 117 121 116 114 111 109 111 105 102 112 108 111 115 105 109 114 113 109 110 106 114 104 110 99 117 108 107 108 100 108 116 110 107 111 112 107 103 109 107 102 124 111 92 106 108
94 103 100 103 97 101 105 94 95 98 99 99 101 95 97 93 103 103 114 116 115 106 97 111 112 106 113 114 115 126 121 118 120 0 0 0 0 0 0 0 0 0 0 0 0 0 0 0 0 0 0 0 0 0 0 0 0 0 0 0 0 0 0 0 0 0 0 0 0 0 0 0 122 123 0 124 115 118 115 116 105 110 101 124 112 110 105 102 104 106 106 107 112 96 98 101 110 99 114 101 109 115 109 112 109 108 112 93 106 104 101 101 102 111 108 95 148 133 122 126
87 83 81 84 82 82 81 92 91 83 90 94 94 93 93 89 78 93 92 89 88 85 96 107 98 100 115 105 0 114 106 108 118 0 0 0 0 113 0 0 0 0 0 0 0 0 0 0 0 0 0 0 0 0 0 0 0 0 0 0 0 0 0 0 0 0 0 0 0 0 0 0 108 110 106 112 105 102 104 99 104 102 96 88 99 95 87 101 102 99 92 95 104 84 83 98 94 102 87 97 87 94 94 91 85 88 99 93 92 87 87 90 89 95 90 88 91 89 91 124
90 84 90 88 95 95 95 103 92 94 96 92 94 91 98 97 96 92 101 95 92 106 107 105 102 105 110 108 0 105 110 111 115 111 119 106 0 0 115 0 0 116 0 0 0 0 0 0 0 0 0 0 0 0 0 0 0 0 0 0 0 0 0 0 112 0 0 0 112 0 109 111 115 111 114 109 108 112 102 98 111 108 105 86 96 102 105 101 97 103 104 104 107 100 101 103 99 96 100 109 101 95 97 101 94 103 100 87 91 81 92 92 98 91 111 89 108 108 117 126
86 90 93 88 98 95 88 92 84 96 84 91 90 90 86 87 95 98 98 95 98 91 96 110 94 104 103 99 103 105 95 0 102 103 100 103 0 114 118 0 108 0 0 0 0 0 0 0 0 0 0 0 0 0 0 0 0 109 0 0 0 105 104 106 112 112 105 102 113 105 110 103 103 101 110 111 101 92 103 97 95 98 100 84 96 88 91 103 105 96 99 107 108 85 94 85 92 94 95 87 90 85 92 93 88 91 102 92 96 84 92 85 82 98 97 91 104 119 141 128
83 85 82 85 91 90 98 88 90 81 87 86 86 88 87 87 89 87 91 88 77 93 93 83 82 88 94 88 104 86 94 99 98 96 95 108 98 101 102 100 104 96 98 107 106 90 0 0 97 0 0 109 103 92 102 106 109 100 107 102 98 104 110 101 100 112 100 92 96 107 98 106 104 99 106 92 94 95 98 89 93 90 89 96 95 96 87 88 92 95 99 87 94 91 92 89 93 94 91 84 84 87 91 89 89 92 91 90 81 93 90 87 91 88 75 77 90 86 78 93
82 82 84 87 85 87 96 102 86 83 87 80 82 87 88 90 89 92 88 96 84 100 93 93 92 93 94 87 97 98 96 83 95 95 98 96 100 98 94 106 102 99 100 108 104 93 108 0 106 99 99 106 99 102 102 100 101 107 98 107 107 95 93 105 99 100 96 101 95 104 99 102 102 97 104 89 95 94 97 85 101 93 86 93 98 99 87 85 96 91 89 99 90 93 94 80 94 94 97 86 83 98 82 87 85 103 91 93 90 88 96 95 105 100 106 136 107 90 125 96
81 74 66 71 79 84 84 88 87 81 83 79 86 83 89 82 86 86 85 85 84 84 91 87 87 86 94 92 84 93 91 93 81 91 96 85 94 87 89 83 91 90 97 91 96 93 89 101 97 87 93 97 95 89 87 84 101 90 97 96 97 98 98 96 97 97 95 90 97 85 94 85 93 92 84 93 92 93 95 94 85 93 81 90 85 91 89 83 86 88 92 81 89 83 86 86 82 80 80 87 81 88 79 69 79 82 86 80 82 85 81 84 77 100 103 100 138 122 79 72
73 75 81 86 70 82 82 88 81 83 84 75 79 83 83 86 86 87 84 85 82 89 83 92 84 94 90 85 87 93 84 94 92 98 84 95 95 94 87 93 95 83 93 91 86 97 91 87 97 89 92 96 94 84 104 96 90 96 91 95 98 84 91 92 89 95 88 95 102 94 94 98 87 96 94 95 94 96 93 95 91 90 86 87 78 88 88 79 90 92 78 89 78 80 88 80 89 85 79 80 82 81 82 79 76 83 82 81 87 89 81 90 81 92 103 82 114 72 82 197
