0 0 0 0 0 0 0 0 0 0 0 0 0 0 0 0 0 0 0 0 0 0 0 0 0 0 0 0 0 0 0 0 0 0 0 0 0 0 0 0 0 0 0 0 0 0 0 0 0 0 0 0 0 0 0 0 0 0 0 0 0 0 0 0 0 0 0 0 0 0 0 0 0 0 0 0 0 0 0 0 0 0 0 0 0 0 0 0 0 0 0 0 0 0 0 0 0 0 0 0 0 0 0 0 0 0 0 0 0 0 0 0 0 0 0 0 0 0 0 0
0 0 0 0 0 0 0 0 0 0 0 0 0 0 0 0 0 0 0 0 0 0 0 0 0 0 0 0 0 0 0 0 0 0 0 0 0 0 0 0 0 0 0 0 0 0 0 0 0 0 0 0 0 0 0 0 0 0 0 0 0 0 0 0 0 0 0 0 0 0 0 0 0 0 0 0 0 0 0 0 0 0 0 0 0 0 0 0 0 0 0 0 0 0 0 0 0 0 0 0 0 0 0 0 0 0 0 0 0 0 0 0 0 0 0 0 0 0 0 0
0 0 0 0 0 0 0 0 0 0 0 0 0 0 0 0 0 0 0 0 0 0 0 0 0 0 0 0 0 0 0 0 0 0 0 0 0 0 0 0 0 0 0 0 0 0 0 0 0 0 0 0 0 0 0 0 0 0 0 0 0 0 0 0 0 0 0 0 0 0 0 0 0 0 0 0 0 0 0 0 0 0 0 0 0 0 0 0 0 0 0 0 0 0 0 0 0 0 0 0 0 0 0 0 0 0 0 0 0 0 0 0 0 0 0 0 0 0 0 0
0 0 0 0 0 0 0 0 0 0 0 0 0 0 0 0 0 0 0 0 0 0 0 0 0 0 0 0 0 0 0 0 0 0 0 0 0 0 0 0 0 0 0 0 0 0 0 0 0 0 0 0 0 0 0 0 0 0 0 0 0 0 0 0 0 0 0 0 0 0 0 0 0 0 0 0 0 0 0 0 0 0 0 0 0 0 0 0 0 0 0 0 0 0 0 0 0 0 0 0 0 0 0 0 0 0 0 0 0 0 0 0 0 0 0 0 0 0 0 0
0 0 0 0 0 0 0 0 0 0 0 0 0 0 0 0 0 0 0 0 0 0 0 0 0 0 0 0 0 0 0 0 0 0 0 0 0 0 0 0 0 0 0 0 0 0 0 0 0 0 0 0 0 0 0 0 0 0 0 0 0 0 0 0 0 0 0 0 0 0 0 0 0 0 0 0 0 0 0 0 0 0 0 0 0 0 0 0 0 0 0 0 0 0 0 0 0 0 0 0 0 0 0 0 0 0 0 0 0 0 0 0 0 0 0 0 0 0 0 0
0 0 0 0 0 0 0 0 0 0 0 0 0 0 0 0 0 0 0 0 0 0 0 0 0 0 0 0 0 0 0 0 0 0 0 0 0 0 0 470 506 519 485 497 532 511 500 535 494 516 526 514 525 554 524 0 0 0 0 0 0 0 0 0 0 0 0 0 0 0 0 0 0 0 0 0 0 0 0 0 0 0 0 0 0 0 0 0 0 0 0 0 0 0 0 0 0 0 0 0 0 0 0 0 0 0 0 0 0 0 0 0 0 0 0 0 0 0 0 0
0 0 0 0 0 0 0 0 0 0 0 0 0 0 0 0 0 0 0 0 0 0 0 0 0 0 0 0 0 0 0 0 0 0 0 0 0 524 545 512 518 510 504 510 512 511 519 523 518 517 513 515 526 514 516 523 529 534 492 582 0 0 0 0 0 0 0 0 0 0 0 0 0 0 0 0 0 0 0 0 0 0 0 0 0 0 0 0 0 0 0 0 0 0 0 0 0 0 0 0 0 0 0 0 0 0 0 0 0 0 0 0 0 0 0 0 0 0 0 0
0 0 0 0 0 0 0 0 0 0 0 0 0 0 0 0 0 0 0 0 0 0 0 0 0 0 0 0 0 0 0 0 0 0 0 505 512 508 493 493 501 503 502 505 493 505 487 507 506 496 509 496 514 503 524 511 505 498 506 510 506 492 510 513 528 0 0 0 0 0 0 0 0 0 0 0 0 0 0 0 0 0 0 0 0 0 0 0 0 0 0 0 0 0 0 0 0 0 0 0 0 0 0 0 0 0 0 0 0 0 0 0 0 0 0 0 0 0 0 0
0 0 0 0 0 0 0 0 0 0 0 0 0 0 0 0 0 0 0 0 0 0 0 0 0 0 0 0 0 0 0 0 0 474 471 496 490 493 498 486 505 492 492 507 488 481 515 493 495 511 501 505 506 496 494 507 501 502 511 498 503 490 493 494 502 498 513 499 522 488 484 543 518 0 506 537 535 557 537 543 0 0 0 0 0 0 0 0 0 0 0 0 0 0 0 0 0 0 0 0 0 0 0 0 0 0 0 0 0 0 0 0 0 0 0 0 0 0 0 0
0 0 0 0 0 0 0 0 0 0 0 0 0 0 0 0 0 0 0 0 0 0 0 0 0 0 0 0 0 0 0 545 504 502 494 493 495 494 522 491 513 503 492 509 506 509 513 505 509 500 507 504 503 511 500 512 504 507 500 507 509 505 514 514 498 512 513 531 523 561 577 535 569 625 578 573 587 520 593 589 622 590 624 577 522 559 0 577 569 611 541 620 550 565 631 580 593 613 580 522 0 524 549 564 0 0 0 0 0 0 0 0 0 0 0 0 0 0 0 0
0 0 0 0 0 0 0 0 0 0 0 0 0 0 0 0 0 0 0 0 0 0 0 0 0 0 0 0 0 0 504 524 494 490 501 488 503 497 497 501 511 502 508 505 504 507 509 503 498 502 501 502 491 512 508 517 509 508 506 508 509 500 508 516 504 507 513 501 515 500 524 566 534 526 538 535 558 541 563 554 579 584 513 488 561 569 565 521 565 569 591 491 517 535 569 558 560 573 571 585 593 578 579 555 558 560 528 0 0 0 0 0 0 0 0 0 0 0 0 0
0 0 0 0 0 0 0 0 0 0 0 0 0 0 0 0 0 0 0 0 0 0 0 0 0 0 0 0 500 502 498 493 496 487 499 504 506 508 504 499 506 498 496 503 517 511 506 494 499 503 507 508 513 507 507 506 504 502 499 501 514 500 507 509 512 502 506 508 502 508 511 520 547 564 537 573 556 575 526 547 539 547 603 544 534 554 545 550 547 542 534 583 554 518 529 573 576 552 561 566 557 574 562 547 539 568 556 516 518 0 0 0 0 0 0 0 0 0 0 0
0 0 0 0 0 0 0 0 0 0 0 0 0 0 0 0 0 0 0 0 0 0 0 0 0 0 0 481 523 506 500 497 508 503 505 503 511 495 510 504 500 509 498 510 501 508 512 509 503 507 506 516 513 504 511 509 507 502 511 509 509 518 513 509 513 509 517 515 509 516 517 514 574 561 597 590 592 605 589 556 586 582 559 562 552 561 584 558 579 575 582 570 600 607 584 598 585 572 570 595 601 622 644 587 614 629 568 611 0 0 0 0 0 0 0 0 0 0 0 0
0 0 0 0 0 0 0 0 0 0 0 0 0 0 0 0 0 0 0 0 0 0 0 0 0 0 495 492 500 507 504 494 498 501 508 498 497 505 495 502 498 505 505 510 507 513 499 498 505 509 512 516 507 509 508 501 509 515 507 514 508 514 513 499 501 516 503 503 514 509 506 516 519 549 541 555 585 545 550 571 546 557 534 568 552 553 552 581 569 564 562 579 538 543 554 561 537 485 534 552 540 566 524 550 528 559 538 539 561 572 0 0 0 0 0 0 0 0 0 0
0 0 0 0 0 0 0 0 0 0 0 0 0 0 0 0 0 0 0 0 0 0 0 0 0 567 501 501 508 509 506 506 507 499 492 494 498 493 510 504 509 499 500 508 509 509 507 505 504 503 512 508 515 506 506 515 506 512 513 506 510 511 512 512 508 506 509 502 518 510 517 515 525 550 570 577 569 570 576 567 563 591 582 600 562 546 579 541 585 600 575 558 555 577 565 569 586 617 574 546 546 625 591 585 579 629 536 571 554 556 597 0 0 0 0 0 0 0 0 0
0 0 0 0 0 0 0 0 0 0 0 0 0 0 0 0 0 0 0 0 0 0 0 0 0 524 495 501 490 500 490 493 494 501 493 500 499 499 500 505 501 498 502 507 503 500 501 513 498 502 503 507 510 504 500 507 503 510 507 503 505 504 501 512 507 504 508 509 506 509 514 508 515 515 528 531 560 567 502 560 559 564 552 568 551 549 557 562 568 563 549 562 568 535 555 555 540 573 512 534 559 548 553 504 527 512 542 507 566 561 0 0 520 535 0 0 0 0 0 0
0 0 0 0 0 0 0 0 0 0 0 0 0 0 0 0 0 0 0 0 0 0 0 0 484 488 494 484 487 484 486 497 499 489 495 495 505 492 491 503 497 501 492 500 500 497 494 505 495 491 499 510 505 502 503 511 497 507 503 505 505 498 501 502 506 511 501 499 507 514 507 506 505 500 507 482 505 499 490 505 507 533 531 529 546 546 513 555 515 492 493 517 551 519 486 516 519 517 528 547 476 543 507 516 539 527 507 513 488 484 471 0 0 0 0 0 0 0 0 0
0 0 0 0 0 0 0 0 0 0 0 0 0 0 0 0 0 0 0 0 0 0 0 0 495 499 498 494 489 493 499 491 495 496 493 491 500 498 499 500 501 491 499 498 498 509 504 505 498 506 501 506 499 503 502 501 506 507 505 508 506 499 507 512 502 503 504 508 507 506 503 510 513 515 497 531 535 544 532 532 548 523 580 551 567 531 564 537 526 554 537 547 522 540 536 564 558 559 550 542 551 563 565 542 541 537 576 517 517 560 534 0 0 0 0 0 0 0 0 0
0 0 0 0 0 0 0 0 0 0 0 0 0 0 0 0 0 0 0 0 0 0 0 464 484 499 494 485 493 490 493 492 494 491 485 496 497 491 504 493 493 490 504 497 500 509 492 498 501 506 507 504 504 499 499 502 495 497 500 498 505 493 505 500 499 499 510 505 504 506 501 498 508 500 504 504 521 489 538 487 500 521 487 508 517 547 482 506 500 519 518 501 512 495 519 503 533 517 499 514 523 512 493 522 518 528 488 474 498 502 483 0 0 0 0 0 0 0 0 0
0 0 0 0 0 0 0 0 0 0 0 0 0 0 0 0 0 0 0 0 0 0 0 504 495 493 496 490 488 490 504 491 484 498 494 493 481 491 491 504 489 495 509 497 504 503 507 501 491 504 501 493 501 502 502 506 502 509 504 503 503 505 504 503 504 502 504 517 504 509 521 502 507 508 510 511 550 525 528 530 538 558 540 510 533 540 530 525 541 523 556 538 527 529 518 560 535 553 566 564 566 550 535 526 566 558 537 527 522 549 554 0 0 0 0 0 0 0 0 0
0 0 0 0 0 0 0 0 0 0 0 0 0 0 0 0 0 0 0 0 0 0 469 499 488 503 500 498 498 495 486 501 494 497 491 497 485 496 491 496 499 502 502 501 503 507 503 502 502 508 499 503 499 499 508 509 504 504 510 506 508 512 507 506 509 515 503 502 509 512 512 510 504 509 507 508 528 544 551 547 587 531 559 546 529 564 577 519 586 554 541 548 578 566 522 538 569 561 567 558 537 541 564 593 566 584 553 580 535 531 577 571 602 0 0 0 0 0 0 0
0 0 0 0 0 0 0 0 0 0 0 0 0 0 0 0 0 0 0 0 0 0 519 489 476 492 495 489 497 495 490 493 485 490 501 492 489 493 490 504 487 493 495 493 500 504 501 496 499 500 502 506 506 504 493 499 506 501 504 508 503 504 500 509 510 509 505 511 508 504 507 511 515 512 508 514 514 517 524 535 529 536 550 501 532 530 523 513 512 584 518 527 525 550 530 522 502 558 534 538 542 563 545 532 554 553 523 542 533 543 486 579 0 0 0 0 0 0 0 0
0 0 0 0 0 0 0 0 0 0 0 0 0 0 0 0 0 0 0 0 0 0 491 479 497 490 497 497 495 496 494 493 496 487 496 484 489 497 488 501 505 499 503 491 502 507 501 499 495 502 498 505 499 497 500 506 502 504 508 506 507 507 507 505 506 503 506 517 508 512 510 497 521 510 514 511 513 536 554 531 549 556 564 545 583 547 583 545 557 533 561 554 562 545 548 574 545 552 547 563 544 565 577 558 519 585 592 569 542 474 595 550 543 0 0 0 0 0 0 0
0 0 0 0 0 0 0 0 0 0 0 0 0 0 0 0 0 0 0 0 0 0 500 487 493 490 492 492 492 495 496 491 491 491 490 493 484 494 501 492 500 500 494 496 495 503 502 496 496 504 498 501 499 500 498 494 502 506 499 504 504 508 500 499 505 505 505 500 507 511 510 500 506 499 501 511 504 543 530 560 501 545 523 521 507 530 527 550 516 504 525 485 520 540 531 541 542 506 522 508 554 519 532 523 499 536 529 507 526 468 536 512 495 0 0 0 0 0 0 0
0 0 0 0 0 0 0 0 0 0 0 0 0 0 0 0 0 0 0 0 0 0 472 483 475 488 488 483 490 491 485 482 500 485 493 489 487 489 485 491 488 498 497 498 498 494 495 493 500 499 500 503 500 496 500 498 498 507 500 500 496 497 495 502 506 501 500 497 497 505 502 498 510 500 495 507 499 510 514 495 500 512 519 491 510 500 470 482 540 479 505 494 492 499 478 526 491 508 486 519 500 504 492 482 499 514 499 508 485 474 513 498 519 0 0 0 0 0 0 0
0 0 0 0 0 0 0 0 0 0 0 0 0 0 0 0 0 0 0 0 0 0 494 481 484 491 489 489 486 496 499 491 492 489 497 485 493 494 498 494 491 493 494 498 494 492 493 493 498 497 497 502 505 508 502 502 499 505 501 501 505 500 505 505 508 506 501 503 493 503 502 507 502 506 505 507 506 510 526 529 509 525 519 511 531 530 512 525 522 542 530 510 497 532 500 539 532 525 527 525 550 528 538 530 542 550 489 505 507 0 544 554 578 0 0 0 0 0 0 0
0 0 0 0 0 0 0 0 0 0 0 0 0 0 0 0 0 0 0 0 0 395 476 478 485 484 485 487 484 483 478 491 479 490 487 485 495 491 501 491 486 486 492 488 495 494 493 496 493 494 496 504 496 498 498 500 501 498 498 497 501 500 501 503 504 499 504 504 507 505 506 498 499 503 502 503 502 492 495 498 487 487 503 494 512 486 485 515 485 506 479 462 472 485 469 473 504 475 494 465 516 493 487 501 488 500 494 472 458 473 460 0 0 0 0 0 0 0 0 0
0 0 0 0 0 0 0 0 0 0 0 0 0 0 0 0 0 0 0 0 0 471 487 482 493 489 484 482 486 484 486 484 488 492 488 489 490 488 498 495 497 495 495 494 496 496 492 495 499 498 497 500 502 503 502 501 506 507 503 503 498 501 498 494 509 501 501 502 508 497 498 500 507 512 505 511 514 516 523 503 525 501 520 518 514 517 527 538 527 552 530 517 499 544 535 497 513 530 499 523 512 517 519 529 507 514 558 526 486 515 556 560 524 0 0 0 0 0 0 0
0 0 0 0 0 0 0 0 0 0 0 0 0 0 0 0 0 0 0 0 0 463 480 480 489 480 490 488 483 486 486 492 487 489 485 486 488 487 495 492 495 491 494 496 494 494 494 501 496 495 493 498 497 498 503 498 501 510 502 501 508 503 501 506 503 501 501 508 510 504 507 502 502 507 502 498 506 497 522 512 529 537 515 526 515 527 505 520 496 525 527 532 529 515 515 537 532 536 533 550 531 517 551 498 523 504 536 556 547 574 546 541 493 0 0 0 0 0 0 0
0 0 0 0 0 0 0 0 0 0 0 0 0 0 0 0 0 0 0 0 0 450 481 475 488 476 480 480 487 484 486 480 488 487 485 490 482 487 489 493 487 491 491 497 497 495 496 497 500 495 496 503 501 501 499 501 501 502 501 500 498 499 500 503 506 500 508 501 499 505 500 503 498 503 502 507 507 505 505 505 509 525 506 513 495 504 506 501 515 516 507 506 479 495 487 503 511 490 537 555 504 521 518 518 521 527 535 557 505 523 527 469 455 443 0 0 0 0 0 0
0 0 0 0 0 0 0 0 0 0 0 0 0 0 0 0 0 0 0 0 0 496 497 485 489 481 483 486 485 485 488 492 492 487 492 491 483 489 496 493 497 493 493 494 495 496 496 493 491 499 497 506 502 498 497 499 502 498 500 501 503 505 496 499 502 509 504 503 504 506 507 512 498 503 506 498 501 508 512 523 528 524 538 536 544 531 534 523 551 549 554 551 541 533 532 516 540 527 519 516 535 498 528 550 562 541 536 526 544 542 513 539 535 0 0 0 0 0 0 0
0 0 0 0 0 0 0 0 0 0 0 0 0 0 0 0 0 0 0 0 0 440 472 475 478 480 482 480 482 482 491 483 485 482 491 490 488 486 492 486 488 491 493 492 492 497 492 497 500 491 491 497 495 499 497 504 496 496 498 497 497 496 502 500 504 499 501 500 503 498 504 501 502 504 504 502 506 501 493 496 492 505 494 499 526 499 483 495 517 506 490 496 511 504 499 504 479 506 507 523 494 500 503 496 531 473 472 503 510 484 506 484 490 0 0 0 0 0 0 0
0 0 0 0 0 0 0 0 0 0 0 0 0 0 0 0 0 0 0 0 0 444 471 479 476 484 471 476 480 483 484 486 481 480 483 487 485 488 484 487 491 491 484 489 487 489 494 484 492 499 500 491 494 500 495 495 496 499 497 495 502 497 502 498 499 496 497 500 497 497 506 498 508 496 494 498 505 503 492 494 493 511 494 484 494 498 496 495 496 477 488 483 501 482 487 499 503 470 482 480 527 503 478 495 484 496 479 471 488 480 483 503 515 496 449 0 0 0 0 0
0 0 0 0 0 0 0 0 0 0 0 0 0 0 0 0 0 0 0 0 0 441 478 472 475 477 480 479 480 483 485 479 486 489 485 489 482 484 488 492 488 488 484 493 494 491 488 492 485 489 493 495 495 489 496 497 492 496 493 495 499 494 501 499 496 498 501 500 500 502 500 495 495 500 498 500 505 504 499 508 493 499 486 483 513 503 511 496 506 516 497 489 517 492 500 512 502 505 523 516 469 510 480 497 503 500 523 512 473 497 488 491 489 0 0 0 0 0 0 0
0 0 0 0 0 0 0 0 0 0 0 0 0 0 0 0 0 0 0 0 0 464 477 474 475 473 472 474 481 483 483 486 487 481 476 481 482 487 484 492 488 486 487 489 490 492 488 490 492 491 491 492 489 496 496 494 491 496 491 499 495 495 498 497 497 497 495 500 502 497 500 500 494 498 494 500 502 496 495 493 498 501 502 487 520 473 481 491 481 490 474 488 471 488 489 493 469 486 509 486 492 466 476 490 503 510 507 509 500 455 437 505 459 435 0 0 0 0 0 0
0 0 0 0 0 0 0 0 0 0 0 0 0 0 0 0 0 0 0 0 0 442 465 466 471 475 480 482 480 483 481 484 481 481 478 480 484 483 484 487 486 489 482 491 492 491 493 490 490 495 491 497 495 493 497 494 491 499 496 502 494 497 496 501 495 502 501 502 495 495 495 493 499 500 504 498 497 497 501 515 515 496 503 485 496 500 498 486 483 511 486 500 501 499 509 501 489 491 514 490 499 498 488 474 486 463 497 521 499 508 489 504 496 529 0 0 0 0 0 0
0 0 0 0 0 0 0 0 0 0 0 0 0 0 0 0 0 0 0 0 0 538 488 476 477 480 486 486 482 483 480 481 485 487 485 489 488 485 485 486 486 486 490 491 490 490 495 497 493 493 501 492 495 494 499 498 496 497 498 496 505 500 496 497 500 498 499 499 495 500 502 496 500 496 500 501 498 511 512 523 527 507 524 504 511 526 525 502 519 493 506 544 529 498 524 524 515 537 520 518 531 522 538 492 528 527 501 554 550 562 573 586 550 546 0 0 0 0 0 0
0 0 0 0 0 0 0 0 0 0 0 0 0 0 0 0 0 0 0 0 0 0 474 471 482 478 473 476 483 481 476 477 482 483 478 478 489 486 485 487 485 484 485 488 491 487 494 493 491 488 494 495 492 490 501 494 491 497 494 495 498 496 496 500 496 503 498 497 500 496 498 499 496 496 496 500 495 492 496 491 506 505 501 500 493 507 508 487 510 493 495 480 510 482 483 486 471 464 488 483 536 501 492 480 486 480 476 486 462 468 501 496 440 517 460 0 0 0 0 0
0 0 0 0 0 0 0 0 0 0 0 0 0 0 0 0 0 0 0 0 0 0 505 484 477 479 481 483 482 481 481 477 489 489 484 483 481 486 492 485 483 487 489 488 487 493 493 491 493 490 492 493 496 497 494 497 493 497 494 496 491 495 497 498 496 500 503 504 496 496 500 496 499 495 496 495 496 505 544 501 508 521 528 516 525 529 551 528 531 526 523 546 525 549 545 544 509 521 522 494 502 530 516 518 524 491 507 505 520 521 508 489 510 531 0 0 0 0 0 0
0 0 0 0 0 0 0 0 0 0 0 0 0 0 0 0 0 0 0 0 0 0 504 473 472 473 479 477 481 471 477 476 481 483 478 485 484 482 477 489 483 487 486 485 491 489 487 489 493 494 490 497 492 495 490 496 497 490 494 497 497 495 498 496 496 495 499 500 495 496 497 495 492 495 494 493 495 500 492 499 502 487 511 525 521 512 517 492 511 497 529 505 502 502 517 493 522 480 506 515 506 494 495 461 474 540 494 470 493 493 502 469 523 493 422 468 0 0 0 0
0 0 0 0 0 0 0 0 0 0 0 0 0 0 0 0 0 0 0 0 0 0 593 468 473 474 474 480 475 470 471 476 481 478 482 486 484 481 485 489 486 486 485 486 487 489 487 490 493 489 491 494 494 492 493 496 492 490 491 492 497 494 498 497 493 493 496 494 497 496 497 493 493 497 494 495 496 493 502 501 494 494 509 491 501 482 496 497 502 501 484 478 516 518 493 507 491 489 514 465 517 499 507 484 489 482 485 483 480 464 470 475 460 476 466 487 0 0 0 0
0 0 0 0 0 0 0 0 0 0 0 0 0 0 0 0 0 0 0 0 0 0 754 477 466 470 480 472 471 472 481 482 479 481 482 480 482 485 477 482 485 488 484 485 487 486 487 491 494 495 491 491 496 493 491 496 495 492 494 497 494 495 492 496 495 499 492 498 495 497 503 493 495 494 495 492 489 490 492 513 496 511 490 497 496 504 497 499 495 497 497 514 498 507 482 515 494 479 488 493 494 504 492 509 502 495 491 497 478 490 483 476 471 0 470 530 0 0 0 0
0 0 0 0 0 0 0 0 0 0 0 0 0 0 0 0 0 0 0 0 0 0 0 489 470 469 472 474 477 479 474 477 475 476 478 480 478 480 487 482 485 485 488 493 483 489 492 492 492 494 493 489 485 489 490 493 495 487 494 493 492 492 493 492 490 497 496 502 495 494 495 495 490 490 494 490 489 496 495 483 493 489 482 485 493 493 490 495 483 494 486 502 482 491 497 488 480 494 488 494 532 495 510 450 488 472 486 503 446 473 489 449 451 453 0 0 0 0 0 0
0 0 0 0 0 0 0 0 0 0 0 0 0 0 0 0 0 0 0 0 0 0 0 534 464 477 471 474 468 472 474 478 480 480 476 480 478 486 480 482 488 482 487 489 485 490 493 489 493 489 493 498 487 488 496 489 494 490 488 491 496 493 492 495 498 494 488 498 496 496 498 494 493 496 492 499 499 493 497 504 498 494 488 489 522 486 502 491 506 497 514 501 512 504 518 511 507 480 506 493 488 517 498 485 497 503 468 499 509 511 494 511 490 508 0 0 0 0 0 0
0 0 0 0 0 0 0 0 0 0 0 0 0 0 0 0 0 0 0 0 0 0 0 0 484 473 465 471 476 476 481 472 476 478 482 480 474 481 485 475 481 484 486 486 490 490 490 489 494 492 491 489 494 490 491 492 496 497 492 497 490 499 491 490 497 499 494 496 495 490 499 496 494 495 491 494 498 495 508 496 482 511 501 506 506 502 503 505 514 502 520 504 525 529 535 520 514 495 499 506 480 517 515 527 519 495 514 519 525 508 534 503 533 522 550 546 0 0 0 0
0 0 0 0 0 0 0 0 0 0 0 0 0 0 0 0 0 0 0 0 0 0 0 0 500 472 472 474 472 477 473 473 476 475 478 476 478 481 480 481 481 485 484 485 487 484 489 490 487 488 491 494 491 490 493 486 491 491 494 491 491 491 493 495 493 494 493 496 493 494 500 495 490 491 495 490 483 496 488 482 499 487 492 494 505 488 485 497 510 502 529 496 531 502 514 492 492 491 510 480 466 522 492 506 461 476 464 458 484 479 464 503 461 453 451 492 0 0 0 0
0 0 0 0 0 0 0 0 0 0 0 0 0 0 0 0 0 0 0 0 0 0 0 0 0 475 470 472 467 471 475 475 478 477 474 477 478 482 481 483 476 480 485 484 486 483 486 487 489 492 491 486 488 488 494 490 491 487 486 492 491 489 494 493 496 497 493 495 494 496 493 493 493 494 493 493 496 494 502 501 496 510 525 504 501 495 518 507 512 521 504 526 519 495 540 518 546 536 510 529 517 524 523 528 496 530 494 507 491 502 519 527 483 495 501 0 0 0 0 0
0 0 0 0 0 0 0 0 0 0 0 0 0 0 0 0 0 0 0 0 0 0 0 0 0 531 469 469 471 471 469 470 479 473 473 475 478 473 480 478 481 480 480 483 484 483 480 484 485 484 485 485 489 486 487 486 491 485 491 488 489 493 492 488 488 492 495 495 490 488 495 494 496 494 486 486 478 480 498 481 490 492 493 488 481 495 495 495 489 494 493 488 507 482 499 523 476 511 488 513 513 481 504 497 465 465 471 482 465 482 482 501 471 454 456 0 0 0 0 0
0 0 0 0 0 0 0 0 0 0 0 0 0 0 0 0 0 0 0 0 0 0 0 0 0 0 474 472 465 468 469 464 470 470 469 474 475 477 480 480 477 477 478 484 480 481 480 481 485 480 488 487 489 484 485 489 485 490 489 487 486 488 491 491 488 489 494 492 489 486 493 492 496 486 485 483 480 476 491 483 496 482 475 495 474 496 484 468 473 481 489 487 491 481 481 490 466 485 485 492 471 491 487 474 480 471 484 477 469 442 443 450 437 432 446 0 0 0 0 0
0 0 0 0 0 0 0 0 0 0 0 0 0 0 0 0 0 0 0 0 0 0 0 0 0 0 0 471 469 464 472 470 475 473 471 475 474 476 477 479 481 483 480 481 479 481 482 479 485 482 484 485 482 481 485 483 490 489 484 489 487 486 492 492 485 491 485 488 492 493 492 486 486 486 491 470 493 485 486 479 499 486 484 471 482 493 497 477 487 482 485 475 485 502 481 496 488 490 514 492 498 493 461 486 491 499 475 458 517 443 459 431 508 449 448 0 0 0 0 0
0 0 0 0 0 0 0 0 0 0 0 0 0 0 0 0 0 0 0 0 0 0 0 0 0 0 0 487 467 464 466 469 473 470 472 471 474 472 473 473 475 479 478 475 479 473 483 482 483 485 482 479 482 486 481 481 490 481 482 488 486 486 490 484 487 485 485 489 488 486 490 489 479 478 476 482 472 482 474 468 470 497 490 483 468 485 489 449 486 455 471 480 489 483 474 490 473 470 474 475 492 463 456 479 469 450 460 461 448 437 450 479 428 459 0 0 0 0 0 0
0 0 0 0 0 0 0 0 0 0 0 0 0 0 0 0 0 0 0 0 0 0 0 0 0 0 0 0 522 466 467 465 469 469 476 472 472 475 477 473 477 475 483 475 480 479 475 480 477 479 483 479 485 484 484 480 488 484 482 487 488 486 480 488 490 485 489 484 488 488 489 482 482 483 491 491 474 487 476 492 490 477 473 488 486 489 489 494 499 492 490 501 481 487 484 472 472 461 478 486 498 487 478 489 484 465 490 499 485 469 439 464 467 461 0 0 0 0 0 0
0 0 0 0 0 263 246 259 360 0 0 0 0 0 0 0 0 0 0 0 0 2329 0 0 0 0 0 0 0 505 464 467 470 479 464 473 472 473 467 473 475 479 478 476 472 476 483 480 475 483 483 481 478 482 485 482 484 486 484 487 485 482 487 489 483 490 486 484 479 486 483 487 492 482 485 493 496 479 486 494 500 487 490 490 498 482 499 508 513 483 510 495 511 494 513 519 510 504 517 508 516 508 504 484 488 489 487 489 480 512 502 519 516 503 525 0 0 0 0 0
0 0 0 0 253 232 235 238 239 286 333 0 0 0 0 0 0 0 0 0 0 0 0 0 0 0 0 0 0 0 459 463 464 468 471 473 471 469 470 471 471 478 474 471 474 476 482 474 477 482 482 483 481 483 482 484 483 483 485 484 480 486 485 491 487 487 483 487 482 490 478 487 468 477 482 481 485 477 475 473 477 469 484 481 486 476 493 489 478 486 484 489 480 479 473 482 476 485 497 504 467 517 493 441 466 485 480 452 458 469 468 478 462 0 0 0 0 0 0 0
0 0 0 253 219 229 229 224 238 243 350 0 0 0 0 0 0 0 0 0 0 0 0 0 0 0 0 0 0 0 0 483 468 471 471 469 468 465 471 473 475 471 473 472 476 477 474 477 479 474 478 477 478 478 483 478 484 478 485 480 486 489 480 482 482 482 484 476 478 489 473 485 484 493 491 489 488 488 480 483 493 493 482 471 500 484 490 488 498 481 491 500 489 492 489 498 512 498 513 519 532 508 514 492 494 502 464 482 496 481 479 524 494 506 516 0 0 0 0 0
201 263 259 281 266 292 270 228 236 236 314 0 401 401 417 440 390 405 409 415 441 449 434 447 451 441 435 452 449 445 436 463 461 459 466 465 465 468 463 470 468 466 477 470 474 471 476 476 471 469 476 482 476 480 484 480 475 473 479 485 474 482 481 481 480 481 481 474 481 478 481 485 466 479 487 460 467 489 468 472 480 464 484 478 482 483 489 484 482 474 468 474 491 479 472 476 474 476 463 483 474 471 474 453 473 473 452 448 455 498 463 496 464 450 429 432 0 0 0 0
192 196 174 235 220 240 270 235 227 263 322 397 394 390 392 398 396 397 399 406 394 412 416 418 416 420 429 431 439 447 450 452 457 454 457 455 460 457 466 456 459 462 460 458 462 462 462 467 473 466 463 468 462 468 466 467 469 476 471 469 465 471 470 467 472 466 473 469 474 470 461 464 468 461 456 449 451 457 453 464 451 461 458 453 452 447 441 451 447 451 451 442 444 437 457 436 447 436 443 442 433 453 438 450 432 433 437 449 445 426 427 440 422 416 421 436 370 412 0 0
182 176 212 210 216 232 235 234 235 290 357 376 386 371 388 379 367 365 380 380 382 389 390 416 404 411 422 428 431 443 451 445 443 444 442 444 439 445 443 445 447 452 448 448 447 448 449 457 458 460 454 456 460 448 458 455 454 455 459 464 458 461 459 463 456 462 459 460 454 454 458 446 446 441 446 436 435 432 438 431 431 422 424 435 420 428 427 440 436 425 431 445 420 421 439 421 422 422 420 428 436 433 421 421 403 416 424 421 442 424 417 420 421 437 414 429 442 454 491 0
252 270 240 219 226 222 230 229 241 309 318 312 325 314 339 323 343 331 344 339 334 344 350 362 377 377 395 401 416 415 412 422 421 426 423 428 433 431 427 432 429 430 437 431 427 434 433 429 434 436 442 434 438 443 441 445 440 439 440 439 450 435 444 443 436 442 441 434 442 436 431 429 435 421 414 420 407 386 397 387 393 389 382 384 383 396 391 394 387 387 389 376 398 390 385 392 385 381 369 379 391 378 382 385 378 371 367 376 376 384 373 365 360 379 394 377 361 390 354 312
296 298 302 235 234 236 236 252 305 308 309 308 313 302 318 317 315 319 318 314 327 330 335 342 357 371 381 382 400 399 408 409 405 413 410 412 411 413 412 410 412 414 411 414 417 418 410 422 426 418 422 414 422 425 423 420 418 425 415 423 424 422 420 420 417 423 421 424 421 418 410 414 402 400 402 392 377 374 361 369 364 362 360 362 361 365 364 359 354 369 354 356 367 370 371 373 379 381 370 372 371 370 368 377 375 373 371 353 351 372 359 353 384 377 374 400 389 387 348 369
284 273 277 250 270 263 262 286 285 283 283 290 275 288 285 293 296 293 290 288 296 310 308 318 324 358 369 368 366 381 384 390 391 392 382 379 398 402 393 394 394 394 390 391 393 397 391 390 400 395 395 397 397 399 404 396 402 394 402 395 397 399 403 396 396 383 401 396 399 391 394 385 386 382 377 370 356 349 346 339 344 334 338 337 336 332 341 334 338 335 324 340 336 341 341 332 327 336 336 352 346 321 327 348 358 345 321 345 327 320 334 349 332 341 350 333 352 363 373 344
253 248 240 251 255 246 252 253 259 254 258 259 251 259 249 258 257 268 263 270 269 281 293 299 313 328 333 340 353 367 366 368 365 361 359 362 367 367 369 372 369 368 363 371 372 372 374 364 366 375 377 375 372 377 383 373 375 381 385 372 384 375 377 373 374 375 376 371 372 374 366 363 360 355 344 343 327 322 317 305 299 303 303 299 297 310 302 303 299 293 299 300 301 323 306 304 294 307 300 300 306 301 308 301 301 304 309 307 305 302 302 314 291 304 291 296 287 333 289 309
236 243 231 235 233 243 240 236 242 248 239 242 256 241 250 253 245 250 265 259 259 267 272 288 303 307 316 328 331 333 334 334 341 343 342 351 345 349 346 347 355 347 350 345 353 341 354 350 352 349 345 351 350 355 355 357 353 351 359 350 357 354 353 343 349 349 351 346 350 344 350 344 344 339 333 330 311 299 291 295 276 277 278 275 287 289 291 288 289 280 285 288 293 281 283 277 276 277 287 289 289 286 283 284 284 290 273 283 275 286 281 297 291 296 273 312 302 308 267 298
207 213 225 222 225 218 224 226 224 220 233 235 222 223 232 224 228 227 229 233 244 247 247 261 279 282 294 303 300 309 314 315 319 320 316 318 319 319 325 326 324 320 318 316 333 327 329 327 324 324 321 328 330 322 328 327 326 328 330 320 330 329 327 326 330 324 328 326 322 327 318 322 325 310 310 297 277 274 275 274 269 268 265 270 259 263 265 254 259 259 256 255 269 261 251 260 255 247 259 263 263 265 268 271 258 260 264 261 263 259 248 263 269 264 264 272 263 244 259 276
198 208 195 201 211 203 217 219 211 216 206 210 212 211 209 218 219 220 224 216 225 232 247 255 249 265 269 281 280 284 289 291 295 292 299 300 296 300 306 303 298 293 299 300 303 302 303 301 301 304 301 308 298 304 296 304 308 309 307 303 299 304 306 306 304 305 305 308 306 303 297 303 301 296 287 279 275 262 256 250 247 247 247 241 247 246 247 242 246 240 242 249 246 250 239 242 235 236 245 242 236 243 242 243 244 242 242 239 246 241 248 258 254 257 253 245 240 235 248 231
196 206 201 202 199 198 203 210 197 213 208 185 209 191 203 192 211 207 210 214 216 220 236 230 245 247 251 255 275 265 269 271 275 272 279 277 282 282 282 285 277 278 279 286 284 277 285 290 284 287 285 280 278 283 278 284 284 287 283 286 285 290 284 286 287 286 282 290 283 285 281 283 280 280 267 263 257 251 246 236 235 232 232 234 228 230 229 227 228 233 231 227 230 225 223 226 223 227 225 230 228 230 228 224 226 221 228 222 223 227 232 224 244 248 255 253 230 235 239 241
177 179 175 178 183 186 184 200 188 178 178 185 178 184 188 180 183 185 185 192 204 209 223 226 233 230 237 242 246 247 252 249 256 257 261 256 254 257 266 270 263 264 263 261 265 259 266 272 265 266 264 266 266 264 265 266 264 265 265 271 267 266 265 271 264 271 268 270 267 265 269 258 259 255 250 246 240 231 229 219 218 217 216 216 216 220 219 220 217 218 213 216 216 198 219 212 193 213 209 214 216 210 211 209 194 206 217 214 214 219 226 218 229 221 216 212 226 229 220 199
173 173 173 171 178 181 181 183 179 180 176 182 183 179 178 184 185 188 182 184 186 189 191 209 215 219 226 225 226 230 235 244 239 239 244 244 240 243 247 249 243 242 247 249 249 251 249 251 243 254 250 252 249 249 243 248 247 248 249 252 252 247 253 251 247 251 249 246 242 245 246 246 245 240 234 228 223 218 197 200 199 196 189 190 189 191 186 200 199 187 188 192 192 187 192 192 188 186 189 189 190 194 183 188 191 189 185 204 204 201 215 208 216 196 215 220 199 203 215 234
171 168 175 171 178 177 173 175 172 177 178 177 175 172 174 178 176 181 179 186 189 189 188 191 208 194 214 216 216 222 228 227 222 228 228 229 227 233 233 230 223 230 230 237 236 238 229 230 235 234 234 231 231 232 234 237 235 240 235 237 235 241 237 232 239 235 234 229 230 233 232 236 225 224 216 215 197 198 189 196 198 194 196 194 190 195 196 195 190 188 187 193 189 191 191 187 190 189 188 183 186 176 183 180 180 183 187 184 175 188 181 189 197 199 205 204 206 206 206 214
167 169 175 173 171 169 166 168 167 165 168 163 165 163 172 169 173 169 177 182 177 183 181 191 184 186 184 187 209 209 197 213 207 215 211 216 214 201 213 212 214 224 221 222 217 219 220 218 221 222 217 221 220 222 222 220 224 221 221 223 221 218 223 222 221 217 218 215 218 218 223 215 217 197 195 193 198 193 190 191 187 182 188 183 183 181 190 187 184 187 185 184 182 179 184 190 181 180 181 184 179 185 177 183 183 180 185 183 180 176 182 179 176 172 182 176 180 167 178 205
154 153 161 162 161 164 161 164 163 163 158 165 162 163 163 164 162 173 172 178 171 175 180 184 185 185 189 190 192 187 182 190 187 188 188 191 189 188 190 196 195 194 198 193 201 194 195 197 195 199 197 196 195 197 195 198 194 195 195 196 203 199 200 190 195 199 196 195 195 198 198 199 212 192 198 199 196 190 188 177 179 177 179 177 173 173 172 179 177 175 179 174 173 176 174 176 175 170 169 175 172 170 178 178 176 174 173 167 177 175 172 177 180 178 168 172 188 169 165 177
146 151 153 150 156 154 157 160 158 156 162 158 156 155 157 154 162 163 161 166 167 168 178 174 178 179 180 183 182 186 191 187 187 188 192 189 192 194 191 192 192 195 188 196 192 193 198 198 198 192 194 198 200 198 196 195 196 197 197 198 200 197 198 199 192 195 195 197 197 199 195 195 192 195 192 185 186 185 176 174 174 169 166 163 167 165 173 167 171 164 169 168 168 168 171 169 164 168 163 170 165 169 172 168 165 160 167 166 168 169 167 166 168 166 180 164 155 172 170 173
145 143 147 141 149 146 149 149 151 154 148 151 150 152 152 149 154 150 153 158 162 164 164 174 173 170 177 175 174 176 175 180 182 181 180 180 181 179 183 180 181 183 186 186 183 183 184 185 187 188 185 186 184 185 188 186 187 190 188 189 190 187 183 187 190 184 189 185 185 188 182 181 183 180 173 176 176 173 170 166 164 158 163 160 161 159 164 160 166 160 162 160 159 160 160 160 154 160 166 158 163 163 161 157 155 160 159 157 158 164 157 155 153 165 170 168 160 158 177 165
136 138 140 138 140 149 151 145 146 144 146 146 142 146 143 148 144 148 150 150 160 162 162 164 167 171 170 167 167 171 171 173 177 172 175 173 178 174 175 177 176 180 178 178 174 180 176 180 181 179 180 181 179 180 182 180 181 0 0 178 180 177 183 183 179 177 180 179 181 174 175 175 176 175 174 168 166 163 163 162 162 158 157 154 161 158 159 156 156 157 150 152 157 156 156 154 153 158 155 155 158 154 154 154 152 148 151 154 157 158 153 150 146 157 154 157 158 153 160 155
140 136 132 138 139 141 149 142 140 140 138 140 140 142 140 139 138 146 148 142 151 154 152 155 158 161 163 161 167 163 164 167 167 167 163 167 167 170 165 170 171 0 171 168 171 174 170 173 173 172 175 172 175 175 177 0 175 173 0 173 174 0 173 175 170 170 173 168 173 173 169 168 169 169 164 165 166 159 158 152 151 153 151 150 154 148 150 148 153 156 146 152 150 150 149 145 153 149 155 149 145 146 144 147 145 144 143 145 145 148 146 146 143 157 143 151 139 143 155 157
128 125 126 125 131 136 143 137 133 130 135 130 136 134 139 135 135 139 134 141 138 144 150 151 150 157 156 154 156 161 158 154 155 160 158 155 165 163 0 0 0 0 0 0 0 0 0 166 165 168 167 164 164 165 0 0 167 171 169 0 0 0 0 0 167 165 169 0 163 163 164 162 162 160 154 155 153 155 149 148 150 147 144 147 141 152 142 147 142 143 145 146 142 147 140 138 145 147 141 143 140 141 142 139 137 138 136 137 132 146 143 140 150 152 149 134 139 146 143 132
123 126 128 118 127 135 133 131 137 123 124 133 132 125 125 133 131 139 136 139 139 140 145 147 147 150 156 155 153 155 154 157 157 160 153 155 155 0 0 0 0 0 0 0 0 0 0 0 0 160 162 160 0 0 0 0 0 0 0 0 0 0 0 0 163 160 0 0 0 0 0 159 160 156 155 151 150 152 151 145 141 140 145 142 138 144 146 142 144 141 137 139 139 142 140 139 143 140 142 137 138 134 139 135 133 131 135 133 140 143 133 150 140 147 138 137 142 129 135 144
114 106 121 124 127 125 127 130 129 129 124 122 122 117 119 132 133 132 133 135 128 128 135 143 142 140 143 143 147 148 150 147 153 150 149 147 0 0 0 0 0 0 0 0 0 0 0 0 152 154 155 0 0 0 0 0 0 0 0 0 0 0 0 0 0 0 0 0 0 0 0 0 150 149 148 148 148 141 142 143 129 141 138 140 122 124 136 138 137 137 139 139 131 127 118 130 141 138 134 134 135 136 137 123 127 133 131 125 135 134 137 139 137 133 149 124 138 127 116 153
109 112 112 114 108 115 121 120 116 120 115 116 117 116 127 122 122 130 128 118 131 123 126 124 136 139 142 141 142 145 143 143 144 146 146 144 0 0 0 0 0 0 0 0 0 0 0 0 145 0 0 0 0 0 0 0 0 0 0 0 0 0 0 0 0 0 0 0 0 0 0 0 145 141 141 140 138 131 129 131 127 122 120 124 136 121 126 124 122 128 122 126 114 128 126 128 127 132 121 118 119 131 133 119 131 130 126 123 137 137 130 135 130 130 124 134 126 105 119 127
112 107 116 115 116 116 115 124 120 117 115 117 114 116 116 123 119 129 123 116 116 115 120 117 130 137 137 138 0 135 0 0 0 139 134 0 0 0 0 0 0 0 0 0 0 0 0 0 0 0 0 0 0 0 0 0 0 0 0 0 0 0 0 0 0 0 0 0 0 0 0 0 0 144 124 136 127 121 118 127 124 119 122 123 117 120 121 119 116 116 118 126 118 115 112 122 119 122 123 121 117 126 122 121 119 114 129 120 108 130 129 115 127 123 128 117 109 129 146 128
102 100 108 111 104 102 106 105 103 103 110 103 105 108 105 107 107 116 115 111 113 115 112 116 123 120 127 120 121 128 0 0 0 0 126 0 0 0 0 0 0 0 0 0 0 0 0 0 0 0 0 0 0 0 0 0 0 0 0 0 0 0 0 0 0 0 0 0 0 0 0 0 130 0 0 126 120 118 123 117 114 114 109 115 112 118 111 115 106 111 115 114 108 111 107 110 112 114 111 112 115 111 114 114 111 117 107 108 124 112 101 112 101 132 116 93 104 118 106 142
97 99 93 97 100 102 105 100 104 105 100 101 103 103 108 104 106 108 114 109 111 112 109 110 114 110 118 121 119 121 0 124 0 0 0 0 0 0 0 0 0 0 0 0 0 0 0 0 0 0 0 0 0 0 0 0 0 0 0 0 0 0 0 0 0 0 0 0 0 0 0 0 0 123 0 116 121 118 115 113 112 110 106 106 110 109 108 115 104 110 112 111 116 115 108 114 108 110 102 118 110 107 113 100 107 117 110 116 114 114 103 104 116 94 103 125 124 97 114 135
96 103 100 103 99 96 103 92 95 102 97 100 101 96 97 94 108 104 113 117 113 108 96 105 114 106 114 115 113 124 118 119 121 0 0 0 0 0 0 0 0 0 0 0 0 0 0 0 0 0 0 0 0 0 0 0 0 0 0 0 0 0 0 0 0 0 0 0 0 0 0 0 124 121 111 119 112 117 118 116 104 110 101 121 107 106 102 100 103 103 104 108 112 95 98 102 106 95 112 103 105 108 107 103 111 107 104 95 99 97 96 102 101 92 98 90 129 116 110 111
88 85 82 84 81 87 82 98 87 83 90 92 96 95 91 89 94 94 91 87 91 89 99 108 99 101 114 108 0 113 106 106 114 0 0 0 0 0 0 0 0 0 0 0 0 0 0 0 0 0 0 0 0 0 0 0 0 0 0 0 0 0 0 0 0 0 0 0 0 0 0 115 109 111 104 113 109 101 103 103 105 101 101 90 101 96 88 97 106 100 91 96 105 84 84 98 92 102 86 97 94 97 93 95 83 90 102 93 97 96 80 89 81 93 94 96 96 95 101 129
93 85 91 89 97 98 99 106 92 93 98 92 90 92 97 100 98 89 102 97 95 107 105 105 103 106 111 109 0 104 112 110 114 110 119 110 115 0 0 0 0 117 0 0 0 0 0 0 0 0 0 0 0 0 0 0 0 0 0 0 119 0 0 0 116 0 0 0 112 0 109 109 116 114 116 107 107 111 104 97 113 107 108 89 98 101 102 103 102 105 106 108 111 99 103 102 101 93 105 110 102 98 97 96 93 104 106 92 91 87 92 95 93 98 104 105 99 109 113 144
85 94 90 92 96 98 91 89 84 93 88 91 88 94 90 85 96 100 100 96 99 95 95 112 89 101 104 100 103 104 95 104 106 101 98 104 0 115 117 0 109 0 0 0 0 0 0 0 0 0 0 0 0 0 0 0 0 111 0 0 0 106 106 112 111 115 104 101 113 107 108 101 104 104 114 106 101 91 105 97 96 93 100 86 94 90 93 105 106 92 96 104 109 87 83 84 90 91 94 86 91 83 93 98 88 87 102 90 97 89 92 90 87 97 94 96 115 100 119 107
84 88 83 87 93 93 102 87 90 81 91 90 85 92 88 90 91 88 89 91 80 97 95 86 85 90 94 89 103 88 97 99 100 96 93 109 100 105 103 105 105 100 99 110 107 93 0 0 96 100 0 110 105 95 104 109 104 103 109 103 103 110 110 103 100 112 103 95 100 107 99 108 108 102 105 94 94 98 100 92 91 92 94 97 89 94 88 92 94 95 101 90 92 88 94 90 84 92 91 83 89 92 93 95 87 87 98 89 82 96 89 95 92 101 96 100 144 129 116 96
84 80 86 84 86 83 100 100 82 83 86 82 92 88 86 91 90 93 90 97 84 96 94 94 93 97 95 89 97 97 93 86 96 94 97 95 99 100 93 107 102 95 100 107 100 96 106 0 106 103 99 103 99 98 102 103 104 108 99 105 107 95 93 104 104 101 99 103 95 104 98 104 103 97 106 86 93 93 99 87 100 96 87 95 99 95 86 95 94 91 87 101 88 92 94 94 91 94 100 88 90 100 93 88 90 98 91 91 87 88 91 93 100 83 112 111 102 75 95 86
83 74 70 67 79 82 88 87 88 77 88 81 87 82 88 85 86 86 86 85 94 85 93 88 85 85 93 94 87 87 92 93 95 93 94 87 97 86 90 97 94 92 84 91 98 94 89 100 94 90 93 97 96 93 91 81 103 87 101 95 98 82 84 97 98 98 97 90 97 98 95 86 97 94 84 97 94 94 95 96 84 96 82 89 84 93 86 87 84 88 91 79 90 81 86 86 86 76 80 88 81 85 78 72 82 79 89 84 79 97 86 86 90 89 79 111 132 117 125 80
72 76 81 86 72 84 81 87 84 85 85 90 79 81 86 90 88 89 84 87 86 89 85 90 87 94 92 86 95 89 83 96 91 99 90 90 89 94 97 96 93 83 93 92 89 100 91 97 100 89 92 98 96 85 102 94 91 84 91 99 100 85 87 96 88 98 91 95 110 90 97 95 89 84 94 97 95 83 97 96 91 89 88 89 81 85 91 80 94 94 79 90 81 79 90 81 93 84 79 79 89 82 79 76 75 80 85 85 84 91 82 91 85 105 96 96 114 111 86 217
