0 0 0 0 0 0 0 0 0 0 0 0 0 0 0 0 0 0 0 0 0 0 0 0 0 0 0 0 0 0 0 0 0 0 0 0 0 0 0 0 0 0 0 0 0 0 0 0 0 0 0 0 0 0 0 0 0 0 0 0 0 0 0 0 0 0 0 0 0 0 0 0 0 0 0 0 0 0 0 0 0 0 0 0 0 0 0 0 0 0 0 0 0 0 0 0 0 0 0 0 0 0 0 0 0 0 0 0 0 0 0 0 0 0 0 0 0 0 0 0
0 0 0 0 0 0 0 0 0 0 0 0 0 0 0 0 0 0 0 0 0 0 0 0 0 0 0 0 0 0 0 0 0 0 0 0 0 0 0 0 0 0 0 0 0 0 0 0 0 0 0 0 0 0 0 0 0 0 0 0 0 0 0 0 0 0 0 0 0 0 0 0 0 0 0 0 0 0 0 0 0 0 0 0 0 0 0 0 0 0 0 0 0 0 0 0 0 0 0 0 0 0 0 0 0 0 0 0 0 0 0 0 0 0 0 0 0 0 0 0
0 0 0 0 0 0 0 0 0 0 0 0 0 0 0 0 0 0 0 0 0 0 0 0 0 0 0 0 0 0 0 0 0 0 0 0 0 0 0 0 0 0 0 0 0 0 0 0 0 0 0 0 0 0 0 0 0 0 0 0 0 0 0 0 0 0 0 0 0 0 0 0 0 0 0 0 0 0 0 0 0 0 0 0 0 0 0 0 0 0 0 0 0 0 0 0 0 0 0 0 0 0 0 0 0 0 0 0 0 0 0 0 0 0 0 0 0 0 0 0
0 0 0 0 0 0 0 0 0 0 0 0 0 0 0 0 0 0 0 0 0 0 0 0 0 0 0 0 0 0 0 0 0 0 0 0 0 0 0 0 0 0 0 0 0 0 0 0 0 0 0 0 0 0 0 0 0 0 0 0 0 0 0 0 0 0 0 0 0 0 0 0 0 0 0 0 0 0 0 0 0 0 0 0 0 0 0 0 0 0 0 0 0 0 0 0 0 0 0 0 0 0 0 0 0 0 0 0 0 0 0 0 0 0 0 0 0 0 0 0
0 0 0 0 0 0 0 0 0 0 0 0 0 0 0 0 0 0 0 0 0 0 0 0 0 0 0 0 0 0 0 0 0 0 0 0 0 0 0 0 0 0 0 0 0 0 0 0 0 0 0 0 0 0 0 0 0 0 0 0 0 0 0 0 0 0 0 0 0 0 0 0 0 0 0 0 0 0 0 0 0 0 0 0 0 0 0 0 0 0 0 0 0 0 0 0 0 0 0 0 0 0 0 0 0 0 0 0 0 0 0 0 0 0 0 0 0 0 0 0
0 0 0 0 0 0 0 0 0 0 0 0 0 0 0 0 0 0 0 0 0 0 0 0 0 0 0 0 0 0 0 0 0 0 0 0 0 0 0 475 508 485 504 485 521 530 512 518 506 487 521 531 504 514 523 0 0 0 0 0 0 0 0 0 0 0 0 0 0 0 0 0 0 0 0 0 0 0 0 0 0 0 0 0 0 0 0 0 0 0 0 0 0 0 0 0 0 0 0 0 0 0 0 0 0 0 0 0 0 0 0 0 0 0 0 0 0 0 0 0
0 0 0 0 0 0 0 0 0 0 0 0 0 0 0 0 0 0 0 0 0 0 0 0 0 0 0 0 0 0 0 0 0 0 0 0 0 473 477 504 508 504 498 483 488 500 501 495 498 509 497 504 499 498 502 521 486 506 472 483 0 0 0 0 0 0 0 0 0 0 0 0 0 0 0 0 0 0 0 0 0 0 0 0 0 0 0 0 0 0 0 0 0 0 0 0 0 0 0 0 0 0 0 0 0 0 0 0 0 0 0 0 0 0 0 0 0 0 0 0
0 0 0 0 0 0 0 0 0 0 0 0 0 0 0 0 0 0 0 0 0 0 0 0 0 0 0 0 0 0 0 0 0 0 0 515 508 514 507 504 503 501 501 525 496 511 500 517 525 501 512 517 524 509 523 513 516 516 509 519 506 533 532 530 552 0 0 0 0 0 0 0 0 0 0 0 0 0 0 0 0 0 0 0 0 0 0 0 0 0 0 0 0 0 0 0 0 0 0 0 0 0 0 0 0 0 0 0 0 0 0 0 0 0 0 0 0 0 0 0
0 0 0 0 0 0 0 0 0 0 0 0 0 0 0 0 0 0 0 0 0 0 0 0 0 0 0 0 0 0 0 0 0 478 494 500 506 494 496 489 506 506 504 505 507 488 499 502 491 516 504 490 496 489 500 507 505 501 512 493 500 497 490 500 516 513 485 530 515 499 533 540 493 0 515 576 570 564 552 563 0 0 0 0 0 0 0 0 0 0 0 0 0 0 0 0 0 0 0 0 0 0 0 0 0 0 0 0 0 0 0 0 0 0 0 0 0 0 0 0
0 0 0 0 0 0 0 0 0 0 0 0 0 0 0 0 0 0 0 0 0 0 0 0 0 0 0 0 0 0 0 511 506 493 484 496 494 505 507 501 497 500 507 505 490 507 502 507 500 505 502 503 501 493 507 511 501 501 510 513 507 503 513 500 509 509 509 519 519 552 573 532 617 572 572 579 590 577 593 588 572 582 561 587 612 572 573 611 532 583 597 516 536 530 593 563 583 556 584 582 635 634 558 584 0 0 0 0 0 0 0 0 0 0 0 0 0 0 0 0
0 0 0 0 0 0 0 0 0 0 0 0 0 0 0 0 0 0 0 0 0 0 0 0 0 0 0 0 0 0 505 497 523 509 489 502 507 508 503 509 507 494 515 504 507 502 509 505 499 508 504 500 510 513 502 516 509 512 505 508 510 504 510 513 510 514 507 507 516 533 567 606 587 586 578 573 563 570 614 574 624 597 577 602 582 615 632 597 606 614 571 632 608 594 592 665 587 599 636 620 581 595 648 550 591 559 574 630 0 0 0 0 0 0 0 0 0 0 0 0
0 0 0 0 0 0 0 0 0 0 0 0 0 0 0 0 0 0 0 0 0 0 0 0 0 0 0 0 476 495 504 487 488 499 507 494 502 495 500 493 499 501 491 493 498 494 504 499 495 499 507 501 497 495 506 498 506 503 487 511 498 501 505 508 509 500 494 502 506 497 505 505 543 515 522 505 538 565 534 552 540 546 512 538 537 509 500 565 508 555 511 560 561 523 549 548 491 561 571 551 517 542 510 533 571 564 483 542 0 0 0 0 0 0 0 0 0 0 0 0
0 0 0 0 0 0 0 0 0 0 0 0 0 0 0 0 0 0 0 0 0 0 0 0 0 0 0 514 504 506 503 488 495 498 494 508 507 506 508 509 510 511 502 508 497 510 508 507 503 509 501 506 511 501 509 510 503 512 507 513 516 503 508 507 511 499 509 507 521 519 525 517 592 558 602 559 551 588 603 598 550 570 578 568 564 598 561 517 554 561 599 562 588 577 563 612 580 555 546 602 527 566 567 581 573 565 607 602 585 0 0 0 0 0 0 0 0 0 0 0
0 0 0 0 0 0 0 0 0 0 0 0 0 0 0 0 0 0 0 0 0 0 0 0 0 0 502 489 506 498 500 494 501 493 498 485 500 494 507 505 505 494 502 503 507 505 504 502 498 498 506 504 510 500 513 506 511 514 510 508 502 508 505 506 514 515 507 502 499 508 515 528 545 553 558 572 575 566 534 557 572 566 588 548 571 586 578 547 580 544 565 521 546 513 555 580 569 546 554 560 583 538 574 560 559 536 567 556 528 0 0 0 0 0 0 0 0 0 0 0
0 0 0 0 0 0 0 0 0 0 0 0 0 0 0 0 0 0 0 0 0 0 0 0 0 433 486 479 497 491 497 497 498 490 497 492 499 502 496 497 499 496 503 504 494 499 500 508 503 505 508 504 506 501 498 506 492 506 508 503 501 499 494 510 503 511 502 499 510 499 506 505 501 521 542 506 547 517 526 547 535 518 521 533 535 496 536 566 522 519 518 525 555 535 557 524 544 564 540 523 553 495 515 528 515 572 538 510 494 534 462 0 0 0 0 0 0 0 0 0
0 0 0 0 0 0 0 0 0 0 0 0 0 0 0 0 0 0 0 0 0 0 0 0 0 493 504 492 499 486 502 504 500 501 492 497 498 503 500 506 511 502 510 497 505 499 512 499 495 491 500 515 506 500 501 505 506 500 508 511 503 506 512 504 504 512 516 513 513 512 505 507 506 523 548 534 544 572 567 561 590 558 558 561 521 561 573 573 563 552 553 551 586 577 546 560 545 577 571 567 548 558 555 578 583 575 536 585 522 562 573 0 548 546 0 0 0 0 0 0
0 0 0 0 0 0 0 0 0 0 0 0 0 0 0 0 0 0 0 0 0 0 0 0 464 482 496 486 474 496 499 494 503 487 492 498 493 492 501 499 494 500 502 493 499 502 494 498 489 496 490 501 502 502 502 504 504 499 503 505 501 507 506 508 500 499 501 510 501 510 506 509 513 510 515 499 494 499 510 517 527 504 519 530 539 507 510 521 494 514 530 527 499 545 521 506 513 533 538 534 511 539 500 541 513 526 509 503 501 491 467 0 0 0 0 0 0 0 0 0
0 0 0 0 0 0 0 0 0 0 0 0 0 0 0 0 0 0 0 0 0 0 0 0 492 486 497 485 488 493 497 497 489 491 492 493 498 488 496 499 493 495 497 499 499 505 497 500 501 499 507 501 504 508 502 504 501 491 496 494 501 501 501 507 496 510 505 503 503 503 506 496 506 511 506 512 523 557 546 493 526 520 520 495 526 524 513 541 516 510 543 526 529 499 545 520 528 534 506 527 543 534 552 526 534 500 519 541 536 496 466 0 0 0 0 0 0 0 0 0
0 0 0 0 0 0 0 0 0 0 0 0 0 0 0 0 0 0 0 0 0 0 0 492 500 496 495 490 484 497 498 487 503 494 495 490 504 498 496 499 506 491 501 502 502 510 501 497 496 501 507 504 506 504 503 498 503 510 504 509 509 496 505 504 506 509 514 513 515 507 507 510 517 508 509 512 550 535 550 547 525 549 540 548 548 550 556 568 526 542 543 518 539 550 541 534 547 563 564 570 562 555 561 564 511 551 530 594 596 543 538 0 0 0 0 0 0 0 0 0
0 0 0 0 0 0 0 0 0 0 0 0 0 0 0 0 0 0 0 0 0 0 0 498 489 482 483 486 493 492 492 487 481 493 487 498 486 483 487 500 496 495 491 494 498 499 499 494 495 496 495 504 494 497 501 505 507 506 505 501 502 501 494 501 503 496 506 503 506 502 506 498 506 508 500 504 520 521 533 512 514 515 509 515 517 544 505 536 508 529 484 532 517 538 552 513 532 525 520 514 502 541 509 566 516 534 497 506 538 516 469 0 0 0 0 0 0 0 0 0
0 0 0 0 0 0 0 0 0 0 0 0 0 0 0 0 0 0 0 0 0 0 448 505 491 489 491 499 484 491 492 496 508 496 492 498 493 488 491 498 499 498 497 499 499 497 505 502 506 501 504 496 495 506 503 501 501 506 507 509 503 508 503 505 498 513 513 502 499 509 506 507 507 509 508 509 527 549 572 556 529 531 534 520 552 497 519 538 533 563 526 541 558 567 552 561 554 537 566 564 537 538 563 550 537 545 566 542 561 554 578 594 552 0 0 0 0 0 0 0
0 0 0 0 0 0 0 0 0 0 0 0 0 0 0 0 0 0 0 0 0 0 477 490 480 490 490 488 499 497 494 485 486 492 492 501 488 500 497 492 503 495 494 503 494 499 504 502 504 499 502 497 494 502 502 506 499 501 506 503 509 502 497 508 508 505 505 511 511 503 504 511 511 500 506 511 510 488 529 527 533 542 525 551 506 539 536 557 521 541 537 522 538 524 537 532 518 538 567 537 535 521 548 546 533 559 554 526 522 556 543 0 0 0 0 0 0 0 0 0
0 0 0 0 0 0 0 0 0 0 0 0 0 0 0 0 0 0 0 0 0 0 481 482 484 480 487 487 485 491 490 488 489 486 484 486 483 489 488 497 495 494 493 494 489 501 491 496 490 498 489 504 499 492 495 498 507 500 499 500 501 510 503 503 500 498 504 500 503 501 509 505 503 495 505 506 496 533 519 518 509 491 517 483 509 491 548 536 483 498 464 532 504 503 496 519 506 512 487 523 493 497 532 521 520 521 502 507 538 494 474 511 488 0 0 0 0 0 0 0
0 0 0 0 0 0 0 0 0 0 0 0 0 0 0 0 0 0 0 0 0 0 507 491 488 490 492 496 488 490 485 486 488 487 486 484 485 486 494 492 495 496 490 492 494 505 490 497 490 504 492 507 498 498 499 501 497 503 500 503 505 498 503 500 500 501 507 498 504 499 511 509 499 503 501 506 507 528 512 518 506 504 513 532 526 519 514 530 518 522 539 533 527 522 552 528 563 564 534 532 573 531 563 508 517 537 539 552 481 562 493 533 528 0 0 0 0 0 0 0
0 0 0 0 0 0 0 0 0 0 0 0 0 0 0 0 0 0 0 0 0 0 466 481 479 483 493 490 494 491 487 482 494 482 488 491 486 485 490 480 488 492 511 498 497 495 489 500 496 499 494 497 498 493 497 497 498 499 503 495 499 503 500 498 498 505 501 503 503 501 503 504 499 502 503 498 506 521 512 518 494 489 486 484 526 488 501 498 492 495 496 507 508 499 461 509 489 504 510 470 494 474 503 518 521 524 528 499 493 491 516 486 481 0 0 0 0 0 0 0
0 0 0 0 0 0 0 0 0 0 0 0 0 0 0 0 0 0 0 0 0 0 487 479 486 494 490 486 489 492 481 494 490 494 489 484 493 489 500 490 496 489 494 493 499 489 495 498 496 492 500 493 495 502 495 499 499 504 501 493 502 499 505 510 503 508 502 505 497 503 501 506 500 505 506 510 512 515 515 527 510 528 526 503 522 527 513 508 518 518 524 521 509 521 524 493 517 492 496 509 498 521 527 525 504 511 498 486 520 538 548 540 516 449 0 0 0 0 0 0
0 0 0 0 0 0 0 0 0 0 0 0 0 0 0 0 0 0 0 0 0 469 485 484 487 480 493 493 497 491 491 490 489 494 494 483 491 491 492 490 494 492 489 497 495 496 496 496 493 500 502 494 493 506 497 497 494 506 502 503 504 505 509 509 504 499 502 504 506 502 503 502 504 507 505 507 509 526 511 521 529 529 511 509 533 521 527 536 546 530 524 544 549 529 528 533 541 542 548 531 547 562 555 564 539 541 535 549 552 544 530 0 0 0 0 0 0 0 0 0
0 0 0 0 0 0 0 0 0 0 0 0 0 0 0 0 0 0 0 0 0 447 481 483 486 485 479 482 490 472 484 482 489 482 483 488 484 487 487 494 496 494 493 490 497 491 491 496 498 495 497 496 494 495 497 497 497 499 498 501 500 498 495 496 504 506 499 503 501 495 498 503 495 498 499 503 507 515 508 503 489 497 515 499 507 494 500 481 487 524 500 491 495 521 520 528 478 518 503 509 524 502 524 497 525 487 509 520 455 531 560 550 0 0 0 0 0 0 0 0
0 0 0 0 0 0 0 0 0 0 0 0 0 0 0 0 0 0 0 0 0 472 479 479 493 481 488 481 477 484 490 486 490 489 492 491 489 494 491 490 491 489 493 497 493 490 497 491 493 497 491 496 498 500 495 500 496 499 503 498 513 504 504 498 499 503 510 504 508 503 507 504 496 504 508 495 507 515 516 532 526 538 512 530 504 506 523 542 536 526 512 488 518 538 503 542 539 516 542 545 533 514 544 526 530 562 547 535 578 543 507 571 509 0 546 0 0 0 0 0
0 0 0 0 0 0 0 0 0 0 0 0 0 0 0 0 0 0 0 0 0 441 489 478 483 480 480 480 489 481 484 483 479 489 481 486 477 482 483 491 488 492 489 494 495 491 491 501 499 492 493 496 496 496 505 497 506 498 502 496 493 502 501 491 500 509 508 504 501 502 503 499 507 496 498 502 508 509 490 487 518 524 502 514 503 509 487 499 501 510 504 486 481 534 491 512 490 519 505 503 485 519 516 492 510 499 516 503 516 500 503 521 499 0 0 0 0 0 0 0
0 0 0 0 0 0 0 0 0 0 0 0 0 0 0 0 0 0 0 0 0 444 480 482 478 476 482 476 482 483 485 489 486 494 485 476 480 490 487 484 494 488 488 490 493 486 490 492 494 488 493 497 495 497 493 493 498 501 499 496 499 499 499 500 494 503 504 495 500 498 499 497 499 506 496 495 500 498 499 506 487 499 500 500 493 519 504 490 501 503 496 493 484 492 505 502 488 515 503 497 530 494 506 507 451 496 493 522 507 554 470 482 547 0 0 0 0 0 0 0
0 0 0 0 0 0 0 0 0 0 0 0 0 0 0 0 0 0 0 0 0 468 473 483 477 487 482 480 483 483 482 490 491 480 486 485 481 481 491 490 491 490 492 490 490 496 492 497 496 495 495 495 495 501 497 495 496 496 501 499 497 500 500 499 498 501 499 499 502 502 501 503 504 508 498 494 499 503 503 505 513 498 506 500 525 506 519 493 518 510 529 503 512 500 507 531 505 535 516 529 522 516 520 520 538 540 499 534 538 538 575 504 524 530 0 0 0 0 0 0
0 0 0 0 0 0 0 0 0 0 0 0 0 0 0 0 0 0 0 0 0 457 469 478 481 479 474 475 474 478 481 485 484 480 487 488 488 482 487 484 486 483 490 487 491 487 490 492 492 495 493 491 492 494 497 502 498 495 499 493 500 498 497 499 500 495 498 496 498 504 497 499 506 503 499 499 494 499 486 483 512 496 496 484 502 502 507 497 484 514 508 513 510 513 500 501 497 517 481 511 517 522 498 509 455 467 498 500 492 490 522 531 526 0 0 0 0 0 0 0
0 0 0 0 0 0 0 0 0 0 0 0 0 0 0 0 0 0 0 0 0 457 487 473 476 474 482 474 473 478 477 479 490 484 482 487 484 479 487 489 484 482 487 492 492 489 487 491 490 492 488 497 493 493 493 497 499 500 495 492 497 496 497 498 497 497 500 499 500 502 497 498 494 500 498 499 501 500 494 494 489 499 500 488 501 498 511 515 496 508 514 502 506 483 502 493 505 475 509 481 512 516 495 502 513 516 525 543 506 496 492 511 481 0 0 0 0 0 0 0
0 0 0 0 0 0 0 0 0 0 0 0 0 0 0 0 0 0 0 0 0 460 483 476 478 475 475 476 486 484 479 483 481 486 483 485 482 484 489 492 496 488 489 491 489 493 496 493 492 495 493 495 492 498 495 492 494 499 492 497 502 500 500 497 504 496 500 501 501 498 504 501 496 498 497 498 503 508 506 517 516 509 522 511 535 523 508 502 518 512 538 524 519 508 512 513 500 494 526 545 514 525 562 537 525 530 549 560 528 540 518 501 566 592 0 0 0 0 0 0
0 0 0 0 0 0 0 0 0 0 0 0 0 0 0 0 0 0 0 0 0 436 469 469 472 474 478 471 481 480 481 477 478 479 479 481 483 486 482 486 482 486 491 490 489 485 488 486 488 492 491 492 495 488 499 493 490 495 495 487 491 493 499 497 500 501 494 502 494 500 493 496 498 495 495 503 492 485 510 499 509 498 477 486 480 506 496 498 491 496 494 492 507 496 497 471 506 488 502 487 479 485 497 505 503 488 441 461 484 463 474 476 520 465 0 0 0 0 0 0
0 0 0 0 0 0 0 0 0 0 0 0 0 0 0 0 0 0 0 0 0 552 478 477 479 474 481 473 483 480 480 479 485 485 484 486 481 480 483 490 484 488 495 488 492 491 492 491 492 493 493 492 494 491 496 494 496 495 493 496 500 496 501 494 500 496 500 497 498 499 503 496 501 497 504 499 495 494 504 511 507 505 496 494 507 512 502 520 497 506 517 528 511 520 519 544 504 538 531 517 519 535 526 509 519 532 514 544 513 516 499 543 537 541 0 0 0 0 0 0
0 0 0 0 0 0 0 0 0 0 0 0 0 0 0 0 0 0 0 0 0 0 479 472 475 473 471 476 478 476 477 476 485 479 481 478 487 483 486 483 486 484 488 484 486 490 488 493 492 491 493 497 490 492 495 492 488 496 496 490 494 497 498 499 492 500 500 494 491 495 501 500 493 500 496 498 498 495 501 483 519 507 500 499 490 486 502 504 500 522 508 495 503 513 512 506 506 525 514 488 517 480 518 471 507 507 495 459 485 489 489 503 476 483 0 0 0 0 0 0
0 0 0 0 0 0 0 0 0 0 0 0 0 0 0 0 0 0 0 0 0 0 498 472 475 472 476 475 477 479 476 479 472 480 480 482 478 487 489 482 483 484 483 482 485 484 487 493 491 488 488 491 491 493 489 491 493 490 492 492 497 493 495 498 496 495 499 500 497 492 498 495 496 489 494 497 492 506 493 504 491 490 487 498 524 516 514 505 497 487 527 502 505 526 494 495 483 502 491 494 473 487 506 491 487 491 490 470 501 478 486 513 459 460 0 0 0 0 0 0
0 0 0 0 0 0 0 0 0 0 0 0 0 0 0 0 0 0 0 0 0 0 541 476 469 475 470 481 479 477 475 481 476 483 481 489 485 484 479 484 487 482 490 491 487 488 489 489 489 492 488 492 488 492 493 493 493 492 498 498 494 497 491 493 499 496 500 495 497 497 492 494 501 495 495 492 496 499 505 498 492 502 507 526 512 512 525 500 527 517 536 517 522 501 505 526 502 512 496 533 509 496 509 505 514 535 524 518 512 508 510 509 553 450 478 472 0 0 0 0
0 0 0 0 0 0 0 0 0 0 0 0 0 0 0 0 0 0 0 0 0 0 570 477 473 474 472 475 473 473 473 482 481 482 481 483 487 477 479 483 487 487 485 485 491 487 490 487 496 487 492 494 495 493 493 494 492 491 496 496 493 493 498 498 494 492 498 495 494 493 494 489 493 496 489 491 494 486 482 493 502 485 487 495 492 499 486 491 490 485 484 492 505 488 505 510 515 500 494 472 481 469 471 513 461 509 461 454 494 495 471 485 446 485 438 0 0 0 0 0
0 0 0 0 0 0 0 0 0 0 0 0 0 0 0 0 0 0 0 0 0 0 779 477 477 474 472 473 473 474 483 478 478 485 475 473 478 480 479 482 484 486 484 490 488 486 485 491 493 489 490 491 497 492 491 491 493 497 492 494 496 497 495 495 493 500 493 499 498 493 492 494 497 490 492 492 490 496 489 485 502 484 499 482 495 489 484 514 487 508 471 513 501 510 522 516 474 471 487 529 494 532 494 500 490 480 487 473 506 491 479 503 515 0 0 0 0 0 0 0
0 0 0 0 0 0 0 0 0 0 0 0 0 0 0 0 0 0 0 0 0 0 0 501 473 474 478 475 472 477 475 474 478 482 484 479 473 480 484 481 485 483 486 487 489 490 488 489 491 489 491 490 485 491 494 494 494 493 497 492 490 493 495 494 493 496 496 498 494 494 496 496 492 492 491 493 490 494 504 512 505 510 500 510 513 497 497 504 516 498 523 509 509 503 496 538 513 532 531 534 571 515 537 513 516 510 528 508 525 512 531 475 532 0 0 0 0 0 0 0
0 0 0 0 0 0 0 0 0 0 0 0 0 0 0 0 0 0 0 0 0 0 0 504 471 472 471 476 464 467 470 474 482 478 478 481 475 478 476 483 486 481 483 486 485 490 484 487 487 486 493 491 488 484 489 490 493 493 486 488 500 494 491 492 494 490 492 492 492 489 492 489 492 494 496 486 483 498 487 483 494 495 492 489 506 496 502 501 506 495 502 489 487 478 487 491 506 476 483 492 501 502 495 470 480 471 460 468 470 469 480 484 459 512 0 0 0 0 0 0
0 0 0 0 0 0 0 0 0 0 0 0 0 0 0 0 0 0 0 0 0 0 0 0 478 474 468 478 478 475 476 472 478 476 484 478 479 475 479 483 477 482 480 482 483 490 489 485 492 485 489 490 490 493 494 493 491 488 492 493 488 495 496 496 495 494 491 495 496 491 499 494 496 494 494 490 497 488 504 498 510 511 499 490 513 522 529 510 501 497 509 512 525 511 506 525 528 498 495 502 513 503 498 516 483 511 531 496 528 512 512 537 522 510 509 507 0 0 0 0
0 0 0 0 0 0 0 0 0 0 0 0 0 0 0 0 0 0 0 0 0 0 0 0 496 466 466 474 468 474 477 470 469 474 475 478 476 474 483 485 481 482 481 488 486 485 489 485 484 490 487 489 488 489 491 487 496 492 488 490 493 493 492 494 495 492 496 493 493 490 495 490 492 488 494 489 492 501 494 483 487 490 504 499 503 490 480 489 507 500 518 484 496 504 520 511 492 493 520 496 505 506 494 501 505 494 474 483 460 485 493 472 481 472 484 461 0 0 0 0
0 0 0 0 0 0 0 0 0 0 0 0 0 0 0 0 0 0 0 0 0 0 0 0 0 467 468 471 467 471 469 473 478 470 474 472 477 479 478 476 479 474 484 482 482 483 489 483 487 486 489 487 489 490 487 487 493 485 484 487 486 492 487 491 490 487 490 496 489 492 494 493 493 489 480 488 480 481 488 489 486 479 486 493 489 487 478 477 483 493 497 508 488 496 502 493 492 514 491 503 505 500 493 446 489 464 457 452 434 458 492 424 457 462 441 0 0 0 0 0
0 0 0 0 0 0 0 0 0 0 0 0 0 0 0 0 0 0 0 0 0 0 0 0 0 549 468 470 466 469 466 471 476 470 474 474 470 478 474 475 483 485 478 483 480 484 480 489 482 483 489 483 486 489 492 488 489 488 491 492 488 488 489 485 489 496 492 490 494 489 496 491 491 494 490 486 477 492 494 491 501 499 498 496 487 484 503 492 497 496 491 484 502 480 482 511 489 498 486 523 511 522 537 537 493 503 475 483 503 485 487 473 455 455 496 0 0 0 0 0
0 0 0 0 0 0 0 0 0 0 0 0 0 0 0 0 0 0 0 0 0 0 0 0 0 0 467 466 459 472 462 473 468 467 475 472 476 477 477 478 477 481 480 479 483 482 482 482 481 484 486 490 489 488 491 491 486 488 488 489 482 483 484 488 491 488 485 488 493 489 491 489 493 489 487 475 477 468 481 491 470 487 477 481 480 490 478 463 480 489 488 477 491 498 486 491 501 494 479 462 496 462 520 445 477 470 463 476 486 438 433 446 428 453 0 0 0 0 0 0
0 0 0 0 0 0 0 0 0 0 0 0 0 0 0 0 0 0 0 0 0 0 0 0 0 0 0 473 468 465 465 469 472 471 470 474 475 472 476 478 478 478 479 478 479 485 478 478 484 485 485 483 485 486 485 481 488 491 487 488 487 484 488 487 487 489 488 492 494 491 492 484 489 479 478 482 484 476 493 475 482 490 493 486 486 493 490 500 487 486 487 501 494 495 497 490 487 484 499 494 500 498 493 454 486 464 478 440 456 457 471 461 449 473 449 0 0 0 0 0
0 0 0 0 0 0 0 0 0 0 0 0 0 0 0 0 0 0 0 0 0 0 0 0 0 0 0 503 471 465 464 477 469 471 475 471 477 472 478 475 478 477 480 481 480 480 481 482 480 485 483 485 485 484 486 484 487 480 486 489 490 487 490 486 492 489 491 491 493 488 484 487 486 490 491 486 493 481 489 490 492 490 486 511 485 518 512 483 515 483 484 522 488 496 512 515 490 503 510 506 496 476 504 506 481 483 477 510 491 482 502 451 444 517 0 0 0 0 0 0
0 0 0 0 0 0 0 0 0 0 0 0 0 0 0 0 0 0 0 0 0 0 0 0 0 0 0 0 507 465 464 464 467 466 470 466 471 472 475 476 474 479 478 476 479 479 479 476 481 477 484 482 483 485 483 487 484 485 486 486 485 486 483 485 486 481 486 483 491 487 486 486 474 484 484 471 475 487 484 479 488 467 482 470 492 489 507 480 495 474 485 489 481 494 492 472 473 453 492 471 476 470 468 461 441 504 455 449 450 455 439 465 444 449 432 0 0 0 0 0
0 0 0 0 0 247 241 265 345 0 0 0 0 0 0 0 0 0 0 0 0 2307 0 0 0 0 0 0 0 506 463 463 466 466 467 471 471 469 470 473 475 481 482 478 478 478 474 479 477 479 484 485 479 482 481 483 483 483 486 481 484 484 484 485 491 488 481 485 480 489 480 484 484 487 489 492 499 485 494 485 503 489 497 492 490 488 490 499 477 486 493 506 495 480 511 488 497 499 501 511 519 516 496 498 465 510 508 500 477 487 446 468 506 447 543 0 0 0 0 0
0 0 0 0 235 223 236 234 234 280 369 0 0 0 0 0 0 0 0 0 0 2340 0 0 0 0 0 0 0 0 457 461 465 471 462 471 468 467 473 471 474 476 472 472 477 476 481 473 475 476 476 482 482 478 479 483 482 482 484 479 479 487 488 490 488 484 481 486 482 475 480 473 479 486 481 481 473 482 466 486 487 486 485 472 482 496 481 490 484 479 477 481 480 480 472 466 475 486 490 500 467 477 461 457 440 469 462 459 452 448 479 490 458 0 0 0 0 0 0 0
0 0 0 207 220 220 229 223 233 238 320 0 0 0 0 0 0 0 0 0 0 0 0 0 0 0 0 0 0 0 0 460 463 469 459 461 469 467 465 468 467 471 471 474 472 472 477 475 474 472 474 471 476 475 483 477 475 475 478 479 477 482 478 478 480 478 481 480 475 477 466 490 477 475 480 485 474 468 476 472 472 478 485 474 487 479 481 470 481 480 467 458 493 453 462 473 480 485 486 470 491 464 479 454 466 446 445 456 487 463 454 432 495 447 433 0 0 0 0 0
224 242 285 248 253 305 282 231 235 231 342 0 405 411 403 425 435 425 434 431 474 459 446 436 440 442 444 456 458 466 456 462 464 465 463 464 463 465 465 467 463 474 473 466 477 472 469 468 473 472 479 472 481 480 476 480 475 479 474 479 475 484 477 479 480 481 477 480 476 479 483 479 475 472 476 476 474 474 482 488 478 475 465 479 472 479 477 487 481 477 481 479 470 499 480 474 485 472 467 485 482 462 470 480 458 467 468 484 478 466 450 485 486 496 493 0 0 0 0 0
165 171 179 181 200 228 256 220 220 246 353 357 375 375 385 405 385 392 393 390 387 397 408 413 413 430 415 436 438 436 442 451 450 451 451 456 451 463 459 457 459 458 459 464 458 464 465 468 469 468 466 471 473 469 470 467 466 466 466 475 478 463 470 474 468 473 476 476 473 466 462 469 462 457 458 441 449 447 446 455 455 441 448 450 435 442 431 440 457 460 446 444 443 424 438 421 450 437 444 433 426 434 430 439 422 427 409 439 431 428 434 397 433 402 412 435 409 0 0 0
209 171 209 224 219 245 240 225 230 331 376 376 376 367 374 357 398 387 379 378 380 380 387 406 406 405 420 420 429 437 445 446 432 445 441 449 435 441 441 450 441 453 449 450 449 450 452 453 454 462 452 465 454 453 455 462 460 454 459 463 455 469 455 463 460 455 457 454 455 456 456 453 440 455 435 441 433 438 433 437 426 423 420 436 414 431 429 441 428 414 437 420 423 422 438 419 427 419 427 428 426 430 432 421 422 428 422 410 436 416 418 413 419 429 400 395 435 393 366 402
268 297 248 231 230 229 230 226 262 345 350 349 347 338 342 324 338 345 337 349 353 357 362 370 372 391 394 403 418 418 416 422 420 437 427 430 433 436 433 434 429 434 432 433 438 436 434 444 441 442 446 441 446 442 445 445 439 440 445 443 452 447 440 447 439 446 441 435 443 438 431 433 434 426 426 423 410 399 404 404 391 394 401 393 397 405 392 394 404 403 389 385 398 404 400 407 399 405 405 393 388 410 401 398 406 384 380 384 376 392 396 399 421 390 380 415 429 414 386 0
284 311 279 243 235 234 234 245 279 303 318 305 317 307 308 313 312 323 308 310 322 320 326 348 347 353 375 378 399 390 399 397 404 410 408 407 407 413 410 413 415 418 410 413 413 416 410 419 416 418 413 412 415 421 421 418 430 425 418 420 420 420 414 417 417 415 419 418 425 415 416 410 399 396 391 388 378 368 368 360 371 365 359 366 354 355 354 365 349 357 352 349 342 368 354 352 359 353 352 363 352 364 361 361 366 360 343 378 369 363 343 350 344 355 349 351 377 337 355 337
288 268 291 264 257 256 265 294 286 285 279 279 278 298 295 278 297 294 296 289 303 302 310 330 327 344 371 376 369 379 383 392 395 386 383 379 393 395 400 395 401 393 398 394 389 401 395 388 399 388 394 399 401 404 401 393 398 405 397 401 395 396 402 398 396 393 400 399 397 394 396 388 388 383 377 369 357 349 344 333 337 335 338 334 329 323 341 329 323 333 335 338 338 341 335 334 330 324 341 337 336 324 339 355 334 336 324 339 330 334 326 372 340 351 344 338 344 374 359 344
258 242 239 242 253 242 241 247 259 253 250 254 253 256 250 251 257 255 269 272 266 283 290 298 312 314 326 330 350 354 359 359 361 357 360 364 364 365 363 364 371 369 371 369 367 372 372 367 360 369 374 375 375 374 376 376 373 379 373 371 373 374 372 370 367 365 371 369 363 372 369 364 361 353 345 337 329 324 316 304 303 298 299 299 304 309 302 299 298 289 297 299 303 299 304 298 298 296 297 308 302 311 314 303 299 298 308 300 304 291 295 297 321 301 294 278 310 306 281 283
233 229 234 226 241 238 237 236 245 247 249 242 240 253 239 245 240 235 245 250 256 270 273 279 289 301 318 325 322 325 332 334 345 338 342 337 339 340 345 346 346 347 346 350 345 346 345 351 349 348 350 351 346 353 351 344 352 344 358 341 346 349 348 341 349 341 341 355 349 348 342 342 341 334 327 323 308 293 293 286 282 275 277 271 287 281 282 279 272 273 272 276 283 277 270 261 270 269 271 289 279 277 279 277 273 269 276 274 276 277 283 271 283 297 284 269 261 264 272 264
227 228 223 227 228 217 224 222 222 225 227 234 224 237 229 229 231 230 230 240 246 244 257 263 282 286 289 293 304 306 310 314 314 323 322 321 319 318 327 325 324 320 320 317 327 325 322 329 327 330 325 319 331 326 330 329 329 331 333 322 323 327 319 331 330 324 330 327 327 319 321 320 319 309 309 297 286 280 273 270 268 263 262 268 266 256 263 258 259 256 251 261 261 252 262 258 261 257 265 263 265 257 261 270 258 263 262 252 265 272 267 258 292 260 263 263 287 259 303 301
194 208 189 208 204 200 208 209 206 209 200 209 209 212 213 215 215 215 216 214 222 229 238 241 247 264 266 274 276 279 282 292 294 284 294 295 292 299 302 302 301 295 296 301 307 295 300 299 303 303 305 296 296 301 295 298 307 304 303 301 302 302 306 303 305 300 304 299 300 300 297 297 299 285 288 281 262 261 256 252 239 247 240 245 251 236 241 230 237 239 236 237 243 236 247 241 242 234 239 236 244 238 246 239 237 237 240 240 240 249 236 236 251 245 242 248 221 232 238 237
196 197 201 203 193 205 204 208 198 206 205 184 201 187 204 190 205 209 205 216 218 223 234 230 239 243 252 256 267 271 271 266 273 269 279 272 282 279 282 281 279 283 284 289 283 285 282 284 285 285 285 280 279 285 283 286 288 287 286 283 283 288 290 286 285 286 284 285 283 284 283 281 279 272 261 259 251 249 238 237 231 231 235 229 229 229 225 222 226 232 227 226 229 224 224 225 227 221 224 222 218 232 228 231 235 220 232 226 232 228 238 231 235 236 235 233 240 220 226 237
175 175 171 175 196 194 188 206 184 181 183 177 184 182 181 178 182 187 185 204 210 213 219 229 228 230 234 239 244 248 252 252 259 259 261 261 263 257 266 270 264 264 271 266 263 265 263 266 269 266 264 264 267 263 269 265 268 271 267 273 268 269 262 274 269 268 271 271 270 263 268 257 261 257 250 245 235 234 228 218 225 218 217 214 216 218 220 214 217 219 216 215 221 213 214 217 211 199 212 211 211 215 210 210 210 210 212 213 228 217 220 217 246 241 215 222 223 228 237 231
173 171 169 175 174 170 173 181 178 176 182 174 175 174 186 181 179 182 181 189 185 190 190 209 213 217 224 220 223 230 233 244 241 233 241 240 235 241 245 245 241 241 246 247 250 251 243 245 245 252 244 250 247 247 246 246 247 246 250 250 248 247 251 246 244 248 246 246 249 244 245 244 239 240 231 227 215 217 212 198 194 195 187 183 193 192 194 197 191 188 190 193 190 187 190 186 185 187 187 193 189 192 208 190 186 191 177 200 184 205 203 219 203 198 200 177 203 196 177 204
171 173 174 179 177 176 173 178 175 177 179 173 177 174 179 180 176 183 184 183 185 189 186 192 212 191 217 219 217 221 228 226 224 224 235 229 229 231 229 229 230 230 235 234 231 236 227 229 235 235 233 235 232 235 234 232 231 239 237 242 235 239 237 238 236 234 232 230 234 232 232 230 230 225 215 216 210 195 193 187 193 192 195 190 192 192 194 191 192 190 191 190 187 191 189 184 189 186 188 178 185 180 181 182 183 181 187 175 185 179 181 200 197 199 201 198 220 217 221 196
163 161 164 173 173 167 169 170 169 164 166 161 164 163 170 177 173 171 180 179 173 184 177 180 188 185 191 187 206 208 198 214 208 213 210 215 216 214 215 199 215 219 220 215 218 220 219 215 218 219 218 222 217 220 218 217 224 222 217 218 222 221 220 215 219 217 219 218 218 221 218 213 219 212 192 191 197 191 192 181 185 185 188 183 186 184 184 185 183 182 185 179 187 183 181 183 179 175 184 181 186 181 183 179 182 179 179 178 180 181 172 174 176 171 181 175 171 175 202 178
149 155 159 161 157 162 156 162 160 165 162 158 157 158 160 158 166 168 163 175 171 171 180 181 183 185 184 181 183 192 181 183 185 185 194 189 185 185 186 188 197 189 186 188 196 195 195 192 193 195 192 197 197 199 193 191 192 192 189 194 199 195 197 192 191 195 193 194 197 190 197 195 195 191 189 197 194 189 186 177 177 177 173 177 170 175 174 179 176 178 175 175 171 171 173 175 169 169 166 170 170 174 176 169 174 166 167 168 171 172 173 175 181 179 173 169 162 172 169 167
144 147 153 156 156 155 154 157 157 160 160 158 157 157 161 159 159 166 158 170 167 170 175 178 178 178 179 182 184 187 189 188 187 190 188 187 191 194 192 189 196 195 191 196 192 194 197 196 197 192 193 198 199 197 198 196 197 189 199 198 187 195 197 189 195 194 199 199 186 192 198 194 191 192 189 186 184 186 175 175 173 170 167 166 168 165 168 169 169 170 171 166 167 165 167 162 166 162 165 171 164 170 170 162 166 163 153 164 166 170 167 165 176 171 174 168 164 168 176 171
145 139 140 144 147 147 146 148 146 151 144 148 152 152 146 147 153 148 155 155 158 161 164 169 172 173 173 171 175 180 175 177 181 181 177 180 186 177 181 180 182 181 186 185 179 185 185 183 186 186 183 188 189 184 189 184 186 189 0 188 187 187 185 184 189 186 190 186 186 183 186 184 180 177 176 176 173 169 168 162 160 159 158 162 159 158 167 159 162 155 159 158 159 163 160 160 153 152 164 166 158 159 157 158 156 155 154 153 156 160 157 159 159 157 161 162 160 156 171 168
138 140 139 142 140 149 147 144 146 145 147 145 144 141 143 146 141 148 146 150 156 161 163 164 167 169 171 166 166 171 174 172 178 175 169 171 176 170 176 176 177 179 176 177 175 177 174 180 175 177 180 180 182 181 183 179 181 0 0 178 177 180 180 181 179 176 180 182 177 174 176 177 170 176 171 168 170 163 163 159 162 157 154 156 158 156 157 155 152 153 150 153 157 152 154 152 154 154 154 155 150 154 152 153 148 152 149 147 161 154 146 154 154 153 149 158 152 154 151 162
136 132 130 135 139 144 150 142 140 137 142 139 143 144 142 142 143 146 144 148 150 155 155 158 160 156 161 162 163 165 163 162 170 164 164 165 164 170 167 172 170 0 169 166 171 169 171 171 171 173 175 171 173 172 177 0 172 172 0 175 0 0 175 173 170 174 171 169 174 170 167 165 171 171 165 164 164 157 156 150 151 154 151 150 153 151 153 146 148 155 147 149 148 151 147 148 151 151 152 150 149 144 148 145 146 141 141 142 145 143 144 142 152 156 144 156 154 152 157 171
128 123 126 114 134 135 139 136 133 122 131 128 131 124 137 135 135 136 135 140 141 145 147 151 145 154 156 156 158 160 162 156 154 162 158 154 160 162 0 0 0 0 0 0 0 0 0 163 167 164 167 164 165 163 0 0 0 166 166 0 0 0 0 0 167 162 169 0 161 163 162 159 160 158 154 159 151 155 148 150 147 143 141 144 141 147 141 144 141 144 141 142 143 144 141 139 142 141 144 140 132 137 141 136 124 136 137 133 137 136 137 143 143 148 145 137 136 141 144 126
123 118 127 117 131 130 132 132 137 123 127 131 126 124 125 127 121 137 136 138 139 144 145 146 148 150 154 152 152 154 156 153 157 157 153 153 156 0 0 0 0 0 0 0 0 0 0 0 0 160 163 162 0 0 0 0 0 0 0 0 0 0 0 0 160 0 0 0 0 0 0 155 161 158 153 150 150 149 147 146 139 138 143 143 142 143 143 136 145 141 135 138 139 139 138 136 143 142 137 136 139 134 140 131 131 132 138 129 140 141 139 146 142 148 139 138 139 115 137 158
116 110 119 122 128 127 127 129 127 128 124 120 122 119 117 133 130 124 131 135 126 128 133 140 141 142 143 144 145 151 147 147 152 151 149 146 0 0 0 0 0 0 0 0 0 0 0 0 151 154 157 0 0 0 0 0 0 0 0 0 0 0 0 0 0 0 0 0 0 0 0 0 148 151 148 150 146 144 139 141 137 139 127 129 123 127 137 137 138 127 139 128 137 126 118 127 141 138 130 135 129 139 133 122 127 132 133 130 123 135 135 140 137 132 144 137 136 115 108 133
103 109 112 108 107 106 118 118 116 119 115 111 115 115 127 123 124 119 117 118 130 124 125 122 135 139 138 140 141 142 139 142 142 144 144 143 0 0 0 0 0 0 0 0 0 0 0 0 0 0 0 0 0 0 0 0 0 0 0 0 0 0 0 0 0 0 0 0 0 0 0 0 143 137 142 138 137 138 130 127 123 121 118 121 127 121 125 127 120 125 120 123 114 124 121 133 125 132 123 118 116 129 129 117 119 122 115 124 129 132 121 135 111 128 110 133 109 101 111 121
109 111 112 119 113 111 113 116 120 117 113 121 116 116 118 120 117 127 122 114 116 112 119 116 135 127 137 136 0 132 0 0 0 139 139 0 0 0 0 0 0 0 0 0 0 0 0 0 0 0 0 0 0 0 0 0 0 0 0 0 0 0 0 0 0 0 0 0 0 0 0 0 0 143 125 125 125 126 120 128 120 118 122 128 119 121 118 119 115 118 118 126 116 117 110 117 118 121 120 123 118 126 120 123 118 116 125 122 106 130 132 112 133 123 130 121 109 135 153 145
101 97 106 111 101 100 106 104 99 100 107 102 104 105 106 107 107 112 117 108 112 117 109 114 119 117 124 118 120 126 0 0 0 0 0 0 0 0 0 0 0 0 0 0 0 0 0 0 0 0 0 0 0 0 0 0 0 0 0 0 0 0 0 0 0 0 0 0 0 0 0 0 128 0 0 123 120 120 124 117 119 114 106 116 109 117 112 112 109 113 113 113 109 112 108 106 109 113 110 107 112 110 112 116 110 115 106 106 105 102 104 106 99 112 112 95 113 107 97 127
97 99 94 95 100 102 104 102 99 104 103 102 101 107 105 105 105 112 116 107 108 108 108 108 116 109 113 121 120 119 0 128 0 0 0 0 0 0 0 0 0 0 0 0 0 0 0 0 0 0 0 0 0 0 0 0 0 0 0 0 0 0 0 0 0 0 0 0 0 0 0 0 0 125 0 116 121 115 115 108 109 112 104 101 111 109 107 118 101 106 112 111 112 112 107 113 105 106 100 118 110 104 111 100 106 112 112 111 114 112 96 107 117 104 105 120 129 125 107 141
94 104 100 102 97 98 102 92 94 98 98 96 102 97 97 98 104 101 113 119 113 106 97 107 111 105 115 114 115 119 120 116 122 0 0 0 0 0 0 0 0 0 0 0 0 0 0 0 0 0 0 0 0 0 0 0 0 0 0 0 0 0 0 0 0 0 0 0 0 0 0 0 124 120 109 121 114 116 118 117 104 110 103 120 107 105 103 102 98 104 104 109 110 91 99 100 106 104 110 107 105 109 108 107 114 104 106 89 103 100 101 106 102 100 106 104 144 140 124 113
85 84 81 84 80 82 82 92 91 81 92 90 96 93 87 89 76 91 89 90 88 85 98 102 98 102 112 105 0 114 106 107 115 0 110 0 0 0 112 0 0 0 0 0 0 0 0 0 0 0 0 0 0 0 0 0 0 0 0 0 0 0 0 0 0 0 0 0 0 0 0 115 111 111 103 112 107 102 102 100 98 101 97 89 97 94 86 98 103 100 92 96 103 85 86 93 94 104 84 94 85 94 90 88 86 90 94 95 91 85 85 85 75 94 86 88 79 89 103 91
90 88 91 93 97 96 96 108 92 94 96 95 90 89 96 94 96 90 104 95 98 103 109 102 105 105 111 107 0 104 108 108 118 111 122 108 0 0 0 0 0 117 0 0 0 0 0 0 0 0 0 0 0 0 0 0 0 0 0 0 118 0 0 112 116 0 0 0 113 0 109 111 115 111 113 109 108 111 101 99 110 107 107 88 95 103 104 104 100 103 106 107 109 94 102 102 99 96 99 109 103 98 98 101 96 105 103 88 94 86 92 95 95 106 106 109 111 113 156 145
85 88 90 89 94 95 91 92 86 95 84 86 82 91 85 87 95 98 100 93 98 92 100 110 88 101 100 102 101 104 92 105 105 102 98 102 0 112 114 0 107 0 0 0 0 0 0 0 0 0 0 0 0 0 0 0 0 109 0 0 111 105 104 109 112 112 107 101 113 108 107 99 101 102 113 105 98 92 101 95 94 92 101 85 95 88 92 101 106 93 97 102 109 88 83 83 85 93 95 87 91 86 86 92 91 86 102 95 94 89 97 97 91 93 93 89 103 120 115 154
83 88 82 87 90 92 102 87 89 79 87 88 84 91 90 87 87 87 88 89 77 89 97 90 84 90 91 90 102 92 92 99 97 98 93 108 100 101 101 101 103 96 98 109 106 93 0 0 98 99 0 107 104 92 98 109 104 102 107 103 99 106 108 100 100 111 102 98 100 107 93 107 104 101 103 91 94 97 100 89 93 91 89 94 89 90 91 89 93 92 98 87 93 92 90 86 88 94 92 83 85 86 91 89 86 90 95 86 82 94 83 96 96 99 81 92 98 111 127 108
83 80 83 82 83 82 100 104 85 90 82 83 85 85 84 92 90 92 92 98 84 99 93 92 92 92 94 88 97 99 96 82 94 95 97 95 96 101 92 107 102 95 99 109 101 97 104 0 102 103 96 105 99 98 101 102 97 105 98 105 106 95 94 103 102 96 97 99 93 106 97 99 101 97 106 85 93 95 96 97 96 94 84 91 98 96 88 84 93 87 82 97 87 91 92 94 93 91 100 86 81 96 81 90 91 99 95 96 91 85 80 99 99 106 100 127 128 80 131 139
80 72 68 67 80 80 84 84 86 77 85 79 84 81 87 84 84 85 83 85 93 87 92 89 87 85 92 91 83 94 88 93 95 90 96 93 95 85 90 97 90 89 83 88 95 92 87 101 92 86 92 96 95 88 86 81 103 88 97 96 94 82 82 96 95 97 97 92 94 96 90 86 97 91 95 95 92 94 96 84 82 93 81 89 84 90 85 86 83 87 90 76 89 81 83 85 86 77 80 89 82 87 81 70 79 78 88 82 77 78 71 83 82 89 78 87 105 78 87 51
72 71 81 86 73 87 81 86 82 79 82 77 81 85 82 86 86 88 82 88 85 91 83 91 90 88 90 84 94 90 82 99 90 96 84 92 85 91 96 93 92 96 97 88 88 97 91 86 102 93 90 85 93 84 102 96 96 86 87 96 98 86 93 94 89 96 87 96 108 95 84 95 85 82 93 84 95 96 84 96 92 88 88 89 79 87 90 80 95 89 76 91 78 79 91 81 93 86 81 81 84 77 79 80 77 86 81 85 85 90 80 89 89 105 108 108 89 97 86 206
