0 0 0 0 0 0 0 0 0 0 0 0 0 0 0 0 0 0 0 0 0 0 0 0 0 0 0 0 0 0 0 0 0 0 0 0 0 0 0 0 0 0 0 0 0 0 0 0 0 0 0 0 0 0 0 0 0 0 0 0 0 0 0 0 0 0 0 0 0 0 0 0 0 0 0 0 0 0 0 0 0 0 0 0 0 0 0 0 0 0 0 0 0 0 0 0 0 0 0 0 0 0 0 0 0 0 0 0 0 0 0 0 0 0 0 0 0 0 0 0
0 0 0 0 0 0 0 0 0 0 0 0 0 0 0 0 0 0 0 0 0 0 0 0 0 0 0 0 0 0 0 0 0 0 0 0 0 0 0 0 0 0 0 0 0 0 0 0 0 0 0 0 0 0 0 0 0 0 0 0 0 0 0 0 0 0 0 0 0 0 0 0 0 0 0 0 0 0 0 0 0 0 0 0 0 0 0 0 0 0 0 0 0 0 0 0 0 0 0 0 0 0 0 0 0 0 0 0 0 0 0 0 0 0 0 0 0 0 0 0
0 0 0 0 0 0 0 0 0 0 0 0 0 0 0 0 0 0 0 0 0 0 0 0 0 0 0 0 0 0 0 0 0 0 0 0 0 0 0 0 0 0 0 0 0 0 0 0 0 0 0 0 0 0 0 0 0 0 0 0 0 0 0 0 0 0 0 0 0 0 0 0 0 0 0 0 0 0 0 0 0 0 0 0 0 0 0 0 0 0 0 0 0 0 0 0 0 0 0 0 0 0 0 0 0 0 0 0 0 0 0 0 0 0 0 0 0 0 0 0
0 0 0 0 0 0 0 0 0 0 0 0 0 0 0 0 0 0 0 0 0 0 0 0 0 0 0 0 0 0 0 0 0 0 0 0 0 0 0 0 0 0 0 0 0 0 0 0 0 0 0 0 0 0 0 0 0 0 0 0 0 0 0 0 0 0 0 0 0 0 0 0 0 0 0 0 0 0 0 0 0 0 0 0 0 0 0 0 0 0 0 0 0 0 0 0 0 0 0 0 0 0 0 0 0 0 0 0 0 0 0 0 0 0 0 0 0 0 0 0
0 0 0 0 0 0 0 0 0 0 0 0 0 0 0 0 0 0 0 0 0 0 0 0 0 0 0 0 0 0 0 0 0 0 0 0 0 0 0 0 0 0 0 0 0 0 0 0 0 0 0 0 0 0 0 0 0 0 0 0 0 0 0 0 0 0 0 0 0 0 0 0 0 0 0 0 0 0 0 0 0 0 0 0 0 0 0 0 0 0 0 0 0 0 0 0 0 0 0 0 0 0 0 0 0 0 0 0 0 0 0 0 0 0 0 0 0 0 0 0
0 0 0 0 0 0 0 0 0 0 0 0 0 0 0 0 0 0 0 0 0 0 0 0 0 0 0 0 0 0 0 0 0 0 0 0 0 0 0 591 537 558 523 526 541 524 511 546 511 536 533 525 495 543 528 0 0 0 0 0 0 0 0 0 0 0 0 0 0 0 0 0 0 0 0 0 0 0 0 0 0 0 0 0 0 0 0 0 0 0 0 0 0 0 0 0 0 0 0 0 0 0 0 0 0 0 0 0 0 0 0 0 0 0 0 0 0 0 0 0
0 0 0 0 0 0 0 0 0 0 0 0 0 0 0 0 0 0 0 0 0 0 0 0 0 0 0 0 0 0 0 0 0 0 0 0 0 512 509 516 493 511 510 492 499 490 507 512 505 523 491 507 510 515 524 515 501 515 495 533 0 0 0 0 0 0 0 0 0 0 0 0 0 0 0 0 0 0 0 0 0 0 0 0 0 0 0 0 0 0 0 0 0 0 0 0 0 0 0 0 0 0 0 0 0 0 0 0 0 0 0 0 0 0 0 0 0 0 0 0
0 0 0 0 0 0 0 0 0 0 0 0 0 0 0 0 0 0 0 0 0 0 0 0 0 0 0 0 0 0 0 0 0 0 0 485 505 505 484 506 517 497 499 498 506 497 480 498 502 499 508 498 508 510 510 501 495 502 504 503 505 517 498 471 510 0 0 0 0 0 0 0 0 0 0 0 0 0 0 0 0 0 0 0 0 0 0 0 0 0 0 0 0 0 0 0 0 0 0 0 0 0 0 0 0 0 0 0 0 0 0 0 0 0 0 0 0 0 0 0
0 0 0 0 0 0 0 0 0 0 0 0 0 0 0 0 0 0 0 0 0 0 0 0 0 0 0 0 0 0 0 0 0 497 505 501 501 518 501 499 513 503 503 517 504 512 502 507 511 508 505 506 513 507 502 516 508 511 514 498 506 502 514 524 507 506 518 573 579 570 587 615 598 624 597 601 623 558 558 625 0 0 0 0 0 0 0 0 0 0 0 0 0 0 0 0 0 0 0 0 0 0 0 0 0 0 0 0 0 0 0 0 0 0 0 0 0 0 0 0
0 0 0 0 0 0 0 0 0 0 0 0 0 0 0 0 0 0 0 0 0 0 0 0 0 0 0 0 0 0 0 461 492 503 493 500 482 497 506 496 494 498 497 486 499 504 504 510 509 495 496 504 509 503 502 498 493 511 494 503 510 508 511 510 498 520 503 501 529 521 550 514 515 564 524 562 570 539 524 578 525 518 543 569 0 502 0 533 568 526 547 557 540 511 587 545 521 559 522 534 0 593 578 525 0 0 0 0 0 0 0 0 0 0 0 0 0 0 0 0
0 0 0 0 0 0 0 0 0 0 0 0 0 0 0 0 0 0 0 0 0 0 0 0 0 0 0 0 0 0 502 497 517 501 498 503 505 504 497 505 512 493 508 505 507 515 507 501 503 495 505 505 509 504 499 519 512 515 505 509 504 503 516 514 507 513 514 512 515 531 583 567 585 535 594 589 563 521 562 564 536 564 583 582 604 588 590 573 587 570 600 576 569 571 600 582 593 563 597 590 588 578 599 605 575 569 576 0 648 0 0 0 0 0 0 0 0 0 0 0
0 0 0 0 0 0 0 0 0 0 0 0 0 0 0 0 0 0 0 0 0 0 0 0 0 0 0 0 509 514 507 506 501 512 512 496 507 505 506 507 509 508 499 509 528 511 510 506 498 518 511 510 515 510 515 509 505 511 498 513 505 506 507 506 515 507 507 508 511 516 525 547 599 590 596 614 581 614 623 576 575 627 618 593 629 636 628 597 639 609 599 638 610 612 570 623 594 652 620 630 611 616 624 596 643 618 632 591 652 0 0 0 0 0 0 0 0 0 0 0
0 0 0 0 0 0 0 0 0 0 0 0 0 0 0 0 0 0 0 0 0 0 0 0 0 0 0 465 507 504 491 491 510 502 498 493 495 500 503 501 504 510 489 501 496 502 507 505 493 503 496 498 509 504 514 498 502 507 509 507 510 504 502 516 511 511 507 514 515 506 510 512 538 558 561 537 555 530 564 561 580 559 541 525 594 580 529 511 509 544 562 558 519 574 536 557 588 561 574 561 544 494 555 549 498 545 533 561 0 0 0 0 0 0 0 0 0 0 0 0
0 0 0 0 0 0 0 0 0 0 0 0 0 0 0 0 0 0 0 0 0 0 0 0 0 0 500 511 502 501 497 501 501 505 503 493 508 495 501 505 500 501 508 508 497 505 508 502 502 507 511 507 512 512 512 502 504 505 512 516 508 508 511 506 503 518 507 512 519 505 518 509 528 540 558 585 584 536 542 566 600 581 583 598 585 572 558 572 549 580 587 566 572 593 575 570 550 563 515 536 539 593 594 542 576 609 584 583 596 627 0 0 0 0 0 0 0 0 0 0
0 0 0 0 0 0 0 0 0 0 0 0 0 0 0 0 0 0 0 0 0 0 0 0 0 488 495 493 506 493 503 497 504 501 487 488 487 497 495 500 494 502 506 499 500 502 501 510 498 508 506 507 503 497 503 512 500 512 503 498 510 507 508 519 513 505 495 505 507 513 516 511 506 525 548 547 568 584 534 563 551 541 559 568 596 532 522 552 563 547 528 577 552 586 561 567 543 539 547 566 533 546 546 571 529 545 551 525 535 0 563 0 0 0 0 0 0 0 0 0
0 0 0 0 0 0 0 0 0 0 0 0 0 0 0 0 0 0 0 0 0 0 0 0 0 481 501 483 493 497 498 495 486 494 486 499 492 501 503 501 499 497 505 492 495 499 503 497 495 496 501 505 504 507 497 496 501 504 498 504 499 500 501 512 506 505 508 505 503 502 507 506 501 523 537 497 502 531 509 513 537 562 540 548 527 548 538 537 529 545 532 538 518 515 532 520 548 513 523 531 511 498 538 510 521 538 502 509 499 479 441 0 480 494 0 0 0 0 0 0
0 0 0 0 0 0 0 0 0 0 0 0 0 0 0 0 0 0 0 0 0 0 0 0 484 504 495 492 500 489 504 505 500 495 501 498 494 498 504 496 505 503 497 501 499 510 500 502 495 502 498 502 508 506 502 514 499 501 502 509 506 501 512 502 499 516 510 508 505 513 511 512 515 507 536 550 572 554 557 560 548 555 533 563 538 562 537 564 543 539 524 553 566 559 586 547 559 576 591 581 554 537 582 542 581 564 557 573 570 557 614 0 0 0 0 0 0 0 0 0
0 0 0 0 0 0 0 0 0 0 0 0 0 0 0 0 0 0 0 0 0 0 0 0 474 485 495 483 496 490 493 488 488 485 489 493 504 492 489 505 494 498 505 498 486 497 497 502 503 490 505 501 504 503 499 499 510 509 498 501 502 498 504 499 495 501 500 499 504 506 502 506 498 508 497 506 522 538 522 515 510 488 503 497 506 513 504 538 478 521 537 525 492 528 524 501 518 519 518 505 513 528 530 517 532 504 537 526 484 513 0 0 0 0 0 0 0 0 0 0
0 0 0 0 0 0 0 0 0 0 0 0 0 0 0 0 0 0 0 0 0 0 0 484 494 494 492 494 489 492 497 498 492 488 500 490 496 495 495 493 501 491 504 495 500 507 500 508 501 505 502 501 509 508 505 503 511 506 496 505 501 499 503 504 503 505 515 514 505 502 509 503 509 505 513 514 543 513 538 554 520 511 548 490 528 543 532 549 516 545 510 550 529 546 554 511 519 538 518 553 526 546 548 525 549 508 529 538 547 561 555 0 0 0 0 0 0 0 0 0
0 0 0 0 0 0 0 0 0 0 0 0 0 0 0 0 0 0 0 0 0 0 0 518 499 491 483 498 490 495 496 498 500 499 492 489 493 492 496 501 492 503 497 506 499 505 505 502 501 501 503 502 497 503 503 511 507 508 506 501 504 505 506 506 509 500 503 509 504 511 508 511 513 503 506 513 539 535 526 547 536 549 533 553 559 531 543 564 551 546 543 553 539 540 545 542 541 529 571 569 562 523 554 585 596 580 584 530 538 517 507 0 0 0 0 0 0 0 0 0
0 0 0 0 0 0 0 0 0 0 0 0 0 0 0 0 0 0 0 0 0 0 415 481 494 482 481 485 482 486 489 502 493 491 481 491 488 486 486 497 505 499 503 500 499 496 500 492 498 494 494 498 496 496 509 507 502 506 505 499 501 509 507 506 495 506 506 503 501 510 519 512 501 505 509 507 528 508 533 529 533 520 542 517 498 512 513 509 522 524 547 507 529 553 560 529 534 532 524 534 516 525 531 525 544 513 503 513 482 526 473 0 533 0 0 0 0 0 0 0
0 0 0 0 0 0 0 0 0 0 0 0 0 0 0 0 0 0 0 0 0 0 505 495 485 486 503 491 496 499 491 492 497 492 498 498 486 497 498 485 505 505 489 508 497 501 503 499 503 503 501 508 500 501 501 506 509 502 496 504 505 506 507 510 506 512 511 511 511 505 512 509 513 509 514 504 523 554 525 557 535 521 530 543 548 528 562 536 532 547 560 543 527 535 535 553 563 526 557 561 540 583 555 556 537 513 557 540 574 576 546 517 0 0 0 0 0 0 0 0
0 0 0 0 0 0 0 0 0 0 0 0 0 0 0 0 0 0 0 0 0 0 483 483 485 487 489 497 483 490 486 482 492 482 485 482 489 496 490 499 495 498 502 490 495 494 498 496 495 504 497 500 494 492 502 499 504 501 504 504 508 505 507 507 501 499 503 505 499 504 507 501 500 497 508 501 515 505 534 507 504 515 534 516 499 496 513 524 488 502 521 529 513 568 536 514 514 515 530 499 496 487 517 518 543 518 551 521 541 552 525 513 547 0 0 0 0 0 0 0
0 0 0 0 0 0 0 0 0 0 0 0 0 0 0 0 0 0 0 0 0 0 489 489 481 484 481 487 485 494 499 485 486 487 494 486 491 488 488 494 494 488 496 493 493 495 498 496 494 502 504 503 493 509 497 494 498 497 497 496 506 505 500 498 497 495 505 501 507 493 506 502 503 508 495 508 503 517 497 497 499 502 514 504 487 515 507 518 504 508 482 506 492 511 504 509 518 492 524 487 515 503 496 502 474 510 467 493 482 430 450 448 479 0 0 0 0 0 0 0
0 0 0 0 0 0 0 0 0 0 0 0 0 0 0 0 0 0 0 0 0 0 495 481 485 493 487 479 485 499 489 488 493 487 493 487 489 491 494 496 494 491 493 498 494 492 497 494 499 500 499 496 501 496 498 503 496 496 503 503 504 505 501 498 506 501 498 497 502 510 495 506 511 505 508 501 507 513 498 519 505 528 498 517 528 498 481 519 502 518 499 523 521 521 479 480 526 503 519 566 506 531 523 512 527 537 551 517 536 502 480 522 546 0 0 0 0 0 0 0
0 0 0 0 0 0 0 0 0 0 0 0 0 0 0 0 0 0 0 0 0 0 493 471 487 482 484 476 492 478 489 480 486 485 498 482 489 485 486 493 496 488 492 502 492 491 491 499 495 495 495 494 498 504 497 494 501 498 496 495 498 501 500 497 503 492 506 496 501 503 499 500 504 495 497 502 504 500 499 484 482 495 522 514 494 500 478 482 508 479 494 512 487 473 506 526 467 496 510 482 518 506 495 504 481 492 501 446 438 0 444 0 517 0 0 0 0 0 0 0
0 0 0 0 0 0 0 0 0 0 0 0 0 0 0 0 0 0 0 0 0 427 479 493 487 487 490 487 490 487 477 485 492 499 487 485 496 489 492 497 491 496 491 494 499 499 495 498 491 494 496 496 492 500 500 507 497 504 506 499 505 500 503 506 504 501 505 505 505 504 506 511 497 506 505 508 505 512 509 536 516 515 530 531 516 511 522 510 486 527 536 520 514 525 510 510 512 530 517 500 533 526 512 527 523 528 538 498 503 543 551 490 0 0 0 0 0 0 0 0
0 0 0 0 0 0 0 0 0 0 0 0 0 0 0 0 0 0 0 0 0 464 485 486 482 488 490 484 493 479 481 482 495 487 491 487 496 487 487 492 498 494 491 491 493 493 493 494 496 498 497 501 497 506 499 500 500 498 497 500 498 500 505 502 501 506 504 503 502 505 502 503 502 502 502 513 508 514 512 528 527 515 524 518 543 541 536 547 511 576 539 505 546 539 523 499 520 510 510 521 526 542 549 535 533 538 522 542 516 527 523 539 0 0 0 0 0 0 0 0
0 0 0 0 0 0 0 0 0 0 0 0 0 0 0 0 0 0 0 0 0 454 475 489 487 474 477 482 479 485 483 483 483 488 491 482 485 496 487 490 491 489 486 489 494 493 493 494 497 494 498 497 500 494 494 501 496 500 503 497 505 505 507 498 500 500 504 504 500 499 496 501 503 512 508 498 503 508 511 500 492 517 491 512 507 507 502 485 484 539 519 514 488 491 474 499 501 533 505 511 495 502 514 514 477 519 556 557 488 510 475 492 482 0 0 0 0 0 0 0
0 0 0 0 0 0 0 0 0 0 0 0 0 0 0 0 0 0 0 0 0 479 490 477 488 483 493 484 491 485 481 493 488 484 486 493 486 490 483 496 502 487 496 495 496 495 497 500 492 494 501 501 499 505 499 499 504 501 508 509 499 502 499 503 500 500 504 507 499 506 501 506 508 506 504 512 502 513 521 519 523 523 504 525 519 512 515 522 510 535 527 540 537 552 542 557 541 531 544 540 548 548 519 510 550 496 527 552 548 574 562 545 532 0 0 0 0 0 0 0
0 0 0 0 0 0 0 0 0 0 0 0 0 0 0 0 0 0 0 0 0 452 476 476 476 474 481 475 483 477 483 484 482 487 483 486 490 486 485 488 482 489 494 489 492 492 494 495 492 493 490 495 497 499 496 496 496 498 500 498 497 497 499 498 502 499 497 502 501 498 503 505 498 502 499 501 503 509 498 503 495 516 503 525 489 485 506 496 518 493 529 502 538 497 520 492 490 500 510 494 493 521 503 498 489 514 516 509 483 503 476 493 485 0 0 0 0 0 0 0
0 0 0 0 0 0 0 0 0 0 0 0 0 0 0 0 0 0 0 0 0 460 477 478 480 478 475 477 482 477 485 483 482 486 487 484 479 488 491 491 490 493 490 489 494 492 497 496 496 493 492 497 492 493 496 495 488 497 498 498 499 497 496 500 496 497 496 504 495 503 500 500 497 500 495 502 499 494 493 490 502 491 499 492 500 524 499 491 519 492 502 500 509 484 485 508 520 471 487 510 496 491 503 487 553 470 511 479 496 507 514 516 457 487 0 0 0 0 0 0
0 0 0 0 0 0 0 0 0 0 0 0 0 0 0 0 0 0 0 0 0 447 477 483 478 477 477 480 485 485 485 481 482 481 483 485 492 486 487 489 490 484 490 490 492 490 495 497 490 492 498 493 496 501 496 502 492 497 498 498 496 499 495 502 503 502 494 501 504 504 505 496 507 503 498 496 497 505 500 485 494 491 501 510 516 523 504 507 521 505 517 528 508 504 515 527 474 499 548 538 535 512 498 513 511 510 518 492 483 484 539 505 518 473 0 0 0 0 0 0
0 0 0 0 0 0 0 0 0 0 0 0 0 0 0 0 0 0 0 0 0 430 473 476 473 478 477 475 477 474 477 479 480 485 482 482 481 488 485 492 484 482 488 491 493 491 489 486 489 492 489 499 496 493 496 496 492 498 492 498 496 491 497 496 498 503 500 499 493 498 500 493 493 498 500 493 499 497 496 485 506 497 487 501 485 498 490 503 505 493 483 484 490 473 468 488 472 488 483 491 467 499 504 495 488 497 507 494 485 534 478 445 484 0 0 0 0 0 0 0
0 0 0 0 0 0 0 0 0 0 0 0 0 0 0 0 0 0 0 0 0 469 475 473 478 478 474 476 478 483 479 487 486 485 483 486 483 487 487 489 489 483 491 491 491 492 486 492 497 491 497 494 495 496 499 493 494 494 497 496 496 497 507 496 502 497 497 494 499 498 500 498 501 500 497 502 501 503 505 503 502 501 492 495 513 485 474 501 504 483 516 507 499 486 509 510 505 515 514 523 496 511 503 490 513 537 498 531 542 515 491 472 533 545 0 0 0 0 0 0
0 0 0 0 0 0 0 0 0 0 0 0 0 0 0 0 0 0 0 0 0 461 468 473 473 478 478 480 480 480 481 477 481 478 483 482 485 487 488 486 489 489 488 492 493 491 490 489 490 495 494 490 494 491 500 494 496 500 495 498 497 499 493 501 493 502 497 502 499 501 505 496 500 505 496 499 497 502 511 529 511 530 509 513 521 533 528 494 540 516 498 509 534 537 541 544 538 551 526 521 500 509 526 512 542 535 535 543 526 515 555 537 556 568 0 0 0 0 0 0
0 0 0 0 0 0 0 0 0 0 0 0 0 0 0 0 0 0 0 0 0 476 475 478 473 472 483 474 481 477 480 486 486 481 486 484 480 481 481 490 480 491 492 488 487 492 488 491 488 486 493 493 490 496 490 497 494 494 492 497 493 497 496 499 502 494 498 498 495 494 501 494 497 499 498 495 496 491 510 496 505 506 485 505 488 496 486 493 478 500 488 502 479 497 510 478 466 499 508 509 501 526 475 505 504 489 485 446 483 504 508 484 496 533 0 0 0 0 0 0
0 0 0 0 0 0 0 0 0 0 0 0 0 0 0 0 0 0 0 0 0 0 470 481 476 475 481 482 481 482 479 480 489 480 484 482 485 485 488 486 484 493 486 493 492 487 490 493 498 489 498 494 492 494 499 498 493 496 500 496 498 502 498 497 495 502 500 493 495 496 498 498 495 495 497 500 495 506 516 497 515 524 503 513 544 512 511 489 502 514 526 515 543 505 525 515 521 535 535 522 526 535 491 548 539 524 519 522 528 540 517 493 525 533 0 0 0 0 0 0
0 0 0 0 0 0 0 0 0 0 0 0 0 0 0 0 0 0 0 0 0 0 496 471 468 473 478 478 477 478 480 477 479 484 479 485 479 486 486 482 484 486 487 491 487 491 487 489 492 486 492 491 494 490 489 492 491 494 493 495 497 490 492 493 496 494 496 491 495 498 498 497 500 495 495 489 500 491 499 489 500 516 518 517 508 527 510 512 529 522 510 522 511 516 522 502 527 504 509 501 487 482 475 505 483 499 492 489 505 513 499 482 531 0 0 0 0 0 0 0
0 0 0 0 0 0 0 0 0 0 0 0 0 0 0 0 0 0 0 0 0 0 536 469 466 476 478 467 474 476 476 477 479 481 483 484 486 483 479 485 481 481 485 486 487 487 490 484 490 489 490 493 490 494 492 495 491 495 497 491 496 494 494 496 496 495 502 494 493 492 493 493 492 493 495 494 496 491 502 500 494 501 490 492 514 506 515 505 511 478 516 497 499 508 475 508 497 481 499 516 488 468 496 477 451 484 498 484 455 492 461 501 459 478 435 431 0 0 0 0
0 0 0 0 0 0 0 0 0 0 0 0 0 0 0 0 0 0 0 0 0 0 615 474 477 479 473 471 484 478 480 482 474 478 482 481 485 485 482 488 484 488 487 490 486 490 487 491 490 492 491 491 489 497 494 494 500 493 494 499 494 494 499 496 498 496 498 495 494 494 494 493 493 494 498 494 500 503 489 512 519 513 507 502 519 515 520 510 527 516 501 524 525 549 519 543 528 526 524 524 486 512 510 527 501 531 509 514 528 522 495 478 463 477 510 0 0 0 0 0
0 0 0 0 0 0 0 0 0 0 0 0 0 0 0 0 0 0 0 0 0 0 0 476 462 465 476 474 473 471 472 483 480 477 475 477 477 484 480 487 483 486 489 488 488 484 485 486 490 490 488 492 492 491 493 488 493 489 497 494 491 491 493 491 492 495 491 500 494 493 495 491 498 491 496 494 491 485 494 486 493 496 478 484 480 487 486 509 482 491 488 500 480 495 493 501 503 487 497 499 477 477 487 494 482 503 466 457 463 464 443 491 434 0 0 0 0 0 0 0
0 0 0 0 0 0 0 0 0 0 0 0 0 0 0 0 0 0 0 0 0 0 0 488 473 470 476 473 480 475 476 479 476 477 485 479 482 483 488 480 481 486 490 489 489 488 489 490 492 492 492 492 487 484 496 494 498 494 494 489 498 493 493 495 495 493 495 498 495 494 495 495 495 494 492 491 483 475 489 505 500 491 500 493 492 490 514 503 525 496 508 510 502 514 489 509 509 499 506 504 525 505 522 492 531 488 508 483 505 489 500 511 511 462 0 0 0 0 0 0
0 0 0 0 0 0 0 0 0 0 0 0 0 0 0 0 0 0 0 0 0 0 0 508 468 475 475 463 474 480 474 474 480 478 471 481 480 483 477 483 485 478 485 486 487 487 490 489 490 487 488 493 485 486 495 486 493 492 492 493 495 495 492 499 493 494 495 499 498 495 499 492 496 500 500 493 493 494 501 495 506 519 492 497 512 528 516 509 513 510 509 511 526 518 520 519 501 523 534 511 517 521 512 519 504 483 527 509 496 508 533 472 488 470 0 0 0 0 0 0
0 0 0 0 0 0 0 0 0 0 0 0 0 0 0 0 0 0 0 0 0 0 0 0 476 468 464 472 474 470 478 474 470 475 476 475 478 477 478 477 480 480 478 483 486 484 484 483 488 487 488 486 491 488 489 491 492 495 488 495 492 493 492 495 493 494 493 493 494 494 493 494 489 492 490 488 489 496 485 507 483 489 482 489 474 501 487 479 487 491 504 504 503 479 491 499 494 473 497 506 483 494 491 494 467 486 476 493 470 443 497 477 466 440 452 518 0 0 0 0
0 0 0 0 0 0 0 0 0 0 0 0 0 0 0 0 0 0 0 0 0 0 0 0 527 472 473 475 478 477 475 476 478 480 478 481 484 480 480 481 482 483 481 486 483 487 488 491 486 490 493 488 492 492 490 492 500 493 490 488 488 491 494 496 495 494 493 490 494 495 497 491 496 493 495 490 493 482 508 492 514 523 510 512 517 525 518 514 513 501 523 538 545 511 538 519 546 504 519 489 492 538 516 502 488 472 500 491 526 507 519 513 458 490 490 526 0 0 0 0
0 0 0 0 0 0 0 0 0 0 0 0 0 0 0 0 0 0 0 0 0 0 0 0 0 465 465 469 471 471 468 472 472 475 469 472 477 474 475 483 479 478 484 488 485 486 486 486 482 484 489 484 490 488 489 492 492 487 490 490 490 489 492 494 491 490 491 496 487 490 492 490 491 491 487 487 484 483 488 498 489 485 489 487 489 507 497 470 495 493 488 515 503 502 506 491 502 492 504 508 488 498 475 486 485 476 455 460 455 458 506 479 473 445 0 0 0 0 0 0
0 0 0 0 0 0 0 0 0 0 0 0 0 0 0 0 0 0 0 0 0 0 0 0 0 545 469 468 468 473 466 471 477 474 476 473 476 479 475 474 478 485 480 481 485 482 482 484 487 482 486 483 486 490 492 488 490 486 488 489 492 486 491 485 489 491 493 490 495 487 494 490 496 488 490 476 483 478 494 484 476 480 484 477 487 487 483 487 484 458 485 483 483 475 498 486 474 491 494 489 493 491 488 430 466 465 437 462 455 444 444 499 480 424 432 0 0 0 0 0
0 0 0 0 0 0 0 0 0 0 0 0 0 0 0 0 0 0 0 0 0 0 0 0 0 0 489 470 460 470 465 474 471 474 473 476 474 481 472 474 474 480 481 483 482 485 483 480 487 484 485 489 490 487 488 492 490 491 491 485 487 486 488 489 493 492 491 488 492 493 496 486 489 487 488 496 486 492 486 496 492 492 497 493 493 487 503 483 474 484 496 508 483 509 489 512 502 496 512 493 477 497 508 486 505 461 500 507 488 471 491 495 441 498 0 0 0 0 0 0
0 0 0 0 0 0 0 0 0 0 0 0 0 0 0 0 0 0 0 0 0 0 0 0 0 0 0 463 468 466 467 473 466 470 469 471 472 473 473 476 479 481 475 480 481 478 479 472 482 481 483 485 483 486 484 485 483 485 484 487 487 485 487 487 483 487 484 490 491 486 490 482 486 481 482 478 482 470 480 461 467 481 485 459 475 484 475 476 480 469 483 492 481 488 482 470 486 487 481 480 476 448 452 451 452 444 435 437 464 459 454 432 422 448 0 0 0 0 0 0
0 0 0 0 0 0 0 0 0 0 0 0 0 0 0 0 0 0 0 0 0 0 0 0 0 0 0 485 472 464 468 469 473 466 473 474 472 470 475 473 471 475 483 479 481 476 482 484 481 482 489 481 487 488 483 489 485 482 482 486 490 489 490 488 489 487 492 489 488 485 488 485 480 476 481 492 487 483 491 489 489 489 485 504 496 507 480 485 487 489 493 490 487 483 503 516 498 512 510 481 479 465 520 478 478 455 473 508 447 460 489 466 504 478 472 0 0 0 0 0
0 0 0 0 0 0 0 0 0 0 0 0 0 0 0 0 0 0 0 0 0 0 0 0 0 0 0 0 487 472 466 467 474 467 475 470 472 473 480 474 478 477 482 476 477 483 473 482 482 484 483 480 483 486 485 486 486 488 482 486 491 489 488 487 485 487 490 487 490 484 487 487 475 495 489 490 493 482 490 484 491 484 490 493 494 493 478 484 501 505 504 480 477 493 526 495 476 478 503 494 496 491 497 477 471 489 503 450 525 468 498 505 487 509 487 0 0 0 0 0
0 0 0 0 0 253 235 252 313 0 0 0 0 0 0 0 0 0 0 0 0 2369 0 0 0 0 0 0 0 490 461 464 466 468 470 472 469 470 472 472 471 477 476 480 474 476 479 478 477 479 483 480 481 485 485 481 479 483 486 479 485 478 481 481 483 486 484 479 481 484 477 480 488 485 478 482 486 480 493 490 476 483 475 478 493 485 478 482 481 486 479 497 461 484 491 478 489 480 489 498 471 514 473 477 464 482 461 473 465 440 422 463 451 469 449 0 0 0 0 0
0 0 0 0 249 236 230 235 235 308 404 0 0 0 0 0 0 0 0 0 0 2273 0 0 0 0 0 0 0 0 458 460 462 478 466 470 471 473 472 477 479 477 474 476 479 472 478 470 481 482 477 486 478 480 484 487 482 482 485 482 486 485 487 490 486 488 484 487 485 490 485 484 489 483 496 486 497 488 490 485 495 491 495 515 480 495 485 487 486 517 484 490 494 502 502 507 507 520 518 535 507 515 506 483 500 493 505 472 486 483 480 519 495 0 0 0 0 0 0 0
0 0 0 256 219 227 224 219 235 240 311 0 0 0 0 0 0 0 0 0 0 0 0 0 0 0 0 0 0 0 0 472 455 465 462 470 467 468 463 467 469 469 472 474 467 470 469 474 473 477 477 474 478 472 477 482 482 475 482 477 479 485 479 480 480 479 479 476 470 484 480 481 479 480 477 485 485 473 470 486 475 487 482 477 487 471 483 474 473 479 489 474 491 462 467 474 458 452 485 469 478 478 458 452 459 476 461 468 458 452 472 456 428 455 435 0 0 0 0 0
172 208 226 236 212 248 255 229 237 240 298 0 390 417 391 388 417 431 398 411 447 429 420 424 440 440 454 436 433 460 463 461 456 464 461 458 464 462 462 465 461 465 467 466 471 473 472 470 472 467 472 478 478 476 479 479 466 477 479 476 476 478 471 476 482 474 475 479 474 477 462 477 466 469 469 462 471 471 478 458 459 474 472 473 483 473 469 472 461 461 467 467 468 460 470 462 458 466 467 489 453 459 456 464 425 459 429 449 451 444 424 445 420 460 411 422 0 0 0 0
199 218 179 212 252 249 264 231 229 262 395 393 402 418 401 396 401 409 426 413 407 407 426 419 416 418 423 428 442 451 451 454 457 455 455 453 453 461 466 465 456 466 455 464 462 469 471 464 473 473 467 470 475 471 475 467 471 474 463 478 472 472 467 475 471 477 476 479 466 471 475 472 463 466 460 462 460 452 461 470 472 458 458 457 448 450 465 454 464 452 470 455 454 468 453 455 460 439 453 439 454 447 448 448 431 445 450 454 454 437 445 439 446 401 433 443 400 0 0 0
172 174 186 176 228 223 237 221 224 268 332 333 348 363 371 362 363 383 357 376 382 376 380 377 396 410 414 414 419 437 438 444 439 438 435 440 435 442 441 442 435 444 440 447 450 448 452 451 455 455 446 453 454 453 451 458 450 455 452 457 457 456 453 459 460 457 455 452 446 457 455 446 443 441 421 426 426 425 421 430 429 415 415 430 424 423 427 427 421 421 405 412 423 411 418 411 411 410 399 417 408 401 410 392 407 400 405 396 402 387 409 391 412 409 388 406 364 408 355 0
281 290 253 221 229 227 228 231 249 363 316 336 344 330 349 330 358 348 345 349 353 364 366 378 382 384 394 407 421 421 417 425 420 426 426 434 438 437 432 432 431 433 428 433 434 437 433 434 445 440 438 441 443 441 442 446 442 439 446 444 453 445 444 444 443 447 441 437 436 436 430 435 426 432 419 423 408 402 397 401 395 389 398 397 398 401 392 394 412 395 400 385 407 400 405 403 405 393 400 400 399 401 394 407 403 394 400 401 394 391 378 390 397 401 404 405 395 383 419 433
302 293 278 244 233 234 229 245 315 308 325 309 320 315 296 321 320 305 312 320 323 335 335 350 359 368 391 390 396 396 399 406 408 410 415 407 411 413 411 413 411 413 417 410 420 416 417 420 415 423 416 421 416 423 422 426 423 423 417 420 429 429 417 421 418 421 427 427 414 419 409 414 409 405 404 393 384 372 366 371 377 360 351 357 366 368 361 358 366 364 355 364 367 378 372 366 365 356 367 374 355 345 376 377 367 375 372 368 363 355 381 364 367 362 357 381 390 395 373 384
265 260 282 264 254 255 253 266 265 288 270 270 279 278 286 282 302 279 280 293 292 313 311 318 333 344 367 372 366 376 390 390 395 382 387 378 394 392 392 393 393 393 397 389 390 389 395 392 395 385 390 398 404 401 401 394 397 401 400 401 399 398 396 398 394 387 397 394 392 391 390 390 395 381 375 360 366 352 347 334 340 326 328 336 329 332 335 326 327 335 330 337 338 337 326 326 340 329 328 332 337 319 350 348 335 336 336 335 337 316 342 325 334 319 342 350 316 362 338 342
264 245 251 252 260 254 257 265 262 263 266 263 267 261 255 263 264 265 275 270 275 288 295 306 314 322 328 348 355 358 364 369 368 365 365 371 365 367 366 368 367 372 374 372 376 371 370 376 369 374 382 372 373 377 383 373 377 379 381 374 381 375 377 378 367 376 372 376 366 373 368 367 364 357 351 343 333 326 314 316 308 309 305 295 300 318 308 312 313 300 304 314 318 311 322 303 305 302 296 315 313 318 307 304 304 317 315 308 316 313 324 308 337 321 322 304 299 325 343 318
229 229 225 230 225 230 241 233 239 239 240 232 244 243 245 245 243 245 245 247 254 262 274 280 286 300 311 327 325 328 328 333 346 339 340 340 345 342 342 341 344 345 348 343 346 344 346 352 343 342 343 349 345 347 350 346 349 353 357 352 349 349 353 342 349 347 350 350 345 349 344 343 335 339 321 319 312 292 285 293 276 275 280 272 281 278 276 271 269 270 273 275 287 280 271 270 265 269 279 289 284 274 274 275 279 274 270 267 283 278 276 275 276 307 264 278 279 260 273 308
220 210 227 215 227 217 220 225 223 225 231 227 225 225 228 229 227 233 228 235 250 244 257 256 272 279 296 296 298 302 309 313 317 313 320 320 316 324 322 323 321 318 313 320 326 325 322 325 323 328 323 326 332 326 329 322 331 322 328 324 324 326 324 323 327 325 322 322 327 317 321 319 316 313 301 304 283 272 277 269 261 263 263 260 256 254 254 262 258 258 254 257 252 260 256 256 250 254 253 265 256 261 252 268 253 256 249 253 256 268 254 268 264 248 266 251 245 255 262 237
204 212 210 214 214 211 210 217 208 216 214 206 212 207 212 214 210 214 216 225 233 227 241 255 258 261 274 274 279 284 292 292 297 292 297 299 294 302 307 302 300 300 298 297 302 300 304 300 305 306 310 296 303 301 304 303 308 305 303 308 304 309 309 304 302 307 302 303 305 296 295 306 301 289 285 279 273 266 260 254 247 249 246 250 248 246 243 235 241 244 239 239 242 242 243 234 246 240 245 243 246 245 239 248 246 244 245 241 249 254 242 261 255 265 250 262 235 250 249 234
181 197 193 198 192 198 203 202 199 203 188 180 185 187 185 180 208 187 209 205 213 226 231 229 232 246 250 256 260 267 264 268 274 272 273 278 280 278 279 276 279 282 284 284 278 276 281 279 279 284 282 282 277 284 280 282 283 279 279 286 283 286 282 285 286 288 289 284 282 286 283 281 274 273 268 260 251 242 239 228 229 223 226 229 226 228 228 222 225 226 222 222 224 223 218 214 223 219 222 229 231 219 223 228 229 213 223 223 228 226 238 219 250 218 234 223 225 229 213 213
196 177 176 178 182 180 199 201 181 182 182 185 185 186 182 181 183 185 191 189 212 211 216 226 226 230 237 244 251 249 254 253 257 257 261 256 255 261 266 264 269 264 267 269 265 266 267 270 264 264 265 264 267 266 267 268 262 270 264 275 267 263 265 274 270 269 267 270 266 268 267 257 260 258 250 242 237 232 224 220 218 201 218 216 219 222 213 213 218 214 215 218 218 211 211 220 215 209 215 216 215 208 211 209 205 214 216 212 231 219 220 237 237 233 232 222 258 231 222 234
173 178 172 175 172 179 181 175 173 181 180 184 176 181 185 184 185 188 178 181 187 194 209 209 215 220 222 221 227 228 235 242 241 242 241 238 238 245 245 246 247 244 248 251 253 251 247 248 246 251 247 251 247 250 243 246 251 251 253 252 250 246 251 251 243 254 249 250 243 250 246 243 238 236 236 224 222 215 197 211 198 196 190 187 190 196 190 199 196 190 187 190 194 185 191 187 190 202 204 189 187 211 205 191 187 192 203 203 204 205 211 206 213 215 209 201 222 197 200 218
166 175 173 174 175 174 174 169 177 173 178 170 175 171 176 178 173 176 179 183 189 180 185 190 209 193 219 217 218 219 226 224 227 225 228 229 225 230 229 230 227 226 234 234 238 230 227 229 236 234 231 231 231 233 233 233 234 235 234 234 237 235 236 231 235 237 236 229 232 231 231 229 230 224 216 213 193 196 197 198 191 195 190 193 192 191 193 189 192 190 190 190 185 188 187 187 190 189 186 183 185 175 176 186 191 180 182 181 174 177 178 177 199 184 195 194 199 205 199 203
163 166 171 173 168 172 168 168 173 170 171 173 170 165 173 174 173 178 178 182 175 180 190 180 189 185 186 189 209 211 209 213 208 214 216 215 215 216 216 198 214 225 218 216 218 221 222 219 219 222 220 223 218 220 220 222 223 225 223 220 219 223 224 220 221 215 220 221 223 216 221 220 218 211 193 193 188 194 196 192 189 185 190 183 184 182 185 184 184 186 185 178 186 186 179 185 182 179 184 185 185 182 183 184 183 183 184 180 180 181 176 180 174 193 215 188 199 177 191 217
150 153 159 160 161 159 161 163 160 162 156 160 159 156 160 164 165 162 169 169 167 176 182 182 184 185 183 183 192 193 193 186 194 188 186 192 190 188 192 195 194 190 192 190 195 196 193 194 193 193 198 194 194 199 195 194 193 193 191 192 200 199 195 191 194 192 197 195 194 193 198 197 197 190 190 195 190 188 187 174 175 179 178 174 175 173 176 177 178 173 170 176 175 172 171 169 168 170 172 170 169 171 179 166 175 168 167 165 164 173 170 176 171 176 170 178 170 169 173 167
144 149 150 153 154 153 153 159 156 155 159 155 154 156 160 156 158 162 155 167 166 169 176 176 179 180 177 184 180 184 190 189 188 188 191 188 189 185 190 192 193 195 193 196 192 194 194 196 194 193 194 197 195 197 197 197 196 199 196 198 197 197 194 199 195 197 194 197 188 195 193 195 191 191 192 186 183 181 180 172 172 174 163 165 166 168 169 166 171 172 170 168 173 165 172 164 163 162 161 170 169 169 170 168 166 161 160 165 168 166 166 166 169 172 168 165 163 172 158 159
144 143 145 144 148 151 144 151 151 151 148 151 148 149 145 150 154 150 154 160 164 164 163 174 170 173 174 176 173 176 179 180 182 181 177 184 183 180 183 181 181 181 186 182 184 186 183 183 186 186 184 188 185 190 189 188 188 189 0 187 186 187 186 186 188 185 191 185 186 185 185 183 182 181 175 174 175 170 170 166 160 162 160 159 159 163 164 159 164 161 163 160 162 164 157 160 154 157 163 165 157 160 161 156 158 158 158 154 156 157 156 159 159 164 160 168 162 167 173 173
131 137 135 141 139 146 146 144 141 145 146 145 141 146 142 148 141 146 147 150 155 159 159 159 165 165 166 164 168 171 171 171 174 174 171 169 173 171 172 177 175 179 175 177 173 178 175 179 175 177 180 176 176 176 181 181 180 0 0 177 178 179 178 183 178 176 179 177 178 174 175 178 174 172 172 169 168 164 162 158 160 157 152 153 155 153 153 153 154 154 150 152 160 156 156 151 151 152 155 154 156 152 152 149 151 150 149 151 160 143 147 149 142 151 139 161 152 152 134 146
137 132 129 135 139 143 151 142 140 138 138 143 140 144 144 140 141 146 142 147 150 150 155 159 160 157 162 161 166 163 163 163 165 163 162 169 165 170 167 172 171 0 172 0 174 173 171 172 172 170 174 176 176 172 174 0 172 172 0 173 172 0 176 172 172 173 172 170 172 171 166 166 170 170 164 163 165 159 156 152 153 153 150 150 152 149 151 147 149 158 146 151 149 149 147 147 153 148 155 149 145 145 150 153 145 143 142 145 154 144 150 146 149 164 145 155 136 153 152 168
129 111 128 114 135 132 144 135 130 123 131 129 132 124 139 133 137 135 137 139 141 147 149 150 150 156 157 154 159 159 157 153 158 163 157 157 162 164 0 0 0 0 0 0 0 0 0 161 164 166 166 163 167 165 0 0 171 166 168 0 0 0 0 0 164 167 167 0 164 163 163 160 160 159 156 157 153 155 149 148 150 142 145 147 144 150 140 142 145 140 145 144 140 147 142 137 143 148 141 140 137 136 141 136 136 136 137 137 142 143 141 142 148 153 153 156 150 142 146 147
115 130 122 123 127 131 134 131 136 131 134 134 124 134 124 125 130 137 136 133 141 138 148 148 149 150 152 150 152 154 154 153 157 155 154 154 153 0 0 0 0 0 0 0 0 0 0 0 0 162 161 161 0 0 0 0 0 0 0 0 0 0 0 0 160 161 0 0 0 0 0 155 158 154 156 149 149 149 147 143 139 141 143 143 141 142 141 138 146 141 136 138 139 139 137 137 144 140 137 135 135 134 134 134 131 137 132 135 135 138 137 150 142 143 136 134 140 136 129 161
115 109 118 125 127 125 128 129 129 129 134 129 118 121 119 129 124 123 129 133 135 136 135 143 143 141 144 144 145 151 151 149 154 151 150 148 0 0 0 0 0 0 0 0 0 0 0 0 155 155 157 0 0 0 0 0 0 0 0 0 0 0 0 0 0 0 0 0 0 0 0 0 151 150 150 145 147 145 142 144 138 140 127 137 125 137 138 139 137 137 139 139 133 126 118 135 138 136 133 135 128 136 133 132 131 132 133 132 135 145 137 140 137 142 142 143 138 128 130 159
105 112 113 109 108 114 118 117 114 119 115 112 117 116 124 121 121 130 116 118 130 124 127 121 137 141 137 139 141 143 141 142 144 145 143 142 0 0 0 0 0 0 0 0 0 0 0 0 0 0 0 0 0 0 0 0 0 0 0 0 0 0 0 0 0 0 0 0 0 0 0 0 143 137 142 141 140 131 128 128 124 126 121 117 123 124 124 121 123 128 125 125 113 123 123 128 127 123 120 118 115 129 130 118 120 120 118 120 131 133 133 132 116 121 111 130 110 104 119 135
112 111 113 119 112 114 116 114 121 117 115 117 115 118 119 121 119 127 119 115 120 115 122 117 136 135 134 138 0 140 0 0 0 136 131 0 0 0 0 0 0 0 0 0 0 0 0 0 0 0 0 0 0 0 0 0 0 0 0 0 0 0 0 0 0 0 0 0 0 0 0 0 0 143 125 126 121 124 122 128 119 116 119 124 115 119 117 120 120 112 120 121 121 114 113 121 120 118 118 120 118 124 129 123 131 113 127 120 108 123 129 110 126 123 129 118 118 134 143 157
100 98 107 111 105 102 107 103 104 104 109 106 106 109 106 110 110 113 116 111 116 114 112 117 120 119 125 121 117 126 0 0 0 0 125 0 0 0 0 0 0 0 0 0 0 0 0 0 0 0 0 0 0 0 0 0 0 0 0 0 0 0 0 0 0 0 0 0 0 0 0 0 128 0 0 124 122 123 119 116 118 113 112 116 111 116 109 113 105 117 117 114 111 112 109 109 109 112 110 110 114 110 110 111 109 116 107 108 109 105 109 108 104 123 121 98 121 140 109 150
97 98 91 92 100 103 99 99 103 102 100 102 100 103 107 103 103 105 118 104 109 108 108 106 114 109 113 117 116 122 0 124 0 0 0 0 0 0 0 0 0 0 0 0 0 0 0 0 0 0 0 0 0 0 0 0 0 0 0 0 0 0 0 0 0 0 0 0 0 0 0 0 0 122 0 115 117 116 114 109 109 111 105 104 107 107 107 117 102 106 111 109 111 114 107 112 104 106 96 116 112 104 109 105 110 114 104 104 106 105 98 101 104 95 104 118 99 94 104 125
98 101 94 104 94 101 99 93 94 101 98 98 103 95 101 95 103 104 113 117 113 106 96 112 113 105 115 114 114 121 120 118 122 0 0 0 0 0 0 0 0 0 0 0 0 0 0 0 0 0 0 0 0 0 0 0 0 0 0 0 0 0 0 0 0 0 0 0 0 0 0 0 121 121 108 119 113 114 116 114 106 111 101 115 108 105 102 103 103 104 104 106 108 96 100 104 108 103 114 103 111 110 109 106 106 111 104 87 104 100 102 109 102 103 121 107 139 133 113 130
88 85 82 84 78 82 85 97 88 86 91 94 99 93 89 87 76 93 89 89 90 89 99 103 99 97 113 105 0 0 107 105 116 0 0 0 0 0 115 0 0 0 0 0 0 0 0 0 0 0 0 0 0 0 0 0 0 0 0 0 0 0 0 0 0 0 0 0 0 0 0 115 112 109 106 112 110 104 102 98 101 102 98 90 102 97 82 96 105 98 95 96 101 85 84 96 93 103 88 94 89 97 90 88 81 92 98 95 92 89 79 81 76 94 92 94 92 92 93 111
95 89 89 91 95 94 97 102 88 96 94 90 95 90 98 98 99 91 101 96 95 104 107 101 103 101 112 107 0 106 109 110 116 111 120 109 111 0 113 0 0 117 0 0 0 0 0 0 0 0 0 0 0 0 0 0 0 0 0 0 115 0 0 0 112 0 0 0 112 0 108 111 113 111 116 107 106 111 102 99 111 103 105 88 97 98 107 102 102 103 106 105 105 99 99 102 101 96 96 105 101 98 95 102 93 102 97 86 88 88 94 98 89 102 106 107 107 111 135 143
86 93 89 88 95 97 88 89 87 98 87 90 92 93 89 85 94 97 96 93 97 92 99 112 93 100 106 99 103 106 93 0 103 103 100 101 0 115 115 0 107 0 0 0 0 0 0 0 0 0 0 0 0 0 0 0 0 112 0 0 0 107 104 110 113 112 105 99 112 105 109 102 102 100 112 110 101 91 105 98 94 98 102 85 92 88 93 105 105 93 98 104 110 88 85 86 87 93 94 86 90 88 96 94 89 89 105 95 97 92 95 101 98 91 100 100 136 120 151 146
82 86 83 89 89 91 104 89 86 81 88 88 87 91 88 89 92 90 87 88 93 92 93 85 83 92 89 89 102 90 94 99 95 97 93 110 99 101 105 103 105 99 98 106 108 89 0 0 93 0 0 106 105 92 105 109 103 102 103 103 98 104 109 102 100 110 104 98 97 107 97 104 107 100 104 89 94 95 98 92 96 93 91 96 89 91 88 95 94 94 99 92 93 93 92 89 85 92 92 82 89 88 93 88 84 83 92 87 84 99 83 89 92 98 81 102 97 74 134 102
84 79 83 86 85 82 102 103 86 85 84 79 81 87 81 88 89 93 88 96 84 97 94 85 91 97 92 91 97 102 94 84 93 96 97 96 96 100 94 107 102 95 99 104 101 95 103 0 106 103 95 103 96 95 100 101 101 106 98 109 104 94 96 102 103 101 98 100 92 106 95 107 98 93 104 86 93 96 96 84 96 95 96 91 98 94 89 86 93 91 86 93 85 92 82 91 91 91 98 87 82 97 80 90 91 100 93 92 90 87 86 95 99 96 89 113 117 88 142 115
82 74 71 71 81 85 89 88 88 81 84 80 87 82 87 84 85 88 85 87 92 88 93 88 85 85 88 94 85 86 91 93 83 95 95 95 97 83 90 97 91 90 85 88 94 92 87 99 92 90 95 98 96 92 90 86 100 90 96 97 97 97 82 98 94 80 97 91 96 98 94 84 91 93 97 95 93 92 90 95 84 94 84 85 83 94 87 88 87 86 95 76 91 82 87 86 80 77 81 92 80 85 80 72 83 82 89 89 83 80 86 83 88 87 92 99 144 80 86 75
72 73 79 82 71 84 89 87 82 83 82 90 82 84 82 87 86 90 84 86 82 91 84 92 85 86 92 85 93 90 83 93 89 94 86 93 91 93 87 95 93 96 92 87 88 99 88 97 100 84 92 95 96 84 99 93 90 98 98 96 95 96 87 95 87 95 89 96 103 91 95 96 81 95 97 96 93 85 95 93 90 89 88 88 77 88 84 77 94 89 76 89 79 79 90 81 90 88 79 76 84 82 82 78 75 80 80 87 86 90 80 77 73 94 79 94 94 92 72 200
