0 0 0 0 0 0 0 0 0 0 0 0 0 0 0 0 0 0 0 0 0 0 0 0 0 0 0 0 0 0 0 0 0 0 0 0 0 0 0 0 0 0 0 0 0 0 0 0 0 0 0 0 0 0 0 0 0 0 0 0 0 0 0 0 0 0 0 0 0 0 0 0 0 0 0 0 0 0 0 0 0 0 0 0 0 0 0 0 0 0 0 0 0 0 0 0 0 0 0 0 0 0 0 0 0 0 0 0 0 0 0 0 0 0 0 0 0 0 0 0
0 0 0 0 0 0 0 0 0 0 0 0 0 0 0 0 0 0 0 0 0 0 0 0 0 0 0 0 0 0 0 0 0 0 0 0 0 0 0 0 0 0 0 0 0 0 0 0 0 0 0 0 0 0 0 0 0 0 0 0 0 0 0 0 0 0 0 0 0 0 0 0 0 0 0 0 0 0 0 0 0 0 0 0 0 0 0 0 0 0 0 0 0 0 0 0 0 0 0 0 0 0 0 0 0 0 0 0 0 0 0 0 0 0 0 0 0 0 0 0
0 0 0 0 0 0 0 0 0 0 0 0 0 0 0 0 0 0 0 0 0 0 0 0 0 0 0 0 0 0 0 0 0 0 0 0 0 0 0 0 0 0 0 0 0 0 0 0 0 0 0 0 0 0 0 0 0 0 0 0 0 0 0 0 0 0 0 0 0 0 0 0 0 0 0 0 0 0 0 0 0 0 0 0 0 0 0 0 0 0 0 0 0 0 0 0 0 0 0 0 0 0 0 0 0 0 0 0 0 0 0 0 0 0 0 0 0 0 0 0
0 0 0 0 0 0 0 0 0 0 0 0 0 0 0 0 0 0 0 0 0 0 0 0 0 0 0 0 0 0 0 0 0 0 0 0 0 0 0 0 0 0 0 0 0 0 0 0 0 0 0 0 0 0 0 0 0 0 0 0 0 0 0 0 0 0 0 0 0 0 0 0 0 0 0 0 0 0 0 0 0 0 0 0 0 0 0 0 0 0 0 0 0 0 0 0 0 0 0 0 0 0 0 0 0 0 0 0 0 0 0 0 0 0 0 0 0 0 0 0
0 0 0 0 0 0 0 0 0 0 0 0 0 0 0 0 0 0 0 0 0 0 0 0 0 0 0 0 0 0 0 0 0 0 0 0 0 0 0 0 0 0 0 0 0 0 0 0 0 0 0 0 0 0 0 0 0 0 0 0 0 0 0 0 0 0 0 0 0 0 0 0 0 0 0 0 0 0 0 0 0 0 0 0 0 0 0 0 0 0 0 0 0 0 0 0 0 0 0 0 0 0 0 0 0 0 0 0 0 0 0 0 0 0 0 0 0 0 0 0
0 0 0 0 0 0 0 0 0 0 0 0 0 0 0 0 0 0 0 0 0 0 0 0 0 0 0 0 0 0 0 0 0 0 0 0 0 0 0 535 537 524 519 504 532 514 527 531 504 535 530 505 522 539 508 0 0 0 0 0 0 0 0 0 0 0 0 0 0 0 0 0 0 0 0 0 0 0 0 0 0 0 0 0 0 0 0 0 0 0 0 0 0 0 0 0 0 0 0 0 0 0 0 0 0 0 0 0 0 0 0 0 0 0 0 0 0 0 0 0
0 0 0 0 0 0 0 0 0 0 0 0 0 0 0 0 0 0 0 0 0 0 0 0 0 0 0 0 0 0 0 0 0 0 0 0 0 465 506 490 493 500 491 495 494 503 494 509 521 519 504 506 505 509 501 510 489 476 492 472 0 0 0 0 0 0 0 0 0 0 0 0 0 0 0 0 0 0 0 0 0 0 0 0 0 0 0 0 0 0 0 0 0 0 0 0 0 0 0 0 0 0 0 0 0 0 0 0 0 0 0 0 0 0 0 0 0 0 0 0
0 0 0 0 0 0 0 0 0 0 0 0 0 0 0 0 0 0 0 0 0 0 0 0 0 0 0 0 0 0 0 0 0 0 0 533 505 502 512 503 515 508 505 520 496 520 506 505 524 502 512 514 511 510 528 516 512 512 510 519 504 517 526 551 619 0 0 0 0 0 0 0 0 0 0 0 0 0 0 0 0 0 0 0 0 0 0 0 0 0 0 0 0 0 0 0 0 0 0 0 0 0 0 0 0 0 0 0 0 0 0 0 0 0 0 0 0 0 0 0
0 0 0 0 0 0 0 0 0 0 0 0 0 0 0 0 0 0 0 0 0 0 0 0 0 0 0 0 0 0 0 0 0 517 508 504 520 520 503 496 524 513 512 510 508 504 501 511 509 518 500 505 522 503 507 505 512 504 501 506 513 504 515 514 516 513 512 553 573 585 570 606 605 0 578 602 631 597 0 647 0 0 0 0 0 0 0 0 0 0 0 0 0 0 0 0 0 0 0 0 0 0 0 0 0 0 0 0 0 0 0 0 0 0 0 0 0 0 0 0
0 0 0 0 0 0 0 0 0 0 0 0 0 0 0 0 0 0 0 0 0 0 0 0 0 0 0 0 0 0 0 493 481 511 484 488 494 505 500 491 499 485 497 503 498 503 501 498 512 503 511 497 511 508 498 493 507 504 514 514 512 522 501 515 505 517 494 514 514 560 544 572 556 521 604 570 566 548 558 581 585 540 535 591 534 549 552 592 550 596 612 499 544 591 536 519 536 549 544 550 563 588 521 526 0 540 0 0 0 0 0 0 0 0 0 0 0 0 0 0
0 0 0 0 0 0 0 0 0 0 0 0 0 0 0 0 0 0 0 0 0 0 0 0 0 0 0 0 0 0 525 503 502 502 489 506 503 498 507 507 510 498 509 492 506 508 514 517 504 513 507 501 505 503 514 523 505 511 500 508 510 507 508 513 521 516 521 514 517 515 544 565 619 554 595 561 662 593 593 574 600 559 585 554 609 601 566 582 602 627 615 585 597 589 597 605 595 614 572 594 649 558 577 594 586 570 572 0 594 0 0 0 0 0 0 0 0 0 0 0
0 0 0 0 0 0 0 0 0 0 0 0 0 0 0 0 0 0 0 0 0 0 0 0 0 0 0 0 469 501 501 487 487 502 500 493 506 498 504 499 510 503 493 499 507 499 508 496 498 505 499 495 492 492 500 494 507 500 501 506 503 498 504 500 509 506 503 505 511 508 499 553 534 544 552 547 523 511 566 605 574 578 539 544 554 552 537 536 579 552 563 537 557 547 539 542 559 532 553 524 522 508 519 547 494 564 530 549 519 0 0 0 0 0 0 0 0 0 0 0
0 0 0 0 0 0 0 0 0 0 0 0 0 0 0 0 0 0 0 0 0 0 0 0 0 0 0 481 491 490 490 485 495 495 491 498 498 495 494 504 507 493 496 502 491 498 495 502 497 508 497 509 507 503 503 508 505 507 504 503 510 500 504 514 511 503 514 510 506 509 510 505 516 535 536 542 534 527 518 542 521 538 551 515 535 531 507 520 559 512 537 517 545 517 540 506 533 508 533 544 561 545 455 526 537 516 497 558 485 0 0 0 0 0 0 0 0 0 0 0
0 0 0 0 0 0 0 0 0 0 0 0 0 0 0 0 0 0 0 0 0 0 0 0 0 0 512 502 503 490 487 510 492 501 503 502 497 506 506 499 507 502 500 516 503 512 505 505 504 502 512 510 508 506 501 498 505 507 509 509 503 513 509 508 514 513 511 505 510 510 517 512 539 559 557 560 553 578 582 572 571 573 580 569 621 573 536 604 568 578 590 600 586 599 597 622 583 566 559 561 558 572 563 586 614 558 608 538 594 0 0 0 0 0 0 0 0 0 0 0
0 0 0 0 0 0 0 0 0 0 0 0 0 0 0 0 0 0 0 0 0 0 0 0 0 456 476 489 501 495 488 497 495 492 489 481 499 501 487 501 506 492 505 502 499 507 495 490 494 501 503 501 499 500 500 503 498 501 503 494 506 505 507 508 504 501 495 495 510 506 501 505 502 513 514 536 519 518 513 530 542 529 514 506 504 522 517 537 494 562 532 513 526 543 545 529 536 496 526 515 502 506 485 548 543 547 518 497 536 556 526 0 0 0 0 0 0 0 0 0
0 0 0 0 0 0 0 0 0 0 0 0 0 0 0 0 0 0 0 0 0 0 0 0 0 489 501 491 500 503 488 499 495 511 487 504 500 495 498 505 501 505 508 494 491 506 510 502 495 508 498 513 509 508 504 506 513 504 506 509 509 508 509 504 506 516 510 520 505 510 516 513 509 518 548 544 552 560 543 567 559 566 573 565 588 521 538 553 557 565 567 548 576 555 559 569 572 555 575 573 550 563 529 521 559 530 560 561 510 619 531 0 543 553 0 0 0 0 0 0
0 0 0 0 0 0 0 0 0 0 0 0 0 0 0 0 0 0 0 0 0 0 0 0 493 493 493 494 491 496 501 503 494 493 499 499 492 491 506 501 498 494 493 499 502 503 503 501 494 501 504 503 505 506 510 514 504 503 503 509 508 504 505 509 505 501 515 504 508 509 513 507 512 504 539 534 547 545 531 548 533 545 544 547 577 535 551 537 533 563 546 550 551 532 528 555 548 565 549 555 544 564 544 567 544 586 546 559 521 543 0 0 0 0 0 0 0 0 0 0
0 0 0 0 0 0 0 0 0 0 0 0 0 0 0 0 0 0 0 0 0 0 0 0 480 488 492 481 488 494 496 493 496 485 488 488 502 491 503 498 490 494 499 491 493 500 500 494 502 505 505 498 499 503 497 496 500 505 499 506 507 497 517 510 505 511 504 499 503 510 492 506 507 515 507 498 512 523 539 494 517 544 512 543 510 499 527 558 514 500 547 527 512 533 517 555 517 517 528 516 518 542 514 550 521 553 544 546 528 511 0 0 0 0 0 0 0 0 0 0
0 0 0 0 0 0 0 0 0 0 0 0 0 0 0 0 0 0 0 0 0 0 0 509 499 509 495 495 486 497 501 498 500 488 498 493 502 506 493 496 502 499 511 504 497 510 500 507 499 505 508 503 502 510 509 501 508 509 504 505 511 511 508 505 508 505 504 513 510 509 505 503 509 507 504 517 533 537 546 536 549 565 557 571 533 568 554 555 578 545 546 563 554 578 556 551 549 551 551 535 547 559 546 559 562 537 516 550 553 542 651 0 0 0 0 0 0 0 0 0
0 0 0 0 0 0 0 0 0 0 0 0 0 0 0 0 0 0 0 0 0 0 0 492 484 489 474 484 489 488 489 487 495 486 493 492 480 492 489 497 490 495 494 501 500 497 502 500 492 501 494 501 502 506 493 507 505 506 502 496 500 505 499 498 495 500 500 501 496 503 508 501 501 508 512 505 518 517 514 543 498 521 509 531 511 506 515 497 526 506 502 517 516 514 494 526 467 519 515 498 531 530 494 534 516 531 507 520 516 505 484 0 0 0 0 0 0 0 0 0
0 0 0 0 0 0 0 0 0 0 0 0 0 0 0 0 0 0 0 0 0 0 450 480 501 490 483 500 488 489 484 488 496 493 494 486 488 495 489 490 502 500 494 506 494 494 503 497 503 507 492 495 498 492 501 498 504 498 499 502 504 506 504 498 495 514 502 502 496 506 504 510 507 503 504 498 512 522 536 505 542 527 519 513 519 518 511 540 493 500 499 525 517 523 497 540 537 522 515 523 509 515 538 497 480 537 545 557 471 469 479 447 504 0 0 0 0 0 0 0
0 0 0 0 0 0 0 0 0 0 0 0 0 0 0 0 0 0 0 0 0 0 487 494 493 479 495 490 490 501 495 484 503 487 491 494 491 500 498 493 498 498 494 495 506 505 505 497 504 496 506 500 505 508 501 500 508 504 504 505 498 509 504 513 501 510 510 504 521 503 507 507 511 509 511 505 522 525 537 543 537 540 551 529 549 548 548 540 565 551 542 569 531 540 574 553 529 528 577 552 544 531 553 560 543 565 552 513 561 532 551 594 0 0 0 0 0 0 0 0
0 0 0 0 0 0 0 0 0 0 0 0 0 0 0 0 0 0 0 0 0 0 473 470 486 482 498 495 489 484 492 492 487 484 486 483 490 493 497 487 493 496 500 496 494 499 496 500 500 495 496 502 497 494 496 499 508 505 506 505 498 503 501 501 501 508 505 508 505 502 501 501 508 506 511 506 503 523 508 505 512 515 527 483 534 515 525 548 522 550 496 513 526 501 536 520 515 511 509 521 488 501 542 481 526 527 513 527 510 495 514 546 540 0 0 0 0 0 0 0
0 0 0 0 0 0 0 0 0 0 0 0 0 0 0 0 0 0 0 0 0 0 502 498 494 491 494 500 494 492 495 492 493 494 492 488 484 494 486 494 491 496 493 499 502 494 502 505 497 505 505 500 495 502 501 508 506 501 506 511 503 503 500 498 506 502 509 503 508 510 508 512 511 501 506 517 505 545 522 552 503 534 522 523 555 542 533 507 539 520 541 541 575 556 561 535 552 547 552 552 545 533 516 533 542 543 542 546 539 548 579 576 569 0 0 0 0 0 0 0
0 0 0 0 0 0 0 0 0 0 0 0 0 0 0 0 0 0 0 0 0 0 480 476 493 493 488 491 483 491 499 493 497 483 487 489 498 483 487 487 496 497 504 497 499 496 496 499 502 508 499 496 503 497 507 501 503 507 505 500 503 503 504 507 501 505 500 500 512 507 506 507 507 503 511 513 512 519 498 544 543 536 539 544 514 526 535 506 508 522 542 546 498 538 536 544 535 533 513 535 523 527 533 542 537 544 553 548 519 559 531 536 534 0 0 0 0 0 0 0
0 0 0 0 0 0 0 0 0 0 0 0 0 0 0 0 0 0 0 0 0 0 472 471 496 489 490 486 476 478 499 483 489 482 487 486 486 498 498 489 491 486 491 493 489 490 493 495 502 497 498 493 496 495 497 495 499 497 499 501 503 500 500 503 499 500 501 505 500 507 501 500 499 502 502 504 504 501 513 502 506 497 504 502 504 497 519 484 519 505 526 516 512 522 491 548 495 483 499 508 508 509 523 508 506 469 516 473 0 462 508 494 497 0 0 0 0 0 0 0
0 0 0 0 0 0 0 0 0 0 0 0 0 0 0 0 0 0 0 0 0 498 476 493 488 485 497 494 495 485 482 482 491 497 491 493 506 488 489 500 488 502 493 493 490 494 494 495 496 491 498 504 490 503 504 504 500 503 506 498 513 500 505 505 510 499 507 509 506 510 504 498 503 510 506 510 505 502 524 526 560 521 535 508 499 517 520 538 524 526 527 536 507 511 540 556 539 530 578 537 583 579 509 549 542 553 535 578 552 529 509 0 0 0 0 0 0 0 0 0
0 0 0 0 0 0 0 0 0 0 0 0 0 0 0 0 0 0 0 0 0 431 485 477 482 479 479 480 477 486 480 481 486 487 488 492 485 487 489 490 489 493 493 487 495 489 488 495 497 495 495 494 491 498 501 496 503 503 497 506 499 501 498 495 502 502 503 503 502 501 496 498 498 505 504 506 511 499 506 491 523 497 535 510 511 495 499 503 504 500 480 495 508 525 514 483 497 478 494 497 498 511 526 513 505 513 528 498 475 516 499 473 0 0 0 0 0 0 0 0
0 0 0 0 0 0 0 0 0 0 0 0 0 0 0 0 0 0 0 0 0 469 485 483 483 475 478 476 477 484 492 479 480 488 483 488 486 495 489 488 493 490 488 495 493 492 496 495 497 494 496 492 492 495 494 502 501 499 494 499 505 497 501 503 505 508 504 499 499 498 496 501 506 504 495 498 503 502 507 489 508 519 508 526 512 518 502 491 507 502 528 508 502 496 501 489 472 504 525 519 514 504 508 515 523 537 470 483 505 489 559 553 464 519 476 0 0 0 0 0
0 0 0 0 0 0 0 0 0 0 0 0 0 0 0 0 0 0 0 0 0 477 489 472 484 480 484 485 492 488 483 490 481 491 488 490 489 487 486 495 491 492 495 493 494 498 493 503 496 496 494 495 507 496 499 497 500 504 502 501 500 504 507 500 506 502 504 502 499 498 503 504 507 503 503 504 506 505 523 522 515 516 521 502 528 521 501 534 517 510 529 538 510 534 530 507 540 548 548 533 530 519 520 539 541 549 531 485 514 528 474 555 544 0 0 0 0 0 0 0
0 0 0 0 0 0 0 0 0 0 0 0 0 0 0 0 0 0 0 0 0 459 481 487 474 483 484 478 481 480 484 478 487 484 489 486 484 488 486 486 492 493 488 490 494 493 487 493 494 490 492 498 494 497 494 498 495 498 504 498 502 497 499 496 499 507 497 507 502 507 499 503 496 505 503 493 502 503 510 489 499 492 506 502 505 523 524 491 517 501 527 509 502 496 478 492 517 493 479 510 505 506 493 524 502 514 508 487 450 486 485 491 451 0 0 0 0 0 0 0
0 0 0 0 0 0 0 0 0 0 0 0 0 0 0 0 0 0 0 0 0 498 479 480 479 483 484 481 482 488 486 485 487 484 487 482 489 488 488 489 494 494 493 491 498 491 496 499 496 502 494 496 498 499 500 500 493 497 497 501 496 496 500 499 499 505 504 502 506 504 506 503 502 504 499 502 509 495 498 503 529 507 532 519 509 535 506 503 503 525 512 535 515 530 510 523 515 526 520 530 532 527 534 524 532 512 505 524 567 526 532 529 531 0 0 0 0 0 0 0
0 0 0 0 0 0 0 0 0 0 0 0 0 0 0 0 0 0 0 0 0 462 483 478 475 485 477 481 484 481 485 485 485 480 483 490 489 487 488 493 490 489 490 491 493 489 491 490 490 497 493 496 497 499 499 501 500 500 500 500 503 496 498 502 501 495 497 504 499 510 503 496 503 505 501 503 495 496 491 513 526 487 507 527 510 510 523 510 516 520 530 529 525 505 520 517 496 475 523 546 543 506 525 534 538 487 516 495 501 523 539 591 486 0 0 0 0 0 0 0
0 0 0 0 0 0 0 0 0 0 0 0 0 0 0 0 0 0 0 0 0 434 475 472 476 474 479 475 476 476 477 483 482 485 484 478 482 484 483 493 488 489 487 495 490 490 487 490 495 490 490 495 494 494 493 495 498 497 499 496 497 493 499 498 496 499 498 501 497 493 496 497 497 496 501 493 501 492 490 496 510 512 488 470 491 519 511 496 497 504 511 487 486 470 482 521 481 508 496 486 516 510 465 518 465 495 492 485 501 461 477 482 514 0 0 0 0 0 0 0
0 0 0 0 0 0 0 0 0 0 0 0 0 0 0 0 0 0 0 0 0 503 478 477 469 480 480 482 483 487 487 483 484 486 483 485 483 487 485 494 489 490 491 493 493 499 494 492 496 490 496 500 500 492 498 490 505 497 495 498 493 498 500 497 497 499 502 497 500 498 500 498 500 499 503 499 504 505 503 506 524 511 525 506 532 515 519 522 517 535 535 512 526 515 535 538 520 510 507 547 526 531 509 544 529 582 536 530 527 518 519 536 523 509 0 0 0 0 0 0
0 0 0 0 0 0 0 0 0 0 0 0 0 0 0 0 0 0 0 0 0 419 470 475 475 475 478 479 480 475 479 474 476 480 482 480 486 484 487 480 487 486 487 493 487 489 490 490 486 498 492 494 492 492 500 494 495 500 495 497 494 495 492 497 496 502 499 500 497 495 499 498 496 496 493 496 497 495 505 497 509 481 489 517 499 502 485 509 478 501 504 503 536 503 484 499 481 516 491 478 501 501 516 521 499 472 539 477 509 485 485 534 444 509 0 0 0 0 0 0
0 0 0 0 0 0 0 0 0 0 0 0 0 0 0 0 0 0 0 0 0 472 471 469 479 472 480 472 475 478 478 483 482 483 481 485 483 482 478 487 485 485 491 484 489 493 489 493 491 490 492 495 489 494 496 489 490 495 489 494 493 492 498 497 494 491 499 498 496 497 501 493 502 500 501 494 495 497 492 486 484 479 485 487 487 491 493 498 468 487 503 512 484 491 490 479 484 497 506 497 491 510 511 481 465 498 499 469 484 487 490 463 471 488 0 0 0 0 0 0
0 0 0 0 0 0 0 0 0 0 0 0 0 0 0 0 0 0 0 0 0 0 476 479 476 480 478 476 480 481 475 484 489 481 479 480 485 481 485 489 487 484 489 492 494 489 495 490 497 494 491 501 498 498 496 493 495 497 498 497 500 497 493 499 497 501 498 498 493 496 495 502 497 496 496 500 498 504 500 496 505 513 511 521 514 512 515 502 515 503 528 516 509 515 518 506 510 515 529 513 530 506 536 568 547 523 526 505 534 517 526 520 500 527 0 0 0 0 0 0
0 0 0 0 0 0 0 0 0 0 0 0 0 0 0 0 0 0 0 0 0 0 489 478 465 474 474 478 478 473 475 476 478 483 478 483 480 487 487 479 486 483 483 484 489 484 485 485 490 487 491 492 495 493 489 496 493 488 494 495 494 496 495 497 496 500 498 495 495 494 498 495 496 496 492 494 494 491 494 517 496 499 491 488 511 515 490 489 517 492 519 497 494 486 518 493 495 483 503 515 469 483 494 502 475 455 468 490 484 463 485 509 462 468 0 0 0 0 0 0
0 0 0 0 0 0 0 0 0 0 0 0 0 0 0 0 0 0 0 0 0 0 538 470 474 480 473 482 482 476 478 478 481 479 482 482 484 488 482 487 486 483 490 487 495 488 490 487 489 494 492 494 487 493 492 496 493 493 499 499 497 489 500 499 497 498 500 500 497 494 496 495 497 497 493 495 498 506 501 514 503 505 505 505 520 521 535 502 523 521 526 536 524 504 494 548 521 493 538 494 498 522 519 555 519 546 514 499 513 511 509 542 518 527 475 531 0 0 0 0
0 0 0 0 0 0 0 0 0 0 0 0 0 0 0 0 0 0 0 0 0 0 632 472 481 477 474 483 481 481 478 478 475 477 479 484 483 482 485 484 489 488 490 485 491 482 492 487 490 489 490 489 493 492 499 496 489 492 495 494 496 491 501 498 492 494 497 499 499 497 494 497 492 497 490 495 492 508 504 502 528 514 515 520 511 529 510 499 532 531 526 506 558 514 529 501 505 535 496 528 527 518 511 525 512 477 507 503 503 488 532 507 514 533 548 0 0 0 0 0
0 0 0 0 0 0 0 0 0 0 0 0 0 0 0 0 0 0 0 0 0 0 753 475 464 473 471 469 471 473 476 481 477 481 476 478 481 484 477 484 487 482 485 489 486 481 487 483 486 488 490 489 493 494 490 487 491 494 494 495 487 489 493 496 493 496 490 503 498 494 499 494 495 493 493 491 493 488 492 505 504 493 489 488 501 484 491 504 485 504 501 507 501 513 489 492 505 499 489 495 493 506 527 479 488 482 458 473 472 475 439 461 435 0 0 0 0 0 0 0
0 0 0 0 0 0 0 0 0 0 0 0 0 0 0 0 0 0 0 0 0 0 0 490 476 471 475 472 478 477 480 482 482 477 477 476 483 479 488 480 486 486 488 486 481 487 487 489 490 493 492 490 487 493 497 494 494 490 493 491 490 493 494 492 493 496 494 498 498 489 500 493 491 494 493 494 494 508 499 503 492 521 508 490 524 498 500 511 504 504 491 511 503 505 506 514 539 540 525 505 550 536 512 505 517 483 499 509 513 481 514 514 519 507 0 0 0 0 0 0
0 0 0 0 0 0 0 0 0 0 0 0 0 0 0 0 0 0 0 0 0 0 0 520 465 470 471 468 470 471 469 475 479 471 472 478 479 484 473 481 479 480 484 488 484 487 487 487 487 489 490 492 487 482 490 485 488 492 487 490 493 494 491 497 498 491 490 492 491 488 492 486 489 493 497 491 497 484 494 485 484 492 473 495 505 486 493 479 487 480 485 501 498 486 485 474 481 482 478 481 502 505 483 469 469 459 455 466 460 466 456 446 454 467 0 0 0 0 0 0
0 0 0 0 0 0 0 0 0 0 0 0 0 0 0 0 0 0 0 0 0 0 0 0 474 466 471 473 466 472 480 470 478 483 475 480 479 482 478 480 478 485 481 481 483 485 485 482 491 486 492 486 488 490 490 490 490 490 484 492 488 494 491 494 499 489 493 492 492 491 494 488 493 489 490 489 479 499 494 505 484 488 488 494 503 510 493 482 495 500 486 489 501 508 505 485 487 473 497 493 506 470 505 491 444 454 493 470 498 454 471 479 450 481 442 498 0 0 0 0
0 0 0 0 0 0 0 0 0 0 0 0 0 0 0 0 0 0 0 0 0 0 0 0 550 474 470 470 469 474 479 475 480 476 475 480 482 480 481 483 486 483 478 482 492 487 489 487 484 491 493 489 491 493 494 494 494 492 498 489 494 490 495 498 495 494 497 492 492 494 497 489 495 494 494 497 494 487 496 497 511 501 489 493 505 529 517 497 518 531 513 512 516 516 545 532 517 550 517 492 483 507 487 490 529 498 457 498 499 491 511 512 508 482 484 0 0 0 0 0
0 0 0 0 0 0 0 0 0 0 0 0 0 0 0 0 0 0 0 0 0 0 0 0 0 478 467 468 469 471 470 468 478 474 474 470 476 474 483 480 481 478 483 488 480 482 484 486 484 488 489 484 490 485 487 494 491 486 487 493 491 491 494 492 491 493 492 492 492 495 493 487 494 489 491 486 481 472 489 480 483 488 491 488 482 484 473 491 509 511 491 499 492 479 490 476 484 499 469 478 493 464 469 492 442 477 442 437 460 452 474 427 475 475 0 0 0 0 0 0
0 0 0 0 0 0 0 0 0 0 0 0 0 0 0 0 0 0 0 0 0 0 0 0 0 551 475 475 469 474 470 471 473 474 474 476 480 472 481 479 486 485 485 479 485 482 482 483 482 486 489 485 484 490 493 496 488 488 490 493 489 490 491 496 492 494 494 490 494 488 495 490 495 491 490 498 484 478 492 504 500 498 482 492 492 504 497 498 506 498 504 502 520 517 507 495 506 506 537 519 540 538 537 524 536 514 481 504 495 525 492 510 514 531 506 0 0 0 0 0
0 0 0 0 0 0 0 0 0 0 0 0 0 0 0 0 0 0 0 0 0 0 0 0 0 0 479 472 463 476 468 469 473 474 474 475 473 478 478 475 476 483 476 484 489 484 485 485 484 479 489 488 491 486 487 489 490 490 494 489 489 488 485 490 491 489 494 490 499 490 498 496 493 488 487 491 495 495 490 496 505 504 501 494 480 497 494 487 491 494 489 503 491 512 501 510 492 494 506 528 502 511 537 517 509 467 476 522 488 471 493 531 487 493 0 0 0 0 0 0
0 0 0 0 0 0 0 0 0 0 0 0 0 0 0 0 0 0 0 0 0 0 0 0 0 0 0 467 466 466 471 470 475 470 471 469 470 478 476 476 476 479 475 478 479 487 486 480 485 483 479 487 480 485 487 486 484 489 484 488 485 486 488 485 483 487 491 491 491 487 488 485 486 481 478 491 477 484 482 488 478 484 466 474 486 477 482 486 491 461 481 491 497 467 472 471 468 482 487 484 489 475 475 464 492 479 446 485 457 440 476 443 479 475 445 0 0 0 0 0
0 0 0 0 0 0 0 0 0 0 0 0 0 0 0 0 0 0 0 0 0 0 0 0 0 0 0 538 465 468 468 469 477 471 470 475 476 473 476 476 479 475 480 480 483 482 486 484 485 482 489 482 490 490 482 486 488 486 486 488 487 488 488 488 490 491 490 493 492 486 487 488 485 485 485 494 488 506 498 480 505 497 498 508 512 498 492 478 510 523 500 501 493 501 512 503 494 500 522 492 501 492 509 492 487 483 483 504 511 495 484 492 488 511 485 0 0 0 0 0
0 0 0 0 0 0 0 0 0 0 0 0 0 0 0 0 0 0 0 0 0 0 0 0 0 0 0 0 497 464 466 462 467 467 474 470 473 470 471 472 474 481 478 475 482 484 480 476 478 482 481 481 483 488 483 484 484 487 489 488 489 487 487 485 486 487 488 486 491 484 487 480 473 477 488 486 476 491 487 479 480 477 481 489 493 491 490 483 478 478 490 496 496 488 478 471 475 487 491 472 472 497 471 483 415 464 447 502 469 436 417 451 438 466 440 0 0 0 0 0
0 0 0 0 0 246 232 260 318 0 0 0 0 0 0 0 0 0 0 0 0 0 0 0 0 0 0 0 0 485 456 464 468 468 464 469 472 467 470 473 478 476 480 475 475 480 478 479 480 478 480 483 484 482 480 481 489 484 483 480 484 484 489 483 484 482 482 479 478 484 472 485 476 477 493 483 483 472 484 472 473 468 475 474 489 488 482 490 487 495 472 481 480 475 471 497 476 464 469 474 473 480 491 468 459 469 476 447 466 461 452 502 494 434 429 0 0 0 0 0
0 0 0 0 248 224 229 237 234 292 395 0 0 0 0 0 0 0 0 0 0 2336 0 0 0 0 0 0 0 0 472 464 461 469 467 472 471 469 473 470 473 476 471 474 479 478 478 475 481 478 476 482 488 483 480 487 483 478 483 478 485 485 485 486 482 482 488 490 483 487 477 480 477 477 486 486 482 490 471 488 494 466 487 485 480 497 484 482 493 476 487 478 484 470 494 472 511 528 504 509 489 486 504 490 465 468 480 466 494 498 500 493 469 0 0 0 0 0 0 0
0 0 0 250 224 221 224 223 234 240 319 0 0 0 0 0 0 0 0 0 0 0 0 0 0 0 0 0 0 0 0 478 456 465 459 463 466 463 467 467 470 469 470 467 467 472 473 479 477 478 472 475 477 478 477 478 480 473 479 475 476 482 478 479 477 478 478 479 472 481 476 467 473 471 472 474 488 477 469 479 471 477 472 464 483 475 472 456 467 479 469 469 474 465 491 454 510 491 480 461 472 455 459 461 440 466 454 472 448 438 454 440 444 446 425 0 0 0 0 0
257 263 276 286 279 305 286 232 242 237 346 0 412 466 406 435 422 434 430 447 475 482 453 452 438 448 469 457 454 466 458 467 472 464 467 467 459 469 469 473 469 477 473 471 471 473 474 473 478 470 478 479 478 482 479 475 479 485 481 480 475 482 473 475 484 484 479 472 483 478 482 469 477 469 481 489 479 477 488 478 470 465 491 466 475 477 475 494 468 471 479 488 488 480 476 477 484 501 489 472 492 506 467 490 489 463 477 514 450 522 473 477 496 494 515 489 0 0 0 0
202 214 181 220 232 253 268 234 235 259 375 409 397 390 380 403 411 405 410 406 423 428 423 441 431 416 424 432 443 455 452 455 461 453 452 459 455 460 460 462 459 462 455 467 459 465 468 468 474 471 467 467 473 476 475 473 472 477 474 471 474 472 467 473 472 476 482 475 475 469 470 472 470 464 461 466 466 458 464 456 460 469 455 464 459 468 449 467 439 459 460 457 466 465 458 457 459 456 476 468 435 444 455 460 438 460 437 445 454 455 440 460 453 457 453 486 0 435 0 0
186 188 205 219 222 233 232 225 234 276 344 355 369 361 366 365 363 357 360 374 362 375 386 398 395 406 409 425 424 428 436 436 447 439 436 444 444 448 442 442 441 448 448 449 452 452 449 457 455 457 450 450 453 450 452 456 456 452 455 462 464 461 451 457 463 451 456 455 453 452 456 453 448 440 436 435 434 431 425 425 421 427 418 426 420 423 404 422 418 427 420 422 427 420 416 411 422 417 400 411 423 408 415 413 410 403 414 405 421 407 407 408 410 372 407 359 387 385 373 0
301 329 252 225 237 228 234 233 254 359 342 332 342 345 347 366 339 344 343 351 353 363 364 375 384 390 397 405 419 422 422 428 417 429 436 429 436 434 429 430 436 438 426 433 436 434 442 436 441 442 445 448 445 442 450 448 449 438 447 446 451 446 444 444 443 448 441 441 444 442 433 438 422 428 415 418 410 409 416 404 403 398 400 405 396 404 388 407 398 401 400 401 401 404 407 411 409 394 398 397 392 409 404 399 390 394 378 383 403 398 387 407 413 423 415 430 370 391 409 388
290 282 274 249 231 229 234 242 285 289 315 295 295 307 303 301 298 302 305 322 318 316 326 338 354 366 372 382 392 393 390 402 405 406 408 402 407 412 410 411 403 413 414 406 414 415 410 421 418 422 416 410 423 422 418 419 412 421 416 424 418 422 408 420 414 419 422 419 414 420 409 410 401 397 391 394 383 368 371 361 361 362 354 356 355 350 358 360 359 365 348 357 357 351 355 349 353 355 360 358 354 360 355 360 346 362 353 355 332 338 370 355 348 346 331 364 336 338 348 341
281 263 287 261 267 248 247 266 278 294 274 281 271 288 280 274 285 287 281 282 297 295 307 312 329 348 359 362 371 381 386 386 395 386 385 382 396 390 390 397 392 391 386 396 391 402 391 386 392 391 391 399 395 399 400 398 391 394 395 402 404 399 396 394 392 388 399 394 393 396 391 387 390 377 372 361 353 347 335 326 337 321 331 335 330 324 329 322 330 330 313 331 332 336 337 313 325 319 330 325 338 324 327 341 323 333 320 326 324 313 314 326 310 325 316 334 316 315 323 294
250 249 240 248 247 250 254 260 262 270 261 262 254 256 259 265 263 272 273 276 271 293 296 302 308 324 334 341 344 363 366 364 367 363 366 369 375 368 372 373 373 371 367 372 367 373 373 369 373 378 373 377 372 381 384 373 375 378 377 374 382 378 380 382 369 369 373 375 376 369 370 367 366 359 346 343 328 322 316 307 303 303 312 304 306 304 308 310 311 311 308 312 309 313 306 318 302 303 300 311 312 316 311 303 299 312 325 298 312 312 323 308 325 327 307 307 326 320 316 333
221 230 226 235 232 228 239 231 242 234 235 243 237 242 238 242 243 234 245 244 254 271 271 280 292 297 308 323 329 325 332 336 339 340 343 343 343 345 340 347 347 346 347 343 348 343 352 348 344 345 344 352 347 351 343 348 353 350 353 344 350 347 349 342 352 349 342 354 356 342 347 334 340 332 319 316 303 288 287 290 279 281 273 275 276 280 279 276 271 275 274 281 276 275 273 278 268 276 275 275 275 292 285 272 264 281 272 272 274 284 273 275 274 281 270 260 271 275 258 287
217 229 238 235 228 227 226 228 226 232 239 235 235 236 225 237 238 229 232 235 244 249 255 270 277 287 303 306 301 308 306 314 321 326 318 322 326 321 328 331 331 324 326 321 324 333 328 331 323 323 319 326 330 330 325 330 332 327 335 329 329 327 325 333 326 334 331 330 326 318 318 330 328 313 309 300 290 277 279 276 273 264 262 269 262 262 262 258 253 256 259 265 260 254 259 260 264 255 264 264 261 261 274 284 260 262 264 267 270 281 278 282 274 277 285 275 280 272 295 291
202 207 207 215 208 210 214 209 211 208 204 214 212 212 218 215 216 224 215 225 230 236 246 250 253 261 275 279 276 280 289 295 298 296 296 293 296 305 299 304 301 295 302 300 308 298 302 299 304 308 305 301 304 300 295 305 306 305 305 304 307 302 303 307 305 305 304 302 299 301 297 304 302 290 288 282 268 257 260 252 244 244 248 248 247 249 238 240 235 247 240 245 246 238 238 245 245 234 244 246 241 248 248 245 247 236 243 237 250 243 243 256 254 252 237 241 250 251 247 245
173 196 202 203 198 202 203 202 198 204 188 200 202 191 204 190 207 193 210 211 216 221 230 231 241 242 251 255 271 267 270 264 274 270 278 276 276 281 285 282 282 280 277 286 283 279 281 284 284 281 281 281 279 284 282 285 286 287 283 283 284 285 285 287 283 282 282 284 283 283 281 279 276 274 263 257 250 242 239 231 231 227 227 232 229 224 227 221 228 218 226 229 222 220 221 223 223 213 222 225 223 231 224 226 228 221 225 225 218 225 232 233 241 214 241 222 230 218 226 233
181 176 177 192 186 181 202 201 189 184 185 188 176 184 177 177 186 185 190 189 211 212 222 228 230 235 242 244 244 251 256 257 260 261 261 263 264 264 266 264 265 262 265 266 268 263 265 264 264 267 263 269 268 264 267 272 265 266 266 276 265 266 262 271 263 267 270 270 267 267 264 261 257 257 249 246 244 235 224 220 218 203 219 220 220 219 219 212 220 223 218 216 225 217 220 215 212 212 210 214 220 219 215 209 211 214 219 214 224 226 227 223 236 236 216 228 224 220 233 248
174 175 163 174 180 178 178 174 176 180 178 178 181 181 184 184 184 187 179 185 182 184 206 209 215 218 216 217 229 233 235 242 239 237 237 240 240 245 246 247 239 242 247 247 254 253 245 246 243 253 246 249 245 248 245 244 249 251 253 251 253 249 245 246 245 249 252 248 246 247 245 244 237 241 233 229 221 219 199 200 193 195 186 197 190 191 187 197 193 186 191 189 187 182 185 188 184 187 185 191 184 185 187 193 190 192 177 202 201 200 204 201 205 211 184 179 180 204 212 202
167 168 174 178 173 174 169 169 176 176 179 176 174 179 178 178 176 180 181 180 187 186 184 190 205 194 210 218 218 220 227 227 223 226 228 226 227 233 231 229 228 231 238 231 237 236 225 226 232 234 235 234 234 235 233 235 237 239 239 236 230 240 236 237 234 232 232 228 228 230 233 233 230 224 215 213 213 194 189 197 185 194 194 189 193 192 187 192 191 191 192 192 192 182 188 183 180 183 189 180 174 177 178 182 191 189 179 177 178 179 186 187 180 182 197 198 185 193 196 200
163 165 173 171 172 168 170 172 169 166 170 166 172 169 171 171 169 174 179 183 178 187 188 190 185 185 187 193 193 209 211 213 208 213 216 213 214 201 214 213 217 222 220 217 219 225 221 220 221 222 221 222 218 223 225 222 223 219 220 225 218 223 221 217 221 218 218 219 218 220 223 214 219 212 196 192 190 186 190 186 186 183 192 183 185 183 184 186 185 185 185 181 183 182 184 183 184 180 185 181 184 187 183 184 183 179 175 179 180 178 178 181 175 178 201 173 183 192 192 231
148 152 156 155 159 163 158 165 163 162 157 162 161 158 163 161 162 167 165 174 168 174 180 185 184 184 184 192 191 185 182 186 185 183 193 189 187 188 196 190 192 193 189 191 198 196 196 192 193 193 195 193 193 197 198 192 191 189 193 191 199 199 197 191 194 200 193 193 193 192 196 197 194 190 190 197 194 189 182 179 175 174 176 174 172 170 179 176 177 178 173 177 173 170 175 170 169 168 167 172 166 171 169 168 168 172 171 167 170 170 174 171 165 168 176 177 175 168 167 160
145 151 154 153 157 154 155 157 159 158 161 157 155 156 158 155 158 161 157 166 167 169 179 175 177 184 178 186 180 188 191 186 188 190 190 188 188 193 190 190 193 195 192 187 191 198 198 195 197 193 191 199 196 197 189 194 197 198 195 197 194 197 198 199 193 192 197 196 186 196 197 193 192 193 188 186 185 184 176 173 174 167 171 165 168 168 171 167 167 168 172 165 169 170 170 165 166 165 169 169 168 168 169 164 164 163 157 164 164 167 165 165 180 173 179 165 164 175 174 161
144 141 147 143 149 151 150 150 146 152 151 151 149 155 150 149 151 151 156 160 160 162 164 171 173 173 172 175 175 179 175 177 181 182 177 181 183 178 182 182 184 183 185 184 180 186 186 185 185 186 182 189 187 187 188 187 187 188 186 185 189 184 186 186 191 186 192 187 183 185 185 183 182 180 177 176 173 169 171 163 161 159 163 160 158 161 163 161 163 161 159 160 160 164 163 163 160 157 166 165 159 159 161 157 154 158 157 161 156 157 155 165 162 163 157 168 152 161 165 169
136 137 139 141 140 147 148 144 143 140 146 145 141 147 141 142 141 148 146 148 154 158 161 163 164 167 169 170 171 171 169 169 176 174 168 172 176 172 174 174 177 181 176 176 174 178 172 179 175 179 179 180 178 179 181 180 183 0 0 181 178 181 181 179 180 179 178 179 178 173 176 177 175 172 172 170 168 168 163 158 158 155 153 154 156 156 158 153 154 155 148 155 155 152 153 150 151 152 152 153 152 151 150 153 152 147 141 149 162 151 149 150 147 153 157 154 153 151 153 151
140 138 131 140 141 147 149 142 143 140 138 142 143 147 143 145 139 151 143 148 151 152 156 160 163 161 165 160 167 166 166 167 169 166 166 166 164 174 167 171 171 0 171 168 171 171 170 170 171 172 173 170 173 175 175 0 177 175 0 175 174 0 174 174 173 171 173 169 173 171 169 168 168 167 164 165 163 157 158 155 150 159 154 153 154 150 151 147 149 156 146 152 151 149 149 146 152 146 157 147 149 147 152 149 153 149 138 145 151 151 153 149 150 160 154 157 152 155 164 164
128 121 126 113 131 133 142 136 133 120 134 132 125 125 139 136 135 136 136 138 140 145 150 153 149 154 156 154 159 161 159 157 159 162 159 154 164 161 0 0 0 0 0 0 0 0 0 165 166 166 166 162 166 164 0 0 0 168 169 163 0 0 0 0 163 0 168 0 159 161 163 162 162 157 153 156 153 155 147 151 150 145 145 145 141 149 143 144 143 145 144 143 142 145 138 140 141 145 140 142 140 137 142 138 137 124 141 136 139 137 140 145 146 139 149 139 144 139 140 122
116 126 127 116 126 136 135 130 136 130 132 133 126 126 124 126 120 138 136 136 140 141 149 144 147 148 152 153 152 153 154 153 157 158 152 153 155 0 0 0 0 0 0 0 0 0 0 0 0 161 162 162 0 0 0 0 0 0 0 0 0 0 0 0 160 0 0 0 0 0 0 154 159 154 153 152 149 150 149 146 140 138 141 144 139 142 143 139 146 140 136 138 138 142 138 136 143 140 137 137 138 136 139 136 129 136 133 135 138 148 139 144 145 140 135 144 143 131 135 151
112 109 115 122 125 128 126 131 128 129 132 122 120 119 121 131 132 124 132 134 135 128 133 141 141 139 144 143 144 148 151 147 151 149 149 149 0 0 0 0 0 0 0 0 0 0 0 0 149 149 156 0 0 0 0 0 0 0 0 0 0 0 0 0 0 0 0 0 0 0 0 0 149 150 149 149 148 145 142 148 129 141 137 139 127 125 136 140 136 137 140 130 133 128 118 129 132 138 135 138 135 139 136 130 126 134 133 133 132 141 138 144 137 142 145 136 139 134 123 130
101 108 111 111 110 109 118 115 114 117 121 111 117 113 122 123 122 129 116 113 129 121 126 122 135 137 140 140 142 141 141 143 145 144 144 141 0 0 0 0 0 0 0 0 0 0 0 0 0 0 0 0 0 0 0 0 0 0 0 0 0 0 0 0 0 0 0 0 0 0 0 0 143 138 138 138 139 130 129 130 124 121 123 121 124 117 122 124 124 124 126 119 115 128 127 125 125 125 121 119 120 129 131 118 119 121 127 117 120 130 132 131 116 116 115 126 113 99 109 131
110 110 116 113 115 111 115 125 120 121 113 119 118 119 121 122 119 127 125 114 114 116 123 120 131 135 135 137 0 139 0 0 0 140 140 0 0 0 0 0 0 0 0 0 0 0 0 0 0 0 0 0 0 0 0 0 0 0 0 0 0 0 0 0 0 0 0 0 0 0 0 0 0 144 126 125 125 126 120 123 119 116 123 125 117 118 118 116 119 124 121 123 115 115 115 121 119 116 124 122 120 124 129 125 117 119 117 120 112 136 130 126 120 119 132 116 132 132 142 157
102 101 108 113 106 99 107 105 102 105 108 104 106 106 101 110 108 113 119 110 114 119 111 117 119 119 122 121 119 126 128 0 0 0 126 0 0 0 0 0 0 0 0 0 0 0 0 0 0 0 0 0 0 0 0 0 0 0 0 0 0 0 0 0 0 0 0 0 0 0 0 0 130 0 0 124 122 119 122 116 114 118 109 116 113 117 114 113 112 113 114 117 113 111 110 105 111 111 112 112 117 107 110 112 112 116 109 123 122 104 109 114 108 126 118 95 107 115 117 132
97 98 90 98 102 102 104 98 102 105 103 102 106 103 108 102 104 111 115 105 110 108 107 107 115 112 118 117 119 121 125 124 0 0 0 0 0 0 0 0 0 0 0 0 0 0 0 0 0 0 0 0 0 0 0 0 0 0 0 0 0 0 0 0 0 0 0 0 0 0 0 0 0 123 0 115 119 115 114 110 111 112 106 104 111 105 108 115 106 111 114 113 111 110 105 112 103 108 96 117 108 106 109 102 104 114 107 108 115 116 104 104 112 99 94 121 109 109 105 117
96 105 98 102 97 100 103 94 94 102 99 96 105 95 96 96 106 103 113 115 111 106 98 109 112 108 112 117 115 119 120 118 124 0 0 0 0 0 0 0 0 0 0 0 0 0 0 0 0 0 0 0 0 0 0 0 0 0 0 0 0 0 0 0 0 0 0 0 0 0 0 0 122 121 110 122 114 117 119 118 105 113 100 121 111 106 103 104 104 105 105 105 113 96 101 106 110 99 113 107 108 110 109 104 111 107 111 96 111 105 98 100 108 106 121 105 137 126 109 132
88 85 81 86 78 84 81 92 88 82 90 92 99 93 88 89 76 93 91 87 91 86 101 105 99 100 113 109 0 0 106 106 118 0 0 0 0 0 112 0 0 0 0 0 0 0 0 0 0 0 0 0 0 0 0 0 0 0 0 0 0 0 0 0 0 0 0 0 0 0 0 116 112 108 106 114 107 108 102 96 101 103 97 88 98 94 88 99 103 97 90 95 100 85 87 97 95 102 88 96 90 97 90 88 82 90 94 100 93 84 88 87 78 92 88 105 86 80 89 106
95 87 91 88 97 96 97 108 89 97 95 92 95 90 97 98 95 91 104 91 96 106 107 103 106 106 109 108 0 104 114 111 115 114 119 109 0 0 113 0 0 117 0 0 0 0 0 0 0 0 0 0 0 0 0 0 0 0 0 0 116 0 0 0 113 0 0 0 111 0 109 109 117 111 112 108 108 111 103 99 111 103 106 88 99 98 103 104 100 101 107 105 108 100 98 103 97 92 100 112 106 99 96 101 98 104 95 88 88 84 92 89 87 100 92 96 101 134 126 130
86 90 90 92 94 95 91 92 82 96 82 87 88 92 89 86 94 97 99 94 98 89 100 111 87 103 107 101 105 107 90 103 107 102 98 104 0 114 115 0 104 0 0 0 0 0 0 0 0 0 0 0 0 0 110 0 0 109 0 0 108 108 105 109 112 111 106 100 111 106 108 101 101 100 109 109 99 94 103 96 95 95 100 86 94 94 94 102 108 95 99 104 111 88 84 86 88 89 94 82 92 83 90 100 93 86 100 95 96 86 97 88 88 101 100 103 132 104 128 138
85 84 83 84 87 89 103 87 89 80 87 84 85 90 92 88 90 88 92 88 77 93 95 86 87 91 93 91 105 92 96 99 97 94 95 109 98 101 104 101 104 99 100 106 106 91 0 0 96 99 0 107 104 93 99 108 105 102 109 102 99 106 110 101 100 110 102 95 100 106 101 104 107 99 104 91 96 95 97 89 96 89 90 93 95 93 89 89 96 95 101 95 94 93 94 90 86 92 90 84 86 90 93 89 83 90 94 88 81 88 81 92 90 93 82 90 104 90 107 97
85 80 83 83 85 82 96 99 88 84 87 81 83 89 81 88 90 94 92 100 86 101 92 93 91 97 95 92 97 99 95 86 98 94 95 100 99 100 93 105 102 98 97 105 101 94 105 0 104 102 97 107 97 98 106 100 102 103 98 107 107 97 95 101 101 99 96 104 99 107 99 105 100 97 104 87 94 98 98 97 98 97 84 91 95 98 89 85 94 86 88 98 88 92 94 94 92 100 98 86 81 97 83 87 90 103 88 101 92 90 86 96 115 106 115 135 130 154 127 148
80 75 68 69 79 85 88 88 88 82 87 79 84 78 87 83 86 85 85 85 84 87 90 92 86 85 93 92 87 95 91 91 79 91 92 96 97 83 91 96 90 90 86 88 96 92 91 99 94 91 91 98 85 90 89 83 104 87 96 97 97 80 81 97 97 96 88 94 97 96 92 84 95 93 97 94 92 95 92 94 86 93 82 90 86 91 87 88 84 87 94 77 91 81 85 86 83 78 77 90 82 86 85 71 83 82 82 80 82 79 79 83 79 81 123 93 104 80 120 63
73 74 81 86 72 84 83 87 84 80 83 90 83 81 84 89 86 88 84 87 82 93 82 92 85 84 92 87 94 93 86 94 89 94 88 93 96 94 88 95 95 96 95 89 88 96 91 86 99 88 95 96 96 85 103 97 89 84 89 98 99 86 91 94 89 95 96 89 104 94 96 96 86 97 91 97 97 96 94 93 93 90 88 88 80 84 88 79 89 90 78 91 77 80 92 80 87 83 80 83 82 80 79 81 77 83 86 86 81 84 89 106 79 110 111 86 104 77 68 159
