0 0 0 0 0 0 0 0 0 0 0 0 0 0 0 0 0 0 0 0 0 0 0 0 0 0 0 0 0 0 0 0 0 0 0 0 0 0 0 0 0 0 0 0 0 0 0 0 0 0 0 0 0 0 0 0 0 0 0 0 0 0 0 0 0 0 0 0 0 0 0 0 0 0 0 0 0 0 0 0 0 0 0 0 0 0 0 0 0 0 0 0 0 0 0 0 0 0 0 0 0 0 0 0 0 0 0 0 0 0 0 0 0 0 0 0 0 0 0 0
0 0 0 0 0 0 0 0 0 0 0 0 0 0 0 0 0 0 0 0 0 0 0 0 0 0 0 0 0 0 0 0 0 0 0 0 0 0 0 0 0 0 0 0 0 0 0 0 0 0 0 0 0 0 0 0 0 0 0 0 0 0 0 0 0 0 0 0 0 0 0 0 0 0 0 0 0 0 0 0 0 0 0 0 0 0 0 0 0 0 0 0 0 0 0 0 0 0 0 0 0 0 0 0 0 0 0 0 0 0 0 0 0 0 0 0 0 0 0 0
0 0 0 0 0 0 0 0 0 0 0 0 0 0 0 0 0 0 0 0 0 0 0 0 0 0 0 0 0 0 0 0 0 0 0 0 0 0 0 0 0 0 0 0 0 0 0 0 0 0 0 0 0 0 0 0 0 0 0 0 0 0 0 0 0 0 0 0 0 0 0 0 0 0 0 0 0 0 0 0 0 0 0 0 0 0 0 0 0 0 0 0 0 0 0 0 0 0 0 0 0 0 0 0 0 0 0 0 0 0 0 0 0 0 0 0 0 0 0 0
0 0 0 0 0 0 0 0 0 0 0 0 0 0 0 0 0 0 0 0 0 0 0 0 0 0 0 0 0 0 0 0 0 0 0 0 0 0 0 0 0 0 0 0 0 0 0 0 0 0 0 0 0 0 0 0 0 0 0 0 0 0 0 0 0 0 0 0 0 0 0 0 0 0 0 0 0 0 0 0 0 0 0 0 0 0 0 0 0 0 0 0 0 0 0 0 0 0 0 0 0 0 0 0 0 0 0 0 0 0 0 0 0 0 0 0 0 0 0 0
0 0 0 0 0 0 0 0 0 0 0 0 0 0 0 0 0 0 0 0 0 0 0 0 0 0 0 0 0 0 0 0 0 0 0 0 0 0 0 0 0 0 0 0 0 0 0 0 0 0 0 0 0 0 0 0 0 0 0 0 0 0 0 0 0 0 0 0 0 0 0 0 0 0 0 0 0 0 0 0 0 0 0 0 0 0 0 0 0 0 0 0 0 0 0 0 0 0 0 0 0 0 0 0 0 0 0 0 0 0 0 0 0 0 0 0 0 0 0 0
0 0 0 0 0 0 0 0 0 0 0 0 0 0 0 0 0 0 0 0 0 0 0 0 0 0 0 0 0 0 0 0 0 0 0 0 0 0 0 533 507 514 498 489 527 515 519 526 496 522 479 503 520 536 508 0 0 0 0 0 0 0 0 0 0 0 0 0 0 0 0 0 0 0 0 0 0 0 0 0 0 0 0 0 0 0 0 0 0 0 0 0 0 0 0 0 0 0 0 0 0 0 0 0 0 0 0 0 0 0 0 0 0 0 0 0 0 0 0 0
0 0 0 0 0 0 0 0 0 0 0 0 0 0 0 0 0 0 0 0 0 0 0 0 0 0 0 0 0 0 0 0 0 0 0 0 0 521 528 541 505 524 514 510 527 514 523 533 509 520 524 517 521 535 526 522 527 541 571 542 0 0 0 0 0 0 0 0 0 0 0 0 0 0 0 0 0 0 0 0 0 0 0 0 0 0 0 0 0 0 0 0 0 0 0 0 0 0 0 0 0 0 0 0 0 0 0 0 0 0 0 0 0 0 0 0 0 0 0 0
0 0 0 0 0 0 0 0 0 0 0 0 0 0 0 0 0 0 0 0 0 0 0 0 0 0 0 0 0 0 0 0 0 0 0 492 502 503 499 500 492 505 493 515 492 510 498 509 505 489 507 517 511 502 511 508 511 489 511 501 496 514 513 510 487 0 0 0 0 0 0 0 0 0 0 0 0 0 0 0 0 0 0 0 0 0 0 0 0 0 0 0 0 0 0 0 0 0 0 0 0 0 0 0 0 0 0 0 0 0 0 0 0 0 0 0 0 0 0 0
0 0 0 0 0 0 0 0 0 0 0 0 0 0 0 0 0 0 0 0 0 0 0 0 0 0 0 0 0 0 0 0 0 497 497 491 511 498 491 501 506 489 499 504 498 501 495 503 513 504 503 490 508 502 507 496 508 495 502 508 499 515 500 497 513 531 509 510 479 593 520 531 506 560 530 597 538 538 579 527 0 0 0 0 0 0 0 0 0 0 0 0 0 0 0 0 0 0 0 0 0 0 0 0 0 0 0 0 0 0 0 0 0 0 0 0 0 0 0 0
0 0 0 0 0 0 0 0 0 0 0 0 0 0 0 0 0 0 0 0 0 0 0 0 0 0 0 0 0 0 0 532 520 507 491 500 502 498 514 493 509 500 493 498 506 500 497 497 511 507 502 500 511 499 501 501 502 507 506 509 512 504 506 502 509 516 520 523 552 576 603 543 570 599 594 624 564 591 594 574 541 566 557 555 554 575 0 641 561 606 540 592 591 563 598 581 611 573 612 607 537 555 576 584 0 0 0 0 0 0 0 0 0 0 0 0 0 0 0 0
0 0 0 0 0 0 0 0 0 0 0 0 0 0 0 0 0 0 0 0 0 0 0 0 0 0 0 0 0 0 473 486 507 487 482 497 502 499 503 501 500 489 504 493 501 507 496 495 498 512 494 501 503 502 501 513 512 502 501 509 503 496 515 509 506 499 513 511 515 504 490 519 506 524 520 529 512 537 504 565 536 529 523 574 505 527 547 513 494 529 548 495 507 487 555 495 522 565 504 542 501 490 475 499 505 484 509 0 0 0 0 0 0 0 0 0 0 0 0 0
0 0 0 0 0 0 0 0 0 0 0 0 0 0 0 0 0 0 0 0 0 0 0 0 0 0 0 0 489 502 524 509 502 495 512 494 494 500 507 506 507 501 500 495 514 498 509 505 504 507 496 508 506 500 502 510 511 503 499 510 498 503 505 513 510 512 508 509 507 505 516 553 583 564 569 578 552 552 570 573 563 514 547 579 557 581 578 582 508 568 576 571 577 593 546 566 549 590 576 560 584 569 576 554 542 528 567 567 549 0 0 0 0 0 0 0 0 0 0 0
0 0 0 0 0 0 0 0 0 0 0 0 0 0 0 0 0 0 0 0 0 0 0 0 0 0 0 513 510 502 506 500 504 511 504 506 503 499 504 505 505 505 502 512 506 509 505 506 512 514 508 507 510 513 509 511 501 512 515 506 521 510 511 513 512 517 516 524 515 521 512 526 567 603 566 598 590 607 592 590 595 574 593 592 587 608 630 546 631 575 619 594 617 590 573 615 609 623 605 620 627 654 639 574 619 572 603 638 0 0 0 0 0 0 0 0 0 0 0 0
0 0 0 0 0 0 0 0 0 0 0 0 0 0 0 0 0 0 0 0 0 0 0 0 0 0 500 501 487 488 507 502 492 492 492 487 497 498 503 499 501 501 504 496 499 497 505 496 505 499 507 503 508 506 499 501 500 508 506 509 505 504 499 512 517 509 506 494 508 507 518 501 536 516 514 534 543 566 539 553 566 567 554 543 548 524 500 522 529 542 537 562 554 522 543 571 586 603 532 531 562 573 497 566 519 538 537 523 528 0 0 0 0 0 0 0 0 0 0 0
0 0 0 0 0 0 0 0 0 0 0 0 0 0 0 0 0 0 0 0 0 0 0 0 0 520 501 495 508 511 507 507 498 501 496 499 515 502 504 504 502 507 514 511 502 499 507 511 511 509 511 509 505 505 507 514 505 511 509 509 509 508 511 522 516 507 510 509 522 515 512 515 520 558 592 612 560 565 594 604 594 586 585 580 603 578 597 545 570 568 604 560 581 575 592 587 581 616 573 581 576 610 589 612 622 595 606 565 599 596 586 0 0 0 0 0 0 0 0 0
0 0 0 0 0 0 0 0 0 0 0 0 0 0 0 0 0 0 0 0 0 0 0 0 0 501 481 491 499 488 496 496 499 501 492 497 496 498 497 498 499 497 502 498 507 498 506 497 501 497 492 507 501 508 496 503 505 505 500 508 504 503 518 510 499 505 511 503 498 509 507 504 497 514 543 514 538 519 521 539 524 538 530 541 536 521 553 579 531 528 548 546 559 530 533 527 551 548 520 557 544 528 530 498 553 532 550 511 535 539 538 0 497 511 0 0 0 0 0 0
0 0 0 0 0 0 0 0 0 0 0 0 0 0 0 0 0 0 0 0 0 0 0 0 469 488 491 492 497 488 501 493 494 503 494 496 501 487 491 495 503 503 494 500 499 496 504 496 498 499 504 502 505 500 504 507 496 495 495 503 503 497 511 503 501 504 513 508 512 503 506 508 506 502 532 519 495 549 475 520 502 535 521 495 514 487 486 521 510 544 513 520 516 516 512 495 528 515 529 510 511 512 502 507 528 526 525 526 524 536 472 506 0 0 0 0 0 0 0 0
0 0 0 0 0 0 0 0 0 0 0 0 0 0 0 0 0 0 0 0 0 0 0 0 482 495 496 497 496 499 495 496 492 488 493 495 500 495 489 500 500 488 510 495 495 510 511 496 500 501 510 501 492 501 507 506 507 506 509 503 505 506 508 508 508 507 509 508 501 506 504 508 506 512 502 540 526 546 552 559 504 537 546 554 549 534 550 592 536 524 541 566 524 560 571 560 518 545 533 550 549 547 561 535 519 551 526 581 553 571 0 0 0 0 0 0 0 0 0 0
0 0 0 0 0 0 0 0 0 0 0 0 0 0 0 0 0 0 0 0 0 0 0 451 501 492 493 492 489 481 491 495 490 498 494 495 497 494 495 487 500 488 495 495 497 505 494 499 495 504 496 493 499 499 500 501 504 503 499 503 513 499 507 503 498 496 511 503 511 505 499 499 505 494 503 516 503 503 500 550 506 471 519 514 488 535 472 541 504 488 530 540 509 518 518 498 528 483 491 500 518 502 525 496 522 501 542 467 469 0 458 0 0 0 0 0 0 0 0 0
0 0 0 0 0 0 0 0 0 0 0 0 0 0 0 0 0 0 0 0 0 0 0 487 489 493 494 491 490 498 499 495 503 491 490 498 483 489 488 499 493 501 504 502 505 506 498 495 495 503 504 501 501 500 501 507 506 513 500 498 508 507 507 501 504 501 507 512 503 513 510 514 515 508 506 506 507 536 512 522 527 534 536 558 525 520 519 517 533 549 556 542 524 532 534 550 518 555 551 493 531 567 520 586 536 555 564 501 557 526 578 0 0 0 0 0 0 0 0 0
0 0 0 0 0 0 0 0 0 0 0 0 0 0 0 0 0 0 0 0 0 0 517 492 495 496 492 502 489 494 501 500 496 497 486 494 493 496 489 489 502 499 505 501 495 496 515 506 502 501 500 494 503 505 515 502 497 502 502 504 510 509 508 507 507 516 508 508 507 513 500 507 516 507 514 502 528 543 554 544 535 525 581 550 542 541 530 543 519 567 553 566 560 581 569 551 544 555 560 566 548 561 543 554 538 577 579 556 546 501 548 0 0 0 0 0 0 0 0 0
0 0 0 0 0 0 0 0 0 0 0 0 0 0 0 0 0 0 0 0 0 0 478 487 485 487 485 498 496 501 488 490 492 494 500 495 488 493 494 500 492 494 490 504 500 493 499 500 506 499 495 507 500 507 499 503 502 509 501 503 501 510 503 508 511 510 509 510 511 502 500 503 514 510 514 503 519 516 517 526 531 525 525 497 503 508 520 516 529 500 521 497 506 505 528 491 550 507 520 488 558 508 556 548 504 536 529 526 575 508 499 0 0 0 0 0 0 0 0 0
0 0 0 0 0 0 0 0 0 0 0 0 0 0 0 0 0 0 0 0 0 0 514 489 495 495 494 502 484 483 492 492 499 487 492 481 489 501 486 494 495 499 492 495 504 503 502 503 500 505 497 498 506 499 500 499 498 506 507 499 514 510 505 503 504 509 507 503 516 503 511 507 508 509 505 503 518 534 533 540 569 536 519 561 589 555 556 554 524 583 561 549 561 554 547 553 541 564 533 554 553 565 541 604 555 560 580 633 546 554 586 530 603 537 0 0 0 0 0 0
0 0 0 0 0 0 0 0 0 0 0 0 0 0 0 0 0 0 0 0 0 0 495 484 495 498 489 499 486 496 489 491 484 494 493 493 487 491 493 495 499 497 497 493 496 501 497 502 497 498 498 500 493 508 499 501 500 498 499 506 507 500 504 502 500 504 503 509 503 506 516 503 500 506 500 513 506 515 525 519 522 500 526 539 506 513 537 538 512 507 516 516 535 509 559 531 522 543 541 519 542 507 555 497 523 519 508 542 529 527 524 546 499 0 0 0 0 0 0 0
0 0 0 0 0 0 0 0 0 0 0 0 0 0 0 0 0 0 0 0 0 0 486 477 476 490 487 490 483 501 497 482 493 485 487 484 484 489 491 487 491 490 501 496 490 495 498 501 495 494 492 503 497 495 505 495 501 505 504 498 500 502 499 505 501 498 502 496 498 505 506 505 503 503 503 504 505 492 513 512 535 498 537 492 551 496 505 488 478 513 486 513 480 513 503 526 505 504 497 536 510 491 514 500 515 494 496 503 464 441 455 452 453 0 0 0 0 0 0 0
0 0 0 0 0 0 0 0 0 0 0 0 0 0 0 0 0 0 0 0 0 0 470 473 488 493 482 482 485 490 496 491 490 495 486 488 493 492 492 493 494 489 494 495 493 491 494 493 496 495 496 493 496 502 497 499 504 502 501 498 501 504 498 506 503 500 496 501 495 499 495 505 500 505 506 502 514 513 528 518 535 523 526 531 517 531 499 544 503 514 510 521 522 523 508 550 519 528 513 510 527 514 533 539 512 493 533 509 547 568 505 518 557 0 0 0 0 0 0 0
0 0 0 0 0 0 0 0 0 0 0 0 0 0 0 0 0 0 0 0 0 450 474 481 486 485 487 484 494 480 482 492 484 489 492 484 491 491 491 493 488 498 494 488 492 492 495 501 494 495 494 498 495 498 502 497 497 502 499 495 501 496 503 510 507 495 504 501 503 498 503 501 501 506 495 496 504 497 497 479 519 487 526 512 510 473 509 468 471 499 480 473 490 491 471 489 471 504 462 494 496 506 486 490 500 503 473 518 456 453 485 0 0 0 0 0 0 0 0 0
0 0 0 0 0 0 0 0 0 0 0 0 0 0 0 0 0 0 0 0 0 483 481 483 497 483 484 492 480 484 478 488 495 492 497 495 486 490 488 491 500 493 490 490 496 497 495 489 499 497 500 502 501 501 492 501 498 497 505 506 503 498 504 494 502 502 505 501 501 499 504 503 498 504 503 507 516 509 509 511 527 514 521 542 534 547 520 525 510 502 515 524 525 506 504 485 505 496 501 497 517 531 523 532 496 539 553 529 517 508 517 519 486 0 0 0 0 0 0 0
0 0 0 0 0 0 0 0 0 0 0 0 0 0 0 0 0 0 0 0 0 489 493 481 490 476 485 484 488 482 490 485 486 487 489 497 488 494 497 493 490 492 491 495 492 491 502 496 501 497 493 499 498 494 497 507 496 502 508 503 505 496 500 509 502 503 509 508 512 504 500 506 505 510 507 498 508 510 514 516 531 547 520 536 514 517 539 527 524 548 546 524 539 564 565 539 529 546 544 544 507 539 521 529 543 498 556 537 551 533 566 0 540 0 0 0 0 0 0 0
0 0 0 0 0 0 0 0 0 0 0 0 0 0 0 0 0 0 0 0 0 440 483 476 487 482 491 481 483 489 482 484 486 484 481 487 492 483 487 487 489 488 492 497 494 492 490 498 496 498 493 496 499 495 502 500 501 498 500 500 500 504 500 501 504 500 502 507 496 502 499 499 511 505 506 507 508 500 496 522 504 521 501 498 501 485 498 496 525 500 518 508 479 517 474 499 495 508 473 484 488 514 520 507 512 520 512 514 486 490 481 466 501 501 0 0 0 0 0 0
0 0 0 0 0 0 0 0 0 0 0 0 0 0 0 0 0 0 0 0 0 504 484 486 491 485 487 484 494 476 489 490 486 486 489 485 493 492 488 492 490 495 493 497 493 489 490 502 494 492 497 504 499 494 503 500 496 499 495 496 506 501 501 500 504 507 503 502 506 500 506 508 508 507 508 498 502 513 515 522 537 539 523 536 536 532 544 526 547 523 520 533 518 518 514 539 541 527 494 545 526 551 533 549 586 549 532 541 533 515 550 514 526 0 0 0 0 0 0 0
0 0 0 0 0 0 0 0 0 0 0 0 0 0 0 0 0 0 0 0 0 448 475 474 478 480 478 481 473 481 489 488 487 489 490 485 484 488 486 486 488 490 493 488 493 493 494 491 495 493 495 495 495 496 496 497 493 497 500 499 492 501 498 503 504 502 497 500 500 500 502 505 502 503 499 497 502 492 514 499 511 505 497 494 510 499 515 489 503 493 522 514 515 469 519 519 466 523 507 521 518 511 498 480 497 496 514 481 497 488 505 460 501 0 0 0 0 0 0 0
0 0 0 0 0 0 0 0 0 0 0 0 0 0 0 0 0 0 0 0 0 447 479 475 481 477 473 480 481 484 488 479 482 485 486 484 482 485 485 484 490 489 487 490 493 489 492 490 492 495 497 496 495 497 495 493 493 494 502 499 498 497 498 495 506 496 497 496 499 499 502 500 500 499 494 494 499 502 504 485 509 497 490 491 483 494 486 508 502 476 513 481 481 494 481 478 467 457 507 525 488 484 485 506 490 480 504 501 494 489 480 469 474 442 0 0 0 0 0 0
0 0 0 0 0 0 0 0 0 0 0 0 0 0 0 0 0 0 0 0 0 507 480 475 477 477 483 474 480 477 480 481 485 485 491 485 486 484 486 493 483 487 488 496 488 489 490 489 492 490 495 495 493 494 498 493 496 497 501 496 498 502 500 501 502 495 506 501 496 502 498 498 496 501 499 502 497 506 516 483 514 501 515 497 513 510 507 516 513 515 514 486 512 524 503 518 499 522 499 503 511 546 535 527 527 518 505 516 537 509 518 533 499 0 0 0 0 0 0 0
0 0 0 0 0 0 0 0 0 0 0 0 0 0 0 0 0 0 0 0 0 434 475 472 466 478 472 475 480 482 478 481 483 488 479 479 487 485 487 488 489 486 484 486 488 493 489 488 492 493 492 497 491 495 497 500 492 494 491 497 498 497 503 497 498 498 500 504 495 495 499 499 494 499 493 500 497 495 491 509 507 479 479 491 487 485 472 491 487 499 484 481 502 466 477 474 472 476 481 490 499 499 461 495 535 456 455 478 494 477 487 453 502 440 0 0 0 0 0 0
0 0 0 0 0 0 0 0 0 0 0 0 0 0 0 0 0 0 0 0 0 457 472 468 471 479 480 477 479 480 483 481 482 477 477 484 491 484 481 486 486 485 488 491 492 489 489 490 490 495 495 495 494 495 499 493 490 496 496 491 497 500 494 503 496 499 505 504 501 499 501 498 501 498 494 497 499 498 509 502 519 517 501 483 510 491 510 499 510 505 495 508 481 501 501 491 484 501 496 532 483 505 512 494 485 478 505 485 497 559 495 517 496 511 0 0 0 0 0 0
0 0 0 0 0 0 0 0 0 0 0 0 0 0 0 0 0 0 0 0 0 487 478 475 487 476 489 477 480 482 476 480 481 488 485 488 486 484 481 485 481 488 489 493 494 490 491 494 491 495 493 494 496 499 498 496 499 497 496 497 496 499 496 499 503 500 506 503 503 501 501 499 501 498 499 497 497 500 502 514 521 512 493 521 497 494 525 512 511 498 506 514 494 499 536 517 517 510 514 532 517 518 510 528 542 520 505 521 560 561 582 581 563 523 0 0 0 0 0 0
0 0 0 0 0 0 0 0 0 0 0 0 0 0 0 0 0 0 0 0 0 0 474 478 473 481 468 480 481 477 478 480 483 483 485 476 482 484 485 485 486 486 487 487 485 491 494 490 495 491 494 497 491 494 498 493 490 493 491 489 503 497 492 503 498 498 501 499 501 499 501 504 495 495 496 497 493 503 491 489 499 493 484 512 501 485 502 509 480 536 504 505 503 523 490 518 511 513 523 500 483 517 470 510 486 484 467 518 484 506 468 516 458 477 0 0 0 0 0 0
0 0 0 0 0 0 0 0 0 0 0 0 0 0 0 0 0 0 0 0 0 0 492 475 474 485 477 482 481 483 480 478 478 489 477 485 486 491 487 483 490 487 487 486 485 492 487 489 490 491 495 491 496 498 492 492 495 491 493 497 494 497 495 499 499 497 499 494 496 503 502 496 500 495 503 493 502 514 534 524 495 536 532 517 515 500 524 519 522 519 550 538 528 508 531 546 512 502 516 524 506 521 533 530 526 533 483 510 554 494 515 520 563 509 479 0 0 0 0 0
0 0 0 0 0 0 0 0 0 0 0 0 0 0 0 0 0 0 0 0 0 0 522 475 474 479 480 475 482 476 470 479 478 483 478 482 480 479 480 490 485 482 486 487 488 485 490 486 496 496 491 497 494 492 492 499 495 492 495 497 498 493 498 497 499 498 494 500 495 499 497 494 493 499 496 494 496 501 500 508 497 513 514 523 528 497 528 496 523 514 523 519 503 506 502 507 498 499 512 521 502 498 503 470 477 494 481 485 523 487 482 505 470 481 507 505 0 0 0 0
0 0 0 0 0 0 0 0 0 0 0 0 0 0 0 0 0 0 0 0 0 0 546 468 470 475 469 474 475 479 476 475 481 479 483 487 487 481 486 481 492 486 486 488 490 487 490 488 487 487 493 490 491 494 496 498 490 491 495 493 493 499 497 502 497 494 497 501 502 492 494 493 490 496 495 493 493 493 497 503 505 493 491 501 502 507 492 495 515 482 514 517 517 508 522 511 482 506 519 487 477 498 467 490 480 480 461 477 466 460 498 497 450 471 431 496 0 0 0 0
0 0 0 0 0 0 0 0 0 0 0 0 0 0 0 0 0 0 0 0 0 0 0 475 469 475 474 480 477 475 480 484 478 490 479 481 483 482 482 482 486 486 485 490 489 488 490 488 494 489 493 492 496 493 488 492 491 495 495 499 496 493 491 492 493 491 493 498 498 499 500 496 501 492 495 497 493 502 499 500 491 504 492 496 508 518 500 505 493 533 485 516 498 503 513 506 537 512 503 505 509 504 496 475 504 529 502 494 508 521 538 472 535 0 0 0 0 0 0 0
0 0 0 0 0 0 0 0 0 0 0 0 0 0 0 0 0 0 0 0 0 0 0 481 470 466 473 471 474 474 476 474 477 478 475 483 483 480 485 478 481 481 489 486 490 487 486 487 491 490 489 488 485 496 492 494 491 487 493 490 496 495 494 492 490 495 501 495 497 492 497 494 491 492 497 491 488 478 480 485 479 480 483 483 489 494 493 493 479 498 476 485 480 475 489 506 497 466 480 501 507 471 484 478 465 435 457 474 460 460 453 447 455 458 0 0 0 0 0 0
0 0 0 0 0 0 0 0 0 0 0 0 0 0 0 0 0 0 0 0 0 0 0 499 468 471 474 474 474 476 475 477 479 475 481 479 480 484 480 482 484 483 490 484 489 488 492 487 489 491 492 492 486 488 497 489 494 492 489 488 495 494 495 495 497 492 495 495 495 494 494 498 494 499 497 496 493 493 511 500 501 498 511 483 497 505 498 504 499 490 506 526 512 499 496 493 501 509 501 512 504 468 526 479 475 512 465 501 474 479 481 470 481 484 498 0 0 0 0 0
0 0 0 0 0 0 0 0 0 0 0 0 0 0 0 0 0 0 0 0 0 0 0 0 473 471 469 479 471 474 476 474 475 480 480 480 480 480 479 478 481 485 487 488 487 489 488 487 494 492 490 491 490 492 490 492 493 489 491 499 494 496 488 496 496 490 495 495 495 497 498 495 491 495 491 490 500 502 504 508 501 495 507 531 516 511 502 512 511 508 527 502 523 517 525 521 502 506 499 514 517 520 489 541 529 495 453 498 520 546 487 491 508 519 539 532 0 0 0 0
0 0 0 0 0 0 0 0 0 0 0 0 0 0 0 0 0 0 0 0 0 0 0 0 505 469 469 477 466 478 479 475 475 477 478 478 478 480 485 479 483 484 482 489 485 482 489 489 488 491 494 492 491 490 493 486 495 492 492 489 491 489 496 493 496 493 496 492 495 494 496 492 494 492 493 493 498 494 493 502 501 494 501 489 501 520 510 499 517 487 482 498 501 484 540 518 505 476 540 516 500 528 493 521 480 486 463 478 477 508 466 488 476 512 474 0 0 0 0 0
0 0 0 0 0 0 0 0 0 0 0 0 0 0 0 0 0 0 0 0 0 0 0 0 0 485 463 476 472 476 471 475 478 480 479 477 476 476 482 482 480 481 484 486 486 484 490 486 486 485 491 485 489 486 490 494 485 490 486 489 492 494 494 494 494 489 495 493 490 493 492 493 493 493 495 489 495 475 495 499 491 501 500 503 497 514 495 500 506 517 505 498 517 510 522 523 540 532 506 514 522 508 513 507 508 519 540 503 494 493 521 534 535 531 509 0 0 0 0 0
0 0 0 0 0 0 0 0 0 0 0 0 0 0 0 0 0 0 0 0 0 0 0 0 0 550 467 470 469 475 467 465 474 473 475 476 474 477 477 474 484 483 481 485 484 478 483 480 484 487 480 479 482 488 490 488 487 489 489 489 492 492 496 491 494 491 494 489 485 489 494 486 494 493 492 482 485 484 487 486 493 488 491 490 491 478 491 491 488 482 498 485 505 489 497 500 497 496 509 504 516 517 529 496 453 474 476 464 470 474 433 472 485 475 0 0 0 0 0 0
0 0 0 0 0 0 0 0 0 0 0 0 0 0 0 0 0 0 0 0 0 0 0 0 0 0 473 469 459 471 470 472 469 471 472 475 476 472 478 479 475 479 479 477 484 483 483 481 482 481 488 482 492 485 488 485 489 489 488 486 486 490 486 492 490 489 487 491 492 486 493 492 488 483 473 473 471 484 490 485 480 485 488 488 481 477 480 483 471 475 477 473 479 484 470 497 472 466 475 480 488 496 462 459 452 481 444 463 479 437 443 461 424 399 401 0 0 0 0 0
0 0 0 0 0 0 0 0 0 0 0 0 0 0 0 0 0 0 0 0 0 0 0 0 0 0 0 468 469 469 467 472 474 475 473 474 474 478 475 475 478 483 478 486 478 483 485 482 485 483 483 488 486 484 486 485 489 487 486 492 489 489 490 488 490 490 487 490 486 489 490 489 486 486 489 488 496 490 485 485 480 491 503 482 492 498 495 490 506 481 482 504 492 474 486 511 516 512 514 487 520 520 513 467 476 497 484 476 491 470 471 431 467 443 520 0 0 0 0 0
0 0 0 0 0 0 0 0 0 0 0 0 0 0 0 0 0 0 0 0 0 0 0 0 0 0 0 468 464 459 467 469 469 468 472 472 473 471 472 473 478 476 475 475 483 478 480 478 482 481 485 482 486 489 484 482 485 482 485 484 487 486 486 486 484 488 488 488 488 484 490 484 476 479 474 481 462 487 473 469 471 483 469 471 468 488 479 459 468 460 476 468 483 483 461 483 475 477 480 469 480 479 510 445 440 455 446 428 460 448 436 424 436 449 466 0 0 0 0 0
0 0 0 0 0 0 0 0 0 0 0 0 0 0 0 0 0 0 0 0 0 0 0 0 0 0 0 0 532 472 466 468 474 471 474 472 475 473 474 477 478 476 478 474 479 478 473 478 479 478 479 483 482 483 484 484 487 481 485 490 488 489 485 486 486 485 490 487 487 488 484 482 475 479 489 490 479 484 492 482 479 482 493 483 497 484 490 489 488 500 487 483 487 489 479 510 468 501 497 485 485 470 494 469 462 460 444 480 468 489 452 523 495 467 474 0 0 0 0 0
0 0 0 0 0 247 237 242 314 0 0 0 0 0 0 0 0 0 0 0 2360 2389 0 0 0 0 0 0 0 502 464 468 469 469 464 470 472 470 475 471 472 481 475 479 477 478 481 479 478 478 481 481 477 483 483 483 480 485 486 484 483 484 486 481 485 490 483 480 485 483 481 487 486 487 489 486 481 481 489 497 497 482 501 490 500 491 494 505 493 492 513 535 519 520 479 514 508 506 519 490 510 500 533 464 495 506 499 489 516 502 465 464 455 473 502 0 0 0 0 0
0 0 0 0 260 227 232 231 232 282 365 0 0 0 0 0 0 0 0 0 0 2352 0 0 0 0 0 0 0 0 453 463 463 472 469 472 469 474 475 467 475 478 471 470 476 476 476 475 476 478 480 481 481 482 479 483 480 481 482 480 481 484 486 488 485 484 483 482 482 481 478 487 486 464 477 486 487 483 483 478 495 469 489 484 475 500 490 485 481 482 480 493 468 479 482 487 493 481 502 490 477 489 490 462 460 470 443 477 467 447 474 499 452 439 0 0 0 0 0 0
0 0 0 258 226 232 232 233 236 236 362 0 0 0 0 0 0 0 0 0 0 0 0 0 0 0 0 0 0 0 0 485 464 471 469 469 469 469 472 472 472 470 472 474 473 478 471 475 480 481 481 478 480 473 481 485 484 474 480 475 481 486 479 483 477 481 481 471 483 484 481 484 482 492 481 490 474 481 488 497 491 491 492 480 483 485 484 487 503 491 476 495 507 480 499 502 488 497 501 520 496 500 509 499 496 506 479 509 489 490 484 477 491 485 471 538 0 0 0 0
206 254 266 243 245 270 266 226 237 238 324 0 427 417 400 403 418 430 420 418 465 455 450 430 441 452 451 439 441 451 440 447 460 466 463 460 465 463 469 470 463 466 467 474 476 469 470 475 477 474 473 475 477 473 486 482 480 478 478 483 473 480 478 478 479 479 475 471 482 472 475 470 476 469 471 468 478 474 461 461 474 467 469 455 472 471 474 465 475 470 468 480 482 473 467 471 455 461 456 472 476 472 484 465 434 474 431 449 447 468 454 457 429 431 443 0 0 0 0 0
199 204 219 187 202 240 241 221 229 261 331 360 393 391 399 386 378 416 395 401 386 423 418 408 420 429 427 424 440 442 444 455 453 452 451 451 451 462 453 456 451 465 457 457 456 460 472 464 476 472 473 467 472 472 474 465 471 468 472 473 471 467 468 475 468 472 472 469 464 464 466 467 464 460 457 450 440 454 448 449 449 447 442 445 454 454 441 446 450 448 453 442 421 440 442 452 424 430 436 444 439 425 433 441 438 435 420 433 430 431 394 417 425 430 389 418 415 411 0 0
176 192 228 254 220 237 237 228 234 306 372 357 368 353 370 363 371 374 363 371 376 390 386 406 398 407 407 420 425 442 442 445 446 446 444 442 431 444 444 440 445 451 442 448 457 449 450 456 457 454 458 455 461 457 455 454 454 452 464 462 462 468 461 467 459 453 456 455 457 454 460 456 448 447 438 435 429 442 432 428 433 427 425 432 424 437 434 433 428 426 423 424 432 419 430 422 412 415 433 424 408 427 418 428 425 410 417 407 419 415 419 402 421 420 379 440 444 432 372 0
263 239 237 218 227 226 228 231 244 309 308 296 324 306 333 328 340 330 332 342 324 353 351 367 369 380 380 403 406 410 413 423 419 425 425 428 427 426 428 428 427 425 428 434 430 437 434 438 437 437 440 430 440 440 442 446 436 444 440 440 440 438 440 443 437 437 441 432 437 434 429 435 428 428 413 414 411 401 389 388 397 389 384 390 393 375 383 389 391 388 391 388 393 389 382 381 371 393 361 381 378 385 377 367 387 378 376 362 372 390 378 368 376 356 371 343 354 356 349 0
284 291 294 242 234 229 230 242 283 318 300 309 307 311 303 304 310 308 313 325 328 321 327 348 354 370 381 380 395 395 404 403 406 416 408 403 410 409 412 416 414 413 419 412 417 416 419 419 418 413 414 414 415 416 416 420 421 419 420 428 423 425 417 423 413 419 423 415 414 412 412 415 409 410 398 387 381 372 371 362 363 359 354 355 366 357 370 366 357 367 366 352 384 362 365 382 373 360 361 363 373 368 362 370 352 358 355 364 361 356 366 389 359 364 346 352 371 336 382 347
278 281 283 265 268 248 265 286 283 284 289 281 277 276 296 289 289 289 287 293 302 314 317 318 327 344 360 368 366 382 383 385 398 389 390 393 393 402 395 390 397 392 390 393 393 401 399 389 395 390 391 401 399 402 398 395 403 399 403 401 393 402 399 398 390 387 396 391 394 401 394 390 395 387 370 370 352 355 341 339 351 325 331 339 331 328 346 334 344 334 331 330 329 331 353 349 338 331 326 334 331 316 330 331 335 337 357 348 325 331 327 331 338 347 350 341 330 358 342 354
244 239 243 240 254 253 252 246 259 255 255 259 257 254 252 254 260 268 263 276 273 277 296 297 312 318 328 340 345 357 364 360 367 365 361 369 362 368 368 367 369 372 370 371 369 371 370 368 367 368 375 374 373 378 379 375 375 376 374 379 377 383 369 375 375 366 371 367 369 368 367 359 362 360 350 338 331 318 320 308 300 299 307 297 305 309 303 293 297 292 304 307 299 312 313 303 291 304 284 303 299 311 304 291 299 307 297 308 311 303 314 303 307 318 307 290 325 321 303 298
250 230 233 240 240 241 246 237 250 243 250 248 247 250 253 249 253 247 250 252 261 271 280 281 296 302 317 325 330 333 328 338 342 347 343 342 336 341 342 348 350 349 347 352 351 346 346 352 353 345 347 354 350 354 357 356 358 349 359 357 354 353 354 346 351 349 349 350 351 348 345 347 342 337 330 327 311 297 298 288 289 284 280 283 288 280 283 289 276 281 285 287 290 282 271 285 278 280 289 284 278 283 286 281 279 283 280 283 286 301 274 312 289 302 282 292 303 289 296 299
212 213 222 219 226 220 218 223 224 220 228 232 222 237 224 229 232 236 234 239 242 242 252 262 273 280 297 299 299 304 306 313 326 321 315 314 316 328 323 327 321 321 317 318 326 324 327 326 322 325 322 327 326 323 329 327 328 323 332 328 330 326 327 330 324 330 327 325 324 321 321 324 319 310 307 298 282 284 275 272 266 266 264 263 263 257 259 254 261 251 251 261 259 258 263 265 261 260 256 262 263 255 262 270 251 261 255 262 260 261 261 259 260 248 261 262 268 249 272 263
202 211 202 223 211 209 214 215 212 217 206 206 205 211 214 214 213 213 214 218 218 228 247 250 252 263 269 275 274 287 288 293 293 295 297 297 295 297 304 303 295 298 297 304 296 298 301 297 301 306 305 298 302 302 298 306 300 302 305 305 299 307 305 308 305 305 303 303 303 298 295 303 301 289 288 276 270 256 253 251 242 240 247 251 248 244 243 238 247 243 244 252 240 244 243 234 243 243 239 239 241 243 244 234 238 241 239 239 249 249 231 245 242 250 250 261 239 235 243 242
181 195 199 206 198 206 204 205 198 207 205 184 190 192 184 191 208 206 209 208 211 218 228 236 239 249 251 258 268 270 264 268 271 268 276 279 282 276 283 283 283 283 281 286 281 283 281 283 289 286 282 279 280 282 283 287 288 281 283 286 282 289 286 289 287 286 281 287 285 276 283 279 279 274 271 256 255 245 240 234 232 227 232 233 233 226 228 221 222 228 232 234 223 224 230 223 221 221 225 223 228 231 225 225 223 226 223 226 235 229 237 231 248 240 237 234 234 227 230 252
170 175 173 177 183 177 185 189 178 174 176 176 177 185 181 179 181 185 187 185 205 194 216 227 226 229 235 240 243 250 253 251 251 251 258 257 262 256 267 262 265 261 266 264 260 261 265 266 265 265 264 267 264 264 261 266 267 268 266 277 265 267 264 269 264 266 266 269 264 266 269 257 255 254 250 245 235 233 227 221 215 202 216 213 198 218 214 210 216 213 216 213 214 195 212 209 209 211 205 213 218 211 207 209 212 207 207 210 216 207 210 228 221 207 210 216 219 226 213 186
177 174 170 169 181 174 176 181 176 181 175 183 183 185 184 184 182 177 178 180 184 183 208 216 213 222 223 223 230 233 234 245 239 240 238 241 239 242 249 247 244 246 248 249 254 247 250 248 248 253 247 253 252 248 245 247 251 252 253 252 250 248 250 250 243 248 250 248 246 249 246 246 245 239 235 226 220 221 199 212 192 199 190 183 193 195 194 195 194 193 191 196 193 182 185 189 186 183 191 193 206 207 192 184 179 188 183 201 203 199 212 207 198 203 214 194 222 194 210 204
169 173 180 173 171 176 171 170 177 180 179 174 174 170 174 176 182 176 188 184 186 187 185 190 206 207 215 215 216 221 228 228 223 226 227 227 228 232 230 230 232 231 231 233 234 239 230 230 237 235 237 235 238 234 233 236 233 234 238 238 235 240 236 235 236 232 238 226 231 232 234 231 226 227 220 222 212 200 190 198 193 197 193 191 191 195 195 186 194 194 190 181 190 189 187 182 187 188 185 185 188 176 184 179 186 187 185 177 176 189 182 182 195 200 205 206 188 206 214 192
163 166 166 166 170 169 165 169 170 166 164 165 168 167 172 177 171 176 177 180 175 179 188 190 191 184 190 189 208 212 212 212 210 213 212 213 216 214 213 197 213 222 218 221 220 224 216 220 222 223 217 224 216 221 220 223 219 219 219 224 216 223 223 222 220 217 218 217 222 217 220 217 219 212 195 191 188 193 187 190 188 188 189 182 186 180 187 180 186 182 185 180 186 179 184 185 180 181 183 180 182 180 182 182 176 182 175 179 182 173 175 179 185 178 194 173 177 169 177 203
147 159 161 161 161 165 162 162 165 167 157 162 161 163 165 164 163 171 171 177 176 179 180 185 185 187 186 186 193 189 181 186 186 184 187 194 191 191 188 190 193 195 188 191 200 196 211 200 192 193 194 199 195 199 197 194 197 195 194 191 216 199 198 196 199 197 195 199 193 198 198 196 199 196 188 198 196 190 188 182 177 175 175 176 178 175 177 178 179 176 177 179 173 172 175 174 171 166 171 171 172 177 173 173 172 171 171 168 171 172 171 174 174 175 191 178 173 170 196 209
146 152 150 153 155 154 152 159 158 156 156 156 155 154 158 158 157 160 157 170 171 168 176 173 178 181 178 182 180 184 189 186 189 187 187 188 191 185 190 191 195 192 195 196 194 195 194 195 197 192 193 200 197 198 187 196 196 198 195 188 197 201 197 189 194 197 198 198 199 194 194 194 192 191 189 184 187 185 178 173 175 169 169 165 163 168 172 167 163 167 169 165 169 170 172 166 163 167 164 168 169 167 169 168 167 166 154 164 164 165 165 162 175 171 167 162 155 163 176 155
143 142 146 144 147 148 147 152 149 153 148 152 148 154 148 149 154 153 155 158 163 168 163 171 172 173 177 175 175 179 176 178 182 183 177 179 183 181 183 182 184 183 186 185 182 185 186 186 187 187 183 189 188 187 187 189 188 189 0 187 190 187 186 187 190 187 186 185 187 187 185 183 181 182 177 177 177 170 172 166 160 159 163 162 159 163 166 161 165 161 161 162 161 162 163 161 154 155 161 162 156 163 160 156 154 160 154 157 158 164 158 158 162 162 160 166 164 171 156 166
136 135 136 139 139 150 146 145 146 143 145 143 142 146 143 146 145 147 150 153 158 161 163 164 166 166 169 170 169 172 172 173 175 175 170 176 175 174 175 174 178 182 176 175 173 179 177 180 176 176 178 179 180 181 182 179 180 0 0 180 178 179 181 182 181 176 177 182 178 171 176 178 170 174 175 173 166 163 162 161 160 157 155 155 159 158 157 154 155 154 149 156 155 153 154 152 151 153 157 155 155 155 150 155 151 145 148 151 155 151 151 149 146 154 151 152 150 157 155 150
138 131 131 136 142 143 148 142 139 136 137 141 141 141 143 138 139 148 146 143 149 157 155 159 159 156 157 160 164 164 161 166 167 165 164 162 164 169 167 170 170 0 171 167 170 174 172 172 170 172 175 171 175 174 174 0 172 171 0 178 176 0 174 172 172 167 174 168 172 169 166 165 168 170 164 160 164 156 156 151 149 153 151 149 153 149 150 148 148 152 146 154 148 147 151 145 151 148 154 151 145 142 147 147 141 143 140 141 145 146 143 142 144 152 142 151 139 158 140 156
129 123 123 123 133 132 140 139 131 131 131 133 135 135 138 134 133 136 139 142 142 147 150 152 149 157 159 157 156 161 158 153 158 160 158 155 161 164 0 0 0 0 0 0 0 0 0 166 167 169 165 162 170 165 0 0 169 169 166 0 0 0 0 0 168 167 168 0 163 161 160 162 162 158 154 158 153 158 147 145 150 143 147 147 142 151 144 145 146 146 145 148 143 144 141 139 141 148 141 142 140 142 138 138 138 137 136 142 138 143 141 146 146 144 146 149 133 144 138 136
117 121 124 115 128 135 137 132 136 132 131 131 126 124 132 126 131 138 137 135 141 143 147 148 146 147 155 153 152 154 152 155 156 159 155 153 157 0 0 0 0 0 0 0 0 0 0 0 0 163 161 162 0 0 0 0 0 0 0 0 0 0 0 0 162 161 0 0 0 0 0 156 159 154 154 150 150 151 148 147 142 131 145 142 139 140 142 138 145 138 139 140 139 140 131 136 142 141 140 137 135 138 139 138 132 132 139 137 139 140 137 145 142 141 134 140 149 128 140 162
114 107 117 126 127 124 128 129 131 127 132 125 119 118 119 130 124 132 131 134 126 128 133 143 141 140 143 147 147 151 151 148 154 151 151 148 0 0 0 0 0 0 0 0 0 0 0 0 153 154 155 0 0 0 0 0 0 0 0 0 0 0 0 0 0 0 0 0 0 0 0 0 147 150 149 148 145 143 141 144 130 140 138 128 128 129 140 140 136 130 140 137 133 127 119 136 139 138 134 137 129 139 134 123 132 133 132 126 134 136 139 137 134 139 143 131 140 126 108 138
105 109 116 110 111 114 128 119 116 127 118 119 118 115 129 123 124 122 117 119 123 126 129 125 137 140 142 139 143 144 143 142 144 144 146 142 0 0 0 0 0 0 0 0 0 0 0 0 0 0 0 0 0 0 0 0 0 0 0 0 0 0 0 0 0 0 0 0 0 0 0 0 0 139 138 140 140 132 125 131 125 122 120 119 125 124 126 124 124 129 123 125 117 136 124 128 127 123 124 119 120 131 136 119 128 131 127 129 132 136 132 138 119 130 122 136 116 110 125 147
110 111 115 117 115 115 115 115 116 117 113 119 115 114 118 124 119 119 124 117 116 112 119 116 137 137 136 131 0 136 0 0 0 139 142 0 0 0 0 0 0 0 0 0 0 0 0 0 0 0 0 0 0 0 0 0 0 0 0 0 0 0 0 0 0 0 0 0 0 0 0 0 0 143 136 126 126 124 119 124 123 118 124 125 117 123 115 123 118 120 118 125 118 115 112 119 121 122 119 123 120 126 120 118 117 118 118 122 105 124 116 108 128 116 122 121 108 136 142 140
103 100 112 110 105 100 108 106 105 104 106 105 105 109 105 110 111 110 116 111 114 118 110 114 122 120 126 119 121 126 0 0 0 0 127 0 0 0 0 0 0 0 0 0 0 0 0 0 0 0 0 0 0 0 0 0 0 0 0 0 0 0 0 0 0 0 0 0 0 0 0 0 129 0 0 126 119 116 122 118 117 117 109 114 115 114 111 112 111 116 113 118 111 111 108 106 109 115 113 107 111 111 109 111 116 117 112 107 110 104 108 110 105 115 119 101 122 116 102 137
101 101 91 94 99 100 103 101 103 103 98 100 102 108 106 105 105 110 115 106 110 111 104 108 117 114 118 120 119 122 0 127 0 0 0 0 0 0 0 0 0 0 0 0 0 0 0 0 0 0 0 0 0 0 0 0 0 0 0 0 0 0 0 0 0 0 0 0 0 0 0 0 0 120 0 117 121 116 114 111 114 111 106 110 112 109 113 116 105 108 115 114 111 115 108 118 106 105 103 118 113 108 111 107 112 113 111 106 115 107 103 103 114 103 105 114 114 109 113 133
95 103 99 99 96 95 102 93 95 97 97 98 102 93 99 95 105 103 114 117 111 107 97 111 114 106 111 116 113 121 119 119 125 0 0 0 0 0 0 0 0 0 0 0 0 0 0 0 0 0 0 0 0 0 0 0 0 0 0 0 0 0 0 0 0 0 0 0 0 0 0 0 121 122 106 124 113 116 118 116 105 109 103 119 107 105 102 103 102 101 106 104 112 95 98 100 107 101 115 106 105 111 108 102 108 107 105 87 98 101 101 100 100 102 95 86 133 115 89 89
88 84 83 86 82 82 80 98 92 86 92 93 96 97 93 90 78 93 88 92 92 87 101 107 99 101 114 108 0 0 109 103 118 0 0 0 0 0 115 0 0 0 0 0 0 0 0 0 0 0 0 0 0 0 0 0 0 0 0 0 0 0 0 0 0 0 0 0 0 0 0 116 111 110 104 111 108 105 105 101 99 103 98 89 101 97 89 99 105 102 95 96 105 83 84 95 95 104 87 97 90 97 91 91 86 99 95 97 88 83 84 91 73 96 90 95 91 106 88 110
92 86 93 90 100 98 95 107 93 93 96 95 90 90 98 98 102 92 101 96 95 104 107 103 102 106 111 106 0 102 110 110 116 112 121 111 110 0 114 0 0 118 0 0 0 0 0 0 0 0 0 0 0 0 0 0 0 0 0 0 118 0 0 113 113 0 0 0 110 0 111 110 114 111 111 111 109 112 102 99 114 105 107 90 97 102 106 104 102 103 105 107 109 100 100 104 101 96 98 111 101 95 94 99 96 105 105 91 85 91 94 95 91 98 108 95 94 116 133 150
87 92 90 89 94 96 92 94 85 96 88 88 89 93 88 85 94 100 97 92 99 92 98 114 90 104 106 102 104 105 93 102 108 106 99 103 0 116 115 0 110 0 0 0 0 0 0 0 0 0 0 0 0 0 0 0 0 113 0 0 112 109 106 110 113 110 102 102 113 107 109 103 104 102 111 107 101 92 103 99 94 96 102 87 93 92 95 103 107 94 100 104 109 84 95 84 88 93 94 87 92 87 92 96 89 89 98 93 100 87 99 93 81 89 91 90 122 134 137 104
85 87 86 90 89 93 102 88 89 84 88 89 84 91 92 93 92 91 93 90 80 92 98 85 86 92 94 90 105 91 94 99 98 98 95 108 100 105 101 104 103 98 100 107 107 93 0 0 97 0 0 108 107 95 101 108 106 104 108 104 102 107 108 105 99 111 105 99 100 106 98 106 108 102 103 94 95 97 99 92 98 92 90 96 89 92 90 94 94 94 98 88 95 94 95 92 88 85 95 83 87 91 96 90 90 85 98 90 84 93 87 94 110 106 96 109 129 91 114 126
84 82 84 85 81 83 96 101 85 83 84 83 90 91 84 90 89 93 89 98 84 98 95 95 93 98 95 86 96 98 97 84 96 92 96 95 98 100 95 107 104 94 99 106 101 96 105 0 104 100 99 105 101 98 103 104 101 104 97 108 108 97 95 105 105 100 96 101 92 106 100 107 101 96 104 87 94 97 97 98 100 96 85 91 99 97 94 86 94 92 86 97 91 94 95 84 94 90 97 88 84 102 82 93 90 96 92 95 93 88 89 97 114 97 104 145 112 113 122 79
82 74 68 67 81 82 88 89 85 78 85 81 83 76 89 85 88 88 85 84 84 86 91 90 87 85 95 92 86 86 93 93 80 95 96 96 94 84 89 97 91 91 85 90 96 93 90 98 94 87 94 87 98 90 92 88 102 90 99 96 98 82 83 96 97 98 96 91 96 98 94 88 95 92 85 98 93 90 91 84 86 94 86 86 82 96 92 90 85 89 78 80 91 81 84 84 83 79 81 88 83 86 83 71 84 86 89 87 86 81 88 85 86 84 104 87 105 68 101 72
72 73 82 87 71 84 88 88 84 83 81 89 81 86 83 91 90 88 83 86 87 94 83 91 90 86 93 85 95 92 88 97 91 99 86 89 97 94 97 93 93 97 96 89 89 94 97 87 100 92 89 96 96 97 101 97 94 98 90 94 97 85 91 92 90 97 86 96 106 94 96 93 85 82 93 97 96 96 94 97 91 89 89 90 82 88 91 82 92 94 78 91 81 79 93 81 90 90 84 81 84 81 83 77 79 81 84 82 87 88 89 87 79 109 97 86 114 93 99 154
