0 0 0 0 0 0 0 0 0 0 0 0 0 0 0 0 0 0 0 0 0 0 0 0 0 0 0 0 0 0 0 0 0 0 0 0 0 0 0 0 0 0 0 0 0 0 0 0 0 0 0 0 0 0 0 0 0 0 0 0 0 0 0 0 0 0 0 0 0 0 0 0 0 0 0 0 0 0 0 0 0 0 0 0 0 0 0 0 0 0 0 0 0 0 0 0 0 0 0 0 0 0 0 0 0 0 0 0 0 0 0 0 0 0 0 0 0 0 0 0
0 0 0 0 0 0 0 0 0 0 0 0 0 0 0 0 0 0 0 0 0 0 0 0 0 0 0 0 0 0 0 0 0 0 0 0 0 0 0 0 0 0 0 0 0 0 0 0 0 0 0 0 0 0 0 0 0 0 0 0 0 0 0 0 0 0 0 0 0 0 0 0 0 0 0 0 0 0 0 0 0 0 0 0 0 0 0 0 0 0 0 0 0 0 0 0 0 0 0 0 0 0 0 0 0 0 0 0 0 0 0 0 0 0 0 0 0 0 0 0
0 0 0 0 0 0 0 0 0 0 0 0 0 0 0 0 0 0 0 0 0 0 0 0 0 0 0 0 0 0 0 0 0 0 0 0 0 0 0 0 0 0 0 0 0 0 0 0 0 0 0 0 0 0 0 0 0 0 0 0 0 0 0 0 0 0 0 0 0 0 0 0 0 0 0 0 0 0 0 0 0 0 0 0 0 0 0 0 0 0 0 0 0 0 0 0 0 0 0 0 0 0 0 0 0 0 0 0 0 0 0 0 0 0 0 0 0 0 0 0
0 0 0 0 0 0 0 0 0 0 0 0 0 0 0 0 0 0 0 0 0 0 0 0 0 0 0 0 0 0 0 0 0 0 0 0 0 0 0 0 0 0 0 0 0 0 0 0 0 0 0 0 0 0 0 0 0 0 0 0 0 0 0 0 0 0 0 0 0 0 0 0 0 0 0 0 0 0 0 0 0 0 0 0 0 0 0 0 0 0 0 0 0 0 0 0 0 0 0 0 0 0 0 0 0 0 0 0 0 0 0 0 0 0 0 0 0 0 0 0
0 0 0 0 0 0 0 0 0 0 0 0 0 0 0 0 0 0 0 0 0 0 0 0 0 0 0 0 0 0 0 0 0 0 0 0 0 0 0 0 0 0 0 0 0 0 0 0 0 0 0 0 0 0 0 0 0 0 0 0 0 0 0 0 0 0 0 0 0 0 0 0 0 0 0 0 0 0 0 0 0 0 0 0 0 0 0 0 0 0 0 0 0 0 0 0 0 0 0 0 0 0 0 0 0 0 0 0 0 0 0 0 0 0 0 0 0 0 0 0
0 0 0 0 0 0 0 0 0 0 0 0 0 0 0 0 0 0 0 0 0 0 0 0 0 0 0 0 0 0 0 0 0 0 0 0 0 0 0 539 475 514 506 493 502 500 492 531 503 516 516 521 524 547 500 0 0 0 0 0 0 0 0 0 0 0 0 0 0 0 0 0 0 0 0 0 0 0 0 0 0 0 0 0 0 0 0 0 0 0 0 0 0 0 0 0 0 0 0 0 0 0 0 0 0 0 0 0 0 0 0 0 0 0 0 0 0 0 0 0
0 0 0 0 0 0 0 0 0 0 0 0 0 0 0 0 0 0 0 0 0 0 0 0 0 0 0 0 0 0 0 0 0 0 0 0 0 488 492 509 483 487 489 492 502 498 502 523 523 479 506 510 500 499 510 505 500 485 464 474 0 0 0 0 0 0 0 0 0 0 0 0 0 0 0 0 0 0 0 0 0 0 0 0 0 0 0 0 0 0 0 0 0 0 0 0 0 0 0 0 0 0 0 0 0 0 0 0 0 0 0 0 0 0 0 0 0 0 0 0
0 0 0 0 0 0 0 0 0 0 0 0 0 0 0 0 0 0 0 0 0 0 0 0 0 0 0 0 0 0 0 0 0 0 0 527 507 513 500 495 518 505 510 502 494 518 504 502 517 501 504 513 511 497 528 510 523 508 502 521 501 519 528 535 569 0 0 0 0 0 0 0 0 0 0 0 0 0 0 0 0 0 0 0 0 0 0 0 0 0 0 0 0 0 0 0 0 0 0 0 0 0 0 0 0 0 0 0 0 0 0 0 0 0 0 0 0 0 0 0
0 0 0 0 0 0 0 0 0 0 0 0 0 0 0 0 0 0 0 0 0 0 0 0 0 0 0 0 0 0 0 0 0 504 498 515 496 507 507 500 502 509 495 516 503 502 509 510 511 521 508 503 514 508 514 506 507 525 510 506 515 515 523 494 511 514 519 541 569 556 620 587 656 0 649 652 649 618 0 617 0 0 0 0 0 0 0 0 0 0 0 0 0 0 0 0 0 0 0 0 0 0 0 0 0 0 0 0 0 0 0 0 0 0 0 0 0 0 0 0
0 0 0 0 0 0 0 0 0 0 0 0 0 0 0 0 0 0 0 0 0 0 0 0 0 0 0 0 0 0 0 515 510 517 500 504 482 496 506 494 504 501 506 505 493 492 494 498 507 502 514 501 510 508 495 507 495 506 513 508 518 503 499 517 500 523 516 504 518 552 596 517 551 566 558 550 587 556 585 589 578 575 567 574 0 566 0 560 570 562 575 557 618 589 565 523 581 549 562 555 547 578 570 561 0 0 0 0 0 0 0 0 0 0 0 0 0 0 0 0
0 0 0 0 0 0 0 0 0 0 0 0 0 0 0 0 0 0 0 0 0 0 0 0 0 0 0 0 0 0 516 512 513 497 503 499 506 508 502 514 511 495 516 508 503 518 514 504 516 499 499 515 503 508 514 510 512 506 504 514 514 505 519 508 511 511 516 511 521 523 589 575 569 598 585 617 582 585 595 589 606 583 611 574 600 596 589 580 642 615 582 613 618 572 615 619 645 611 592 600 585 630 581 608 597 605 619 603 631 0 0 0 0 0 0 0 0 0 0 0
0 0 0 0 0 0 0 0 0 0 0 0 0 0 0 0 0 0 0 0 0 0 0 0 0 0 0 0 465 484 491 496 493 501 504 486 495 491 502 504 496 495 494 496 506 506 499 500 501 502 508 512 491 507 499 510 512 502 498 508 506 497 508 514 499 498 503 498 511 508 523 568 544 581 545 544 546 550 516 537 536 542 547 534 584 596 635 542 579 599 576 545 572 548 593 524 554 588 570 572 616 529 561 534 600 585 573 518 528 0 0 0 0 0 0 0 0 0 0 0
0 0 0 0 0 0 0 0 0 0 0 0 0 0 0 0 0 0 0 0 0 0 0 0 0 0 0 464 505 491 498 488 501 504 496 482 487 491 507 496 503 496 496 494 501 500 492 506 493 504 497 502 511 501 506 498 507 503 503 506 511 504 513 512 502 500 508 507 502 512 506 508 508 521 529 528 525 516 551 540 531 548 515 535 517 490 477 534 516 531 513 567 531 536 528 475 495 525 527 532 534 499 525 551 502 541 502 566 534 0 0 0 0 0 0 0 0 0 0 0
0 0 0 0 0 0 0 0 0 0 0 0 0 0 0 0 0 0 0 0 0 0 0 0 0 0 478 489 502 502 509 497 494 494 503 497 502 481 504 500 499 501 508 513 505 510 498 508 500 506 513 507 505 500 507 503 496 505 510 513 510 514 508 510 512 508 507 501 514 505 521 521 559 562 557 526 572 544 530 545 594 538 560 575 557 542 555 584 567 589 587 583 552 557 565 537 572 546 577 562 552 588 576 561 586 574 592 588 587 0 0 0 0 0 0 0 0 0 0 0
0 0 0 0 0 0 0 0 0 0 0 0 0 0 0 0 0 0 0 0 0 0 0 0 0 494 476 491 507 488 490 491 502 485 497 494 498 488 501 496 497 497 499 500 496 508 502 501 494 497 502 498 503 498 506 503 504 501 505 499 499 497 507 507 503 505 493 505 516 505 505 503 504 527 528 521 498 541 514 513 506 526 533 530 505 496 559 512 503 537 530 515 534 557 537 509 534 520 543 543 532 526 518 519 508 508 560 541 522 541 0 0 0 0 0 0 0 0 0 0
0 0 0 0 0 0 0 0 0 0 0 0 0 0 0 0 0 0 0 0 0 0 0 0 0 511 499 497 500 488 497 491 493 498 493 491 496 496 508 488 498 508 508 497 491 504 502 500 496 499 505 505 513 505 505 509 507 507 502 511 510 505 508 507 502 505 506 514 510 507 509 508 511 505 547 546 541 545 543 544 535 552 575 557 503 532 529 557 537 578 558 550 557 544 554 538 567 557 565 532 523 523 570 526 533 561 555 488 552 573 506 0 534 518 0 0 0 0 0 0
0 0 0 0 0 0 0 0 0 0 0 0 0 0 0 0 0 0 0 0 0 0 0 0 493 497 490 492 491 493 505 507 494 499 497 502 495 508 498 496 495 502 499 499 506 508 504 499 504 503 499 505 501 509 509 503 505 501 498 506 509 510 506 508 503 498 506 505 509 516 514 513 507 516 534 553 540 569 556 527 515 542 578 532 551 548 579 548 531 559 541 576 558 573 546 580 551 572 553 589 563 601 552 584 585 541 585 573 623 575 0 0 0 0 0 0 0 0 0 0
0 0 0 0 0 0 0 0 0 0 0 0 0 0 0 0 0 0 0 0 0 0 0 0 490 494 489 492 488 493 489 492 495 500 493 494 494 493 495 499 498 494 507 495 495 502 508 503 502 501 509 503 505 505 507 507 505 503 507 508 504 503 501 503 508 506 505 508 504 509 510 508 510 510 505 523 526 531 539 522 551 530 550 530 542 504 533 557 529 528 524 574 554 541 561 496 531 510 528 512 549 553 526 522 557 550 550 546 460 543 0 0 0 0 0 0 0 0 0 0
0 0 0 0 0 0 0 0 0 0 0 0 0 0 0 0 0 0 0 0 0 0 0 510 498 490 501 495 491 502 493 498 496 501 503 495 504 496 507 497 504 494 503 501 499 513 501 502 499 504 502 508 502 507 506 506 505 514 506 503 513 507 508 504 504 507 512 507 507 507 514 509 509 501 515 524 526 546 547 547 546 545 542 547 555 568 588 569 554 562 552 556 546 572 566 541 553 532 588 561 526 597 556 581 572 518 541 538 574 608 585 0 0 0 0 0 0 0 0 0
0 0 0 0 0 0 0 0 0 0 0 0 0 0 0 0 0 0 0 0 0 0 0 486 488 490 496 490 492 495 498 505 497 502 493 485 487 491 493 501 493 496 491 500 506 499 492 504 494 506 495 495 500 503 496 502 502 505 500 498 497 509 498 498 504 501 497 514 502 511 511 506 509 510 511 506 527 535 515 528 547 551 537 535 531 532 548 506 515 540 536 551 530 531 521 492 507 516 529 562 501 509 535 542 549 547 515 547 547 500 498 0 0 0 0 0 0 0 0 0
0 0 0 0 0 0 0 0 0 0 0 0 0 0 0 0 0 0 0 0 0 0 451 488 496 485 489 487 491 486 486 496 496 496 487 491 490 491 484 491 498 498 493 496 492 492 499 503 496 506 492 496 495 498 505 503 503 507 494 500 508 500 504 507 502 510 501 505 505 510 508 503 505 498 504 502 505 524 512 507 501 474 508 507 504 497 498 497 501 529 519 486 518 507 515 514 519 482 520 512 508 481 527 497 499 529 515 476 521 458 491 508 494 0 0 0 0 0 0 0
0 0 0 0 0 0 0 0 0 0 0 0 0 0 0 0 0 0 0 0 0 0 492 508 481 490 501 496 488 497 485 495 487 484 509 492 496 496 494 489 502 501 495 505 500 506 503 500 500 493 499 510 505 503 501 506 502 505 506 506 507 501 504 510 509 510 515 513 518 504 503 513 515 504 513 503 525 520 526 544 550 531 523 547 536 551 528 540 510 531 564 516 510 538 545 548 520 549 514 539 558 583 547 531 517 537 545 542 538 535 545 0 0 0 0 0 0 0 0 0
0 0 0 0 0 0 0 0 0 0 0 0 0 0 0 0 0 0 0 0 0 0 467 475 485 484 490 479 486 487 496 479 492 484 486 491 480 491 483 495 493 496 501 499 493 496 496 493 494 498 495 500 500 503 497 500 506 502 502 501 505 509 509 502 499 508 507 500 507 514 501 504 504 501 511 503 493 520 502 523 481 495 491 470 501 507 504 480 518 503 493 503 517 507 514 499 503 528 513 518 516 465 493 486 458 510 501 554 541 516 473 526 482 0 0 0 0 0 0 0
0 0 0 0 0 0 0 0 0 0 0 0 0 0 0 0 0 0 0 0 0 0 495 498 484 487 484 486 486 497 488 488 493 489 493 493 489 486 498 501 496 496 491 496 497 500 495 492 497 504 500 503 501 497 504 503 500 497 509 502 507 501 502 507 498 498 510 502 502 498 513 504 503 509 505 506 506 523 547 519 522 503 518 514 521 544 517 515 498 542 531 501 531 490 488 526 564 533 545 547 560 539 520 542 519 529 533 542 521 507 569 549 561 0 0 0 0 0 0 0
0 0 0 0 0 0 0 0 0 0 0 0 0 0 0 0 0 0 0 0 0 0 496 486 483 485 493 489 492 489 499 485 492 486 491 498 491 488 495 495 497 497 502 500 492 500 496 498 504 493 504 501 497 499 505 499 503 506 506 496 502 503 506 501 507 509 499 501 501 510 512 496 510 504 513 507 514 532 559 535 526 526 517 524 529 533 531 522 514 526 551 576 524 532 516 485 511 539 566 542 521 537 543 577 534 545 560 538 543 541 531 528 534 0 0 0 0 0 0 0
0 0 0 0 0 0 0 0 0 0 0 0 0 0 0 0 0 0 0 0 0 0 488 482 486 485 479 486 484 485 494 480 484 487 489 486 493 491 489 496 493 490 503 497 487 497 493 499 496 496 501 499 502 504 498 504 500 500 506 499 503 499 508 507 503 503 500 504 496 497 498 504 502 510 493 495 503 507 496 503 510 511 524 527 507 533 513 473 516 512 499 520 524 520 524 516 510 508 532 498 518 512 536 527 518 518 528 482 0 528 496 539 525 0 0 0 0 0 0 0
0 0 0 0 0 0 0 0 0 0 0 0 0 0 0 0 0 0 0 0 0 463 480 495 492 487 498 491 499 499 486 495 483 488 484 495 505 495 495 494 495 502 498 498 494 493 503 497 498 501 500 496 500 502 501 499 499 499 514 502 510 504 507 502 503 502 510 499 506 510 508 506 501 512 504 509 505 520 539 525 529 531 556 535 539 548 522 532 538 540 523 536 544 540 569 531 564 546 563 574 566 563 547 564 564 551 548 542 558 524 528 595 0 0 0 0 0 0 0 0
0 0 0 0 0 0 0 0 0 0 0 0 0 0 0 0 0 0 0 0 0 447 490 481 490 477 483 485 488 478 477 481 492 487 489 491 485 487 498 491 495 492 492 488 496 496 493 494 499 491 497 500 494 497 505 495 497 496 501 507 502 494 500 492 508 500 503 503 503 498 506 503 499 504 505 506 508 498 497 519 518 506 510 525 510 510 530 504 479 506 506 521 490 523 523 484 575 513 511 486 494 495 518 522 487 502 511 489 519 551 474 493 0 0 0 0 0 0 0 0
0 0 0 0 0 0 0 0 0 0 0 0 0 0 0 0 0 0 0 0 0 458 486 478 482 474 480 482 477 480 477 484 487 489 482 485 487 486 483 489 491 488 486 493 490 492 494 499 492 492 494 492 491 494 495 499 493 498 497 495 503 500 498 500 500 501 506 499 504 497 500 505 500 504 501 492 502 498 493 510 498 497 489 508 497 512 478 486 500 520 510 471 484 490 478 490 501 505 495 523 492 492 477 480 470 465 462 462 468 495 465 475 449 506 0 0 0 0 0 0
0 0 0 0 0 0 0 0 0 0 0 0 0 0 0 0 0 0 0 0 0 459 488 476 488 485 484 483 485 483 482 490 484 499 485 486 487 494 488 495 492 492 491 498 495 499 496 498 495 493 492 502 496 499 501 496 505 500 500 502 496 497 500 503 500 501 508 505 500 503 499 513 512 498 505 507 507 509 512 507 515 506 500 516 496 490 515 506 505 515 505 482 504 506 516 518 466 518 515 528 524 520 497 546 535 560 535 501 534 551 500 480 490 0 0 0 0 0 0 0
0 0 0 0 0 0 0 0 0 0 0 0 0 0 0 0 0 0 0 0 0 430 475 469 490 479 481 476 477 479 480 479 486 485 487 478 485 484 489 494 489 493 494 492 490 489 487 492 495 493 494 497 497 501 497 494 496 497 499 493 501 504 496 496 499 503 500 502 500 498 499 500 502 500 497 499 497 504 506 491 475 502 502 493 475 496 497 476 499 492 465 495 484 486 479 491 467 479 508 480 494 491 457 495 511 495 496 504 457 470 476 488 0 0 0 0 0 0 0 0
0 0 0 0 0 0 0 0 0 0 0 0 0 0 0 0 0 0 0 0 0 483 477 481 480 479 479 486 480 487 482 485 486 487 486 486 487 488 487 484 489 491 491 489 490 496 494 495 496 499 495 491 499 496 499 500 493 496 500 500 500 500 495 503 506 509 500 502 504 501 501 499 503 506 501 502 504 499 496 513 515 511 516 509 518 519 501 503 528 506 496 506 528 494 528 508 505 505 506 517 510 506 540 547 521 501 514 515 504 527 497 520 565 506 0 0 0 0 0 0
0 0 0 0 0 0 0 0 0 0 0 0 0 0 0 0 0 0 0 0 0 467 476 481 480 486 484 479 483 483 483 488 485 483 486 485 485 489 486 488 490 488 491 494 495 489 492 492 493 500 493 496 493 497 493 496 500 502 500 498 502 497 502 501 507 499 496 498 501 510 495 505 501 502 498 506 498 505 519 494 513 514 514 520 517 506 523 526 538 517 531 498 543 525 514 520 531 500 542 535 536 530 523 525 556 528 528 512 524 524 506 560 544 532 0 0 0 0 0 0
0 0 0 0 0 0 0 0 0 0 0 0 0 0 0 0 0 0 0 0 0 444 475 474 476 473 476 474 472 473 480 481 481 483 484 482 486 486 486 485 487 489 491 493 492 489 492 493 491 494 488 498 492 497 498 497 496 497 497 499 497 493 500 501 502 495 499 499 504 501 497 491 489 499 497 494 502 498 498 491 505 489 506 485 490 497 523 501 499 489 496 484 498 508 507 508 514 492 502 497 513 510 504 532 526 512 513 508 487 519 495 498 501 0 0 0 0 0 0 0
0 0 0 0 0 0 0 0 0 0 0 0 0 0 0 0 0 0 0 0 0 450 488 476 475 476 478 480 483 486 478 484 486 482 486 484 486 488 486 489 492 489 487 490 489 494 495 492 494 496 499 490 493 501 497 496 497 499 495 497 498 501 499 499 503 497 502 501 500 501 503 506 498 502 504 497 499 504 508 516 505 510 518 512 516 506 532 520 525 525 514 527 504 524 529 510 538 518 515 532 516 518 521 541 539 528 548 505 529 539 498 520 531 559 0 0 0 0 0 0
0 0 0 0 0 0 0 0 0 0 0 0 0 0 0 0 0 0 0 0 0 433 464 470 478 477 485 473 480 483 482 483 476 481 481 474 486 486 486 491 487 489 486 489 488 486 491 488 490 498 493 490 498 494 496 496 490 500 502 496 496 498 498 494 498 496 500 502 494 501 494 498 497 496 498 499 499 500 509 495 497 509 505 506 507 486 492 486 517 498 509 493 497 512 490 483 485 486 496 496 490 505 502 487 497 495 512 517 507 457 455 476 459 496 0 0 0 0 0 0
0 0 0 0 0 0 0 0 0 0 0 0 0 0 0 0 0 0 0 0 0 442 473 469 473 470 481 472 478 478 481 485 485 485 482 487 486 476 484 489 484 487 490 483 487 491 491 493 493 491 491 495 494 491 493 497 492 495 491 493 495 497 500 501 498 499 496 496 499 499 498 492 499 489 498 498 498 493 497 490 501 512 476 488 505 487 505 480 487 481 485 470 485 491 495 504 489 490 490 482 490 479 491 485 505 491 460 486 508 507 461 471 524 517 460 0 0 0 0 0
0 0 0 0 0 0 0 0 0 0 0 0 0 0 0 0 0 0 0 0 0 0 473 472 477 481 471 473 480 483 485 477 481 478 480 481 485 485 481 490 487 486 486 489 488 495 489 489 497 492 497 494 492 495 497 497 491 495 493 493 499 496 504 494 503 499 501 497 496 494 496 497 495 499 495 505 497 510 505 496 502 524 505 504 507 476 509 507 518 512 524 508 535 499 514 487 523 519 513 502 532 506 495 478 542 513 516 463 547 513 469 505 502 458 0 0 0 0 0 0
0 0 0 0 0 0 0 0 0 0 0 0 0 0 0 0 0 0 0 0 0 0 482 478 468 466 476 473 472 477 476 475 481 481 474 478 481 482 487 483 485 486 484 486 484 487 492 484 490 488 487 492 493 493 495 492 489 490 491 495 492 495 492 498 498 493 496 499 494 496 499 490 496 489 495 493 490 499 485 484 492 492 487 486 497 485 492 471 485 483 501 484 504 502 501 485 477 487 498 476 472 469 456 468 482 452 477 491 493 476 489 482 417 0 0 0 0 0 0 0
0 0 0 0 0 0 0 0 0 0 0 0 0 0 0 0 0 0 0 0 0 0 523 472 468 477 480 477 480 473 479 476 482 485 482 482 480 480 485 487 489 484 488 484 493 493 488 485 490 491 494 494 493 496 494 493 496 488 493 498 495 496 495 501 493 498 497 498 492 494 494 498 497 497 499 496 495 497 499 493 506 498 508 527 515 500 526 523 489 506 517 509 504 501 501 496 510 523 510 517 498 496 495 487 465 526 512 527 487 533 507 499 530 517 489 478 0 0 0 0
0 0 0 0 0 0 0 0 0 0 0 0 0 0 0 0 0 0 0 0 0 0 573 473 481 480 476 474 480 482 483 479 482 482 480 487 483 488 483 488 487 491 489 490 492 486 491 490 493 488 488 497 494 492 494 494 494 494 498 492 495 494 502 496 499 494 496 497 500 490 496 492 496 495 495 500 496 486 506 486 519 526 528 521 538 513 522 536 531 532 537 550 526 530 547 546 538 536 524 524 511 521 514 511 522 493 498 531 536 520 485 547 525 558 472 0 0 0 0 0
0 0 0 0 0 0 0 0 0 0 0 0 0 0 0 0 0 0 0 0 0 0 0 485 466 470 475 479 475 475 473 484 478 486 480 481 486 478 482 483 486 486 484 486 489 483 485 485 487 487 486 490 496 490 491 489 488 497 496 495 497 495 493 493 491 494 492 498 497 496 497 497 497 496 491 494 491 492 499 490 500 502 489 486 495 489 504 517 489 500 489 473 510 499 491 497 499 511 489 507 500 543 496 501 523 479 484 525 476 483 494 506 519 0 0 0 0 0 0 0
0 0 0 0 0 0 0 0 0 0 0 0 0 0 0 0 0 0 0 0 0 0 0 502 478 474 475 472 479 474 475 478 481 478 479 481 475 481 487 482 488 484 489 485 486 488 488 491 492 486 491 486 489 492 495 493 497 495 496 492 494 493 494 500 495 497 500 498 499 494 499 494 496 494 497 492 495 501 496 514 502 510 517 489 511 505 512 494 515 524 520 526 512 520 502 521 526 496 527 498 518 523 538 513 497 544 491 488 502 520 507 527 513 519 0 0 0 0 0 0
0 0 0 0 0 0 0 0 0 0 0 0 0 0 0 0 0 0 0 0 0 0 0 488 471 481 471 465 470 474 474 472 476 480 474 478 478 478 478 484 484 481 487 486 488 490 492 484 487 487 490 489 488 489 496 489 493 493 492 491 495 494 495 498 498 495 497 496 491 490 494 496 494 497 495 489 492 491 493 492 493 491 497 509 521 510 511 499 503 503 487 519 500 497 510 501 488 516 500 493 494 505 501 482 497 493 476 479 484 506 516 473 480 476 0 0 0 0 0 0
0 0 0 0 0 0 0 0 0 0 0 0 0 0 0 0 0 0 0 0 0 0 0 0 468 468 465 468 469 472 476 471 476 478 474 473 476 477 475 478 478 479 482 484 487 485 482 485 493 488 485 488 490 488 492 494 493 496 490 497 493 496 492 493 495 492 493 493 491 488 496 494 492 494 490 486 493 494 497 501 475 485 497 484 499 502 483 480 486 493 496 490 496 492 508 491 498 485 500 484 486 502 486 514 492 461 446 458 460 473 469 482 465 461 488 426 0 0 0 0
0 0 0 0 0 0 0 0 0 0 0 0 0 0 0 0 0 0 0 0 0 0 0 0 538 470 470 472 470 471 473 481 481 474 479 477 477 477 479 484 486 487 481 487 487 482 487 488 484 493 492 490 492 493 494 490 497 492 491 494 494 491 496 490 493 491 494 492 493 488 494 494 494 491 495 492 498 506 497 505 492 492 494 495 485 554 491 512 516 523 526 512 512 512 564 519 532 537 497 481 513 522 462 493 491 482 467 491 495 492 531 519 488 490 501 0 0 0 0 0
0 0 0 0 0 0 0 0 0 0 0 0 0 0 0 0 0 0 0 0 0 0 0 0 0 460 465 471 466 473 472 474 475 473 472 471 477 476 483 482 480 480 483 486 487 482 485 486 485 485 489 487 490 489 490 486 491 489 492 488 490 492 488 488 492 491 491 491 495 497 492 488 494 490 485 481 482 490 481 480 480 478 501 487 492 492 472 486 489 487 491 475 480 486 487 484 508 476 474 498 491 492 451 452 479 440 459 454 459 452 493 447 467 459 0 0 0 0 0 0
0 0 0 0 0 0 0 0 0 0 0 0 0 0 0 0 0 0 0 0 0 0 0 0 0 529 469 468 467 470 467 476 470 476 474 477 477 473 481 480 479 482 486 484 484 482 480 484 487 489 489 484 489 490 491 493 493 490 488 491 487 485 488 488 488 495 493 484 490 491 492 488 491 494 488 492 486 480 491 484 492 483 482 482 488 494 509 486 500 480 494 505 499 502 490 493 471 487 481 492 500 493 479 487 467 490 483 470 474 491 478 497 509 490 0 0 0 0 0 0
0 0 0 0 0 0 0 0 0 0 0 0 0 0 0 0 0 0 0 0 0 0 0 0 0 0 487 467 465 476 469 476 471 475 476 475 479 479 482 475 483 479 482 487 486 484 485 482 485 486 490 483 490 489 489 488 487 493 489 487 488 486 487 489 494 490 494 489 493 486 496 492 490 489 496 492 494 497 491 524 493 501 498 498 494 511 491 484 498 494 496 511 520 497 498 510 493 504 506 507 495 504 527 496 523 526 507 477 472 465 501 525 495 500 0 0 0 0 0 0
0 0 0 0 0 0 0 0 0 0 0 0 0 0 0 0 0 0 0 0 0 0 0 0 0 0 0 472 467 468 470 470 474 471 471 474 472 472 475 477 477 483 480 477 478 479 486 476 489 479 483 488 486 488 486 481 489 487 482 492 486 486 489 489 486 488 487 487 492 490 494 485 484 488 483 500 473 493 492 485 481 490 484 475 480 475 488 487 486 489 479 500 481 496 459 501 499 503 475 508 500 490 483 445 480 459 478 490 450 457 461 493 449 525 0 0 0 0 0 0
0 0 0 0 0 0 0 0 0 0 0 0 0 0 0 0 0 0 0 0 0 0 0 0 0 0 0 511 474 465 473 469 472 475 470 472 476 477 478 480 482 480 482 484 484 478 483 484 484 487 487 485 490 488 487 489 489 487 485 488 489 488 490 492 492 487 493 494 489 491 485 488 483 492 491 506 499 493 490 496 494 512 516 487 494 499 520 485 511 514 502 497 512 512 517 513 496 501 510 515 492 506 511 506 488 484 505 525 495 473 476 516 495 494 0 0 0 0 0 0
0 0 0 0 0 0 0 0 0 0 0 0 0 0 0 0 0 0 0 0 0 0 0 0 0 0 0 0 506 465 466 470 464 464 470 469 468 476 475 477 478 476 479 477 477 480 472 483 484 482 483 485 486 482 485 478 487 480 482 483 487 488 485 486 483 486 488 487 485 484 487 481 473 489 484 488 466 490 483 497 486 484 478 495 495 505 510 478 483 501 478 490 488 519 473 472 496 487 499 475 489 474 484 480 473 464 497 474 465 452 467 478 448 477 453 0 0 0 0 0
0 0 0 0 0 246 232 235 293 0 0 0 0 0 0 0 0 0 0 0 0 0 0 0 0 0 0 0 0 481 465 465 469 470 464 472 471 469 471 475 470 477 479 472 475 472 477 478 478 475 480 479 480 483 484 484 483 482 485 482 483 488 482 482 485 487 486 482 481 487 480 480 475 473 472 472 488 482 472 481 482 486 483 474 469 481 474 484 469 481 485 474 473 469 469 488 483 463 467 462 475 481 481 477 450 505 453 460 436 455 466 445 467 416 433 406 0 0 0 0
0 0 0 0 237 228 234 235 233 292 358 0 0 0 0 0 0 0 0 0 0 0 0 0 0 0 0 0 0 0 464 465 464 466 464 472 477 468 476 475 470 475 474 473 475 479 479 478 476 482 481 482 483 482 482 484 483 486 482 483 479 485 484 485 483 486 482 485 482 481 475 478 472 493 484 488 487 480 472 486 483 475 486 476 498 492 473 483 490 501 498 476 472 493 498 476 464 490 499 513 494 482 478 482 504 463 454 463 481 455 464 499 442 0 0 0 0 0 0 0
0 0 0 201 221 226 221 221 233 235 327 0 0 0 0 0 0 0 0 0 0 0 0 0 0 0 0 0 0 0 0 449 453 466 459 463 464 466 466 467 472 467 472 469 475 468 469 476 475 473 472 475 480 472 483 475 481 475 482 480 480 483 479 483 478 483 482 478 476 478 470 477 482 469 474 480 454 475 470 471 472 472 478 468 475 469 473 457 471 479 465 486 480 459 474 472 462 468 465 463 465 464 474 445 449 452 440 440 447 469 445 432 436 404 419 0 0 0 0 0
199 213 291 254 268 284 266 236 239 234 296 0 414 430 431 391 402 414 426 419 469 470 445 438 440 449 447 453 451 448 451 462 461 463 459 462 463 461 470 465 462 468 472 464 476 472 472 470 475 472 478 483 481 475 481 483 484 478 481 482 476 476 472 475 481 473 483 480 486 484 484 481 470 479 470 467 472 474 469 465 479 469 477 447 469 476 483 487 475 477 490 463 472 464 473 478 475 479 462 477 474 469 479 478 481 455 443 481 467 451 462 466 447 461 485 0 0 0 0 0
206 225 212 237 255 265 287 232 230 264 402 443 405 406 410 408 433 414 409 417 410 428 418 431 434 447 440 436 443 443 454 458 458 462 454 455 459 465 463 460 459 464 459 462 465 464 470 469 469 477 465 472 476 473 472 472 470 471 472 477 476 475 475 473 475 477 478 475 469 473 477 466 468 466 463 467 464 461 470 466 471 458 456 458 464 459 462 457 459 458 458 475 455 470 462 481 477 476 460 473 459 452 457 503 470 454 446 462 461 471 464 459 462 470 508 474 503 0 0 0
179 195 223 210 241 221 231 224 231 302 401 362 364 377 382 371 351 362 381 392 380 370 387 402 403 399 424 414 429 438 443 447 446 440 445 445 442 448 440 449 449 451 454 448 451 450 446 459 452 454 459 457 456 456 462 455 458 455 461 461 462 465 458 463 464 456 457 451 459 455 462 454 446 451 441 427 430 433 432 428 430 432 422 437 417 432 424 420 430 433 410 427 428 429 436 419 420 429 427 418 415 427 414 425 430 394 415 423 418 405 422 401 414 419 407 372 414 380 365 0
282 314 248 221 230 229 230 234 261 363 327 340 355 341 348 357 357 342 348 354 373 360 376 384 372 388 394 400 417 425 421 423 427 429 432 428 432 436 428 432 432 438 432 427 434 436 438 436 445 440 446 443 442 449 445 450 444 451 446 444 445 443 445 446 446 444 444 442 444 439 434 433 434 432 418 412 409 408 409 405 395 396 397 398 403 397 397 402 416 402 399 393 400 395 405 388 407 398 403 392 403 418 411 414 403 410 404 399 391 394 392 404 407 383 400 418 381 380 418 439
294 292 273 235 230 233 232 246 294 296 304 297 302 300 299 318 322 309 310 326 324 320 331 334 351 360 378 383 396 392 396 401 407 410 405 408 412 411 407 409 418 412 409 412 412 408 410 423 421 419 415 414 422 419 418 421 419 421 419 421 427 418 416 416 417 422 420 420 413 416 416 410 399 403 399 392 377 378 369 360 370 365 358 361 369 357 364 365 360 374 366 361 362 354 369 367 348 355 350 348 356 357 368 361 362 373 346 372 365 342 352 349 362 371 355 367 369 361 351 318
276 278 284 261 263 245 249 282 281 285 261 275 274 293 279 293 269 278 283 283 294 305 306 313 327 351 358 373 365 380 395 382 389 388 385 383 394 391 395 388 389 392 394 387 393 391 397 389 391 387 392 397 398 400 399 390 393 396 397 398 391 398 394 391 397 391 395 397 399 397 388 390 382 378 372 356 359 345 333 330 325 318 326 334 332 334 338 337 324 331 331 330 326 336 332 324 322 319 335 327 323 324 325 336 336 347 335 346 337 311 325 326 315 322 344 331 309 326 311 315
242 238 237 260 243 250 258 254 254 262 252 255 261 260 271 263 262 271 267 272 266 285 296 299 312 316 324 338 347 352 362 362 361 359 359 368 368 366 371 368 374 365 364 372 373 373 369 374 361 367 382 375 373 378 381 380 372 376 377 373 380 373 370 374 376 368 371 373 377 372 367 365 361 358 353 338 329 326 313 305 305 300 300 298 313 303 301 307 293 297 294 306 304 304 306 300 294 289 298 314 299 296 299 309 309 308 298 311 294 303 302 300 308 310 297 283 322 312 289 306
216 229 226 231 227 235 234 232 240 234 237 243 244 235 238 240 233 248 244 243 251 261 266 278 291 293 308 310 328 333 334 325 345 342 345 342 347 338 340 344 347 345 348 344 350 347 350 346 348 340 339 341 343 357 355 346 352 349 350 344 350 352 350 343 349 344 346 343 342 341 344 338 339 334 326 323 309 297 285 283 282 275 276 275 279 273 267 276 272 273 275 278 272 278 270 277 269 264 277 281 285 269 267 273 276 274 282 265 275 273 264 272 272 265 254 274 265 257 253 255
225 217 227 230 227 218 229 223 224 243 234 233 227 238 228 237 238 236 236 238 246 249 256 259 277 280 297 296 301 308 310 317 326 314 321 316 319 323 320 327 321 324 319 321 324 323 325 327 326 327 323 326 330 326 332 325 326 322 334 330 327 333 324 330 326 327 331 328 325 322 319 322 323 310 309 300 288 274 272 272 268 258 263 263 261 264 259 256 251 260 257 256 255 253 255 261 255 250 254 258 261 259 262 261 258 262 262 268 260 272 264 275 270 278 267 281 269 255 256 258
212 204 204 216 218 213 210 220 215 216 215 205 219 216 211 218 214 223 221 224 228 232 243 254 258 267 274 275 279 290 287 295 292 294 298 296 297 300 305 308 302 306 297 306 301 302 300 305 310 307 307 303 304 308 298 307 309 310 303 305 304 302 310 305 304 304 305 299 302 303 296 299 300 288 291 286 267 264 260 254 249 241 248 249 244 251 243 243 241 244 248 247 239 235 248 240 247 239 248 240 244 245 255 251 248 238 244 247 240 247 247 265 269 262 260 264 277 286 236 256
181 183 204 199 202 205 205 214 200 207 202 204 204 203 204 190 213 209 211 206 217 223 231 230 242 245 251 260 272 269 268 269 273 274 274 280 278 281 283 280 276 280 286 290 280 277 279 281 283 283 285 281 279 284 283 285 288 285 283 284 282 287 286 287 284 290 284 281 282 283 283 278 277 273 265 266 255 241 243 243 232 234 226 232 231 228 225 224 228 225 229 223 225 230 225 232 230 221 226 227 232 227 229 227 223 217 234 228 235 232 236 238 249 247 241 226 241 233 233 237
177 198 192 191 188 194 184 208 188 188 187 182 181 184 180 179 188 185 193 208 212 214 227 231 231 233 241 240 249 250 255 259 263 257 266 259 262 260 268 267 267 261 265 269 263 265 267 275 265 268 266 270 270 267 268 267 263 270 264 274 267 265 267 271 271 272 272 271 268 262 267 259 257 256 254 245 239 232 226 220 222 216 221 221 221 226 221 217 216 215 217 213 221 215 215 225 213 210 213 216 217 221 216 215 209 212 217 215 218 220 218 240 234 238 226 220 247 212 235 239
172 173 171 174 180 170 180 176 178 181 178 179 176 178 177 184 179 185 189 186 184 193 210 218 213 216 224 222 229 232 235 240 241 241 241 240 239 245 247 246 247 246 251 246 251 251 245 242 244 251 251 253 243 251 243 245 251 250 245 249 249 244 250 245 243 252 248 245 243 250 244 243 239 239 235 228 217 216 213 214 196 196 195 184 190 194 195 195 194 192 190 196 198 181 189 189 183 205 190 194 185 208 187 189 194 187 201 201 207 204 202 193 211 199 199 200 218 204 215 222
171 173 174 173 174 175 173 175 171 173 175 173 176 177 179 174 175 176 187 183 182 183 183 191 208 192 212 217 216 221 227 226 226 224 228 224 229 236 230 229 225 230 233 231 232 235 229 233 231 234 235 236 239 232 235 233 233 240 236 235 234 237 239 234 234 233 234 230 232 236 232 230 228 222 220 216 211 194 186 199 193 197 193 191 192 193 193 192 184 194 192 193 191 188 190 181 190 188 189 181 187 181 178 183 184 178 177 183 177 186 177 182 193 186 189 209 209 197 177 199
165 161 170 166 173 172 171 168 166 165 169 164 169 169 173 170 173 175 174 181 177 182 178 181 184 186 189 189 193 208 214 213 209 208 212 215 216 214 211 198 217 220 219 215 215 221 218 220 219 225 217 221 219 217 220 224 222 223 218 226 220 223 223 219 216 216 219 218 220 218 223 218 215 213 194 193 188 197 192 185 188 186 187 188 185 181 190 183 182 185 184 179 186 180 181 184 180 177 188 182 178 187 183 183 182 179 182 181 174 178 182 181 185 176 200 175 173 191 194 171
148 153 160 158 156 159 158 161 162 164 160 153 157 159 158 158 161 169 168 174 174 171 182 178 183 191 184 193 191 184 192 188 184 185 184 192 184 186 197 189 194 190 191 195 195 197 198 192 190 192 194 194 195 195 196 191 195 190 194 194 196 197 197 189 195 193 193 193 193 193 195 194 196 188 198 193 191 192 186 182 176 177 174 175 172 171 172 176 179 176 176 172 174 172 168 172 169 169 169 163 168 171 170 171 171 171 168 167 169 173 169 165 169 168 170 168 164 176 170 158
148 151 153 153 161 160 157 161 154 156 156 154 158 153 156 156 161 164 159 167 168 167 179 177 177 181 179 182 181 187 189 191 188 192 186 186 190 192 190 192 194 194 190 196 190 197 197 197 196 192 194 196 196 196 198 195 198 200 198 199 198 195 199 191 195 195 195 197 189 195 198 192 191 193 188 184 187 183 178 172 171 170 168 163 167 167 170 169 171 169 168 168 174 170 170 168 165 167 165 173 168 169 173 168 169 163 164 167 168 170 168 164 170 166 175 171 160 168 175 168
149 141 148 144 150 150 149 150 151 149 148 147 150 155 152 148 154 155 157 158 162 166 166 174 173 168 174 175 176 180 178 175 182 178 178 179 183 180 183 187 185 185 188 187 185 185 186 187 188 185 184 190 187 187 189 188 187 189 0 190 191 188 186 186 187 189 191 186 186 186 184 182 186 178 174 175 177 174 169 161 164 161 164 162 160 162 165 160 163 164 160 159 162 163 162 164 156 158 163 160 160 163 162 156 157 157 159 156 158 159 163 162 151 164 162 170 167 165 158 171
135 136 139 142 140 147 147 144 143 146 145 145 141 144 145 145 144 148 143 152 156 160 160 162 169 165 169 170 170 168 171 173 175 174 170 172 175 171 173 175 178 181 176 176 174 178 175 178 176 178 177 178 179 179 181 177 181 0 0 178 177 177 180 178 181 177 178 180 181 174 175 176 171 174 170 171 168 167 164 161 164 157 155 155 156 160 155 156 156 154 151 154 155 154 152 158 151 152 153 157 155 156 149 155 148 149 148 150 156 165 154 153 145 154 151 153 151 144 147 173
136 137 130 138 144 147 152 142 140 139 141 144 145 144 141 141 139 148 147 146 151 156 156 157 162 159 162 163 169 166 164 168 169 170 161 169 165 169 167 169 173 0 173 0 173 173 174 171 176 173 175 175 173 173 176 0 177 175 0 173 173 0 174 177 171 170 175 170 175 170 169 169 171 171 168 164 164 161 159 154 152 153 154 149 153 151 152 151 150 156 149 155 149 150 149 151 154 151 155 149 149 149 148 151 148 146 143 145 147 149 151 147 151 160 151 154 153 167 157 171
129 125 129 115 134 138 142 135 135 120 132 133 127 126 137 137 139 136 139 141 141 144 150 152 152 157 159 157 160 159 161 157 159 160 155 154 163 165 0 0 0 0 0 0 0 0 0 164 165 166 167 165 169 168 0 0 168 167 168 0 0 0 0 0 168 165 167 0 162 163 162 162 161 159 157 156 154 157 149 150 150 145 148 148 141 150 143 144 149 146 144 147 144 145 141 138 142 145 141 145 138 142 141 138 139 136 135 138 140 139 142 141 146 151 153 142 136 144 145 159
124 128 124 117 127 132 137 131 138 131 127 132 123 133 125 124 121 136 137 138 139 143 147 144 151 148 154 151 152 155 153 157 157 156 152 156 155 0 0 0 0 0 0 0 0 0 0 0 156 161 162 160 0 0 0 0 0 0 0 0 0 0 0 0 0 0 0 0 0 0 0 156 159 156 155 150 150 151 149 145 140 144 145 145 140 139 144 128 145 139 135 138 137 142 139 137 141 143 138 142 138 139 140 134 130 128 134 133 140 140 136 149 139 139 133 135 142 115 127 156
114 108 118 123 129 129 128 128 127 129 131 129 124 120 119 129 132 131 129 135 134 133 133 143 140 140 145 143 145 151 149 148 151 151 150 150 0 0 0 0 0 0 0 0 0 0 0 0 154 155 155 0 0 0 0 0 0 0 0 0 0 0 0 0 0 0 0 0 0 0 0 0 149 152 150 147 145 144 140 144 139 141 127 130 128 127 136 138 138 132 138 138 131 127 123 130 139 138 134 134 129 141 133 124 132 137 129 132 136 141 137 137 136 147 142 134 138 130 121 141
103 109 113 109 108 112 117 117 116 119 118 113 115 117 127 123 123 118 118 116 121 124 125 123 135 139 139 141 143 144 146 142 141 146 147 142 0 0 0 0 0 0 0 0 0 0 0 0 146 0 0 0 0 0 0 0 0 0 0 0 0 0 0 0 0 0 0 0 0 0 0 0 145 140 140 130 140 131 127 138 124 120 121 124 136 121 124 123 120 127 123 124 115 135 125 127 124 134 119 117 119 130 133 118 122 118 116 119 132 129 120 132 124 128 113 131 106 109 100 108
115 108 116 114 115 113 116 118 121 121 116 120 114 117 118 123 120 127 122 116 118 114 122 117 136 136 135 138 0 136 0 0 0 137 140 0 0 0 0 0 0 0 0 0 0 0 0 0 0 0 0 0 0 0 0 0 0 0 0 0 0 0 0 0 0 0 0 0 0 0 0 0 0 143 123 125 124 127 118 124 119 119 120 128 116 121 119 118 119 117 119 125 117 117 113 123 118 120 124 120 120 121 130 119 131 116 114 120 114 131 130 112 131 117 134 129 113 135 132 151
103 98 108 112 107 103 107 103 100 105 109 107 107 107 106 110 109 112 115 110 112 116 114 117 122 121 125 120 123 126 129 0 0 0 124 0 0 0 0 0 0 0 0 0 0 0 0 0 0 0 0 0 0 0 0 0 0 0 0 0 0 0 0 0 0 0 0 0 0 0 0 0 134 0 122 125 121 120 122 119 118 116 108 117 115 114 106 110 110 112 114 114 111 116 112 104 112 113 113 110 113 111 112 117 112 120 108 110 123 107 111 113 107 118 124 104 122 121 111 139
98 100 94 96 103 100 103 101 101 103 101 102 106 107 106 104 106 106 116 107 108 114 107 109 117 111 114 116 119 123 0 124 0 0 0 0 0 0 0 0 0 0 0 0 0 0 0 0 0 0 0 0 0 0 0 0 0 0 0 0 0 0 0 0 0 0 0 0 0 0 0 0 0 126 0 115 121 114 114 112 113 111 106 103 111 108 107 115 107 109 116 112 109 112 106 114 109 107 102 117 109 105 109 102 106 109 105 108 117 117 101 103 114 107 103 121 105 103 107 125
98 106 99 102 97 97 102 93 95 99 100 97 101 94 103 97 105 102 114 115 115 107 99 110 114 108 112 115 115 120 121 119 122 0 0 0 0 0 0 0 0 0 0 0 0 0 0 0 0 0 0 0 0 0 0 0 0 0 0 0 0 0 0 0 0 0 0 0 0 0 0 0 121 124 110 123 114 120 121 116 109 111 105 118 108 109 106 103 104 107 105 110 112 92 101 100 106 104 113 106 105 116 110 108 109 112 105 91 108 103 103 103 105 100 108 102 154 132 130 138
86 81 81 87 79 82 81 94 87 79 85 87 98 96 88 89 77 95 91 88 86 86 103 105 98 104 115 107 0 0 105 106 118 0 0 0 0 0 0 0 0 0 0 0 0 0 0 0 0 0 0 0 0 0 0 0 0 0 0 0 0 0 0 0 0 0 0 0 0 0 0 115 110 110 105 112 110 103 104 99 101 103 97 89 101 94 88 100 105 98 91 98 102 85 82 97 96 103 86 96 87 95 90 91 82 87 92 92 92 83 90 87 83 94 93 89 96 82 101 129
92 84 89 91 95 96 100 105 92 95 96 92 92 89 97 94 98 89 99 97 94 103 106 99 101 105 110 109 0 106 113 110 117 111 120 108 0 0 0 0 0 120 0 0 0 0 0 0 0 0 0 0 0 0 0 0 0 0 0 0 114 0 0 0 112 0 0 0 108 0 107 109 115 109 116 107 105 110 102 99 111 101 109 87 97 102 107 105 101 107 107 107 109 102 101 102 100 94 99 110 101 98 95 98 94 104 100 89 89 84 95 94 93 93 98 95 112 125 117 144
84 89 90 88 96 98 92 90 84 95 85 92 86 90 87 85 94 97 97 94 99 94 95 111 92 107 104 103 105 105 92 0 106 100 97 103 0 115 115 0 105 0 0 0 0 0 0 0 0 0 0 0 0 0 0 0 0 106 0 0 107 105 106 111 114 114 105 100 113 109 108 103 104 98 112 105 100 88 101 99 93 96 101 86 95 92 93 104 108 94 101 106 109 88 84 86 89 92 94 84 92 83 93 95 87 90 101 89 94 86 91 92 84 91 97 90 109 144 131 127
84 87 83 89 92 94 100 89 89 79 86 88 88 92 92 87 87 88 88 88 77 90 95 83 83 89 94 93 104 91 95 99 99 99 92 110 99 102 103 100 104 94 98 108 106 89 0 0 94 0 0 107 105 95 100 106 104 104 106 102 98 105 108 99 99 111 99 95 99 107 97 104 104 98 106 91 93 97 95 88 94 96 97 96 95 96 87 95 94 95 100 88 95 93 93 90 85 92 92 81 87 88 89 88 86 89 92 86 83 90 86 87 87 92 75 82 99 81 84 86
84 82 86 84 86 82 100 102 88 83 85 81 82 88 83 88 90 93 91 96 84 97 95 95 93 94 95 94 99 99 94 88 96 95 97 94 96 100 96 107 102 97 97 105 103 95 107 0 105 101 99 105 99 98 98 100 101 107 94 103 106 96 95 107 104 101 98 102 95 105 98 103 102 92 109 87 93 93 98 86 98 95 85 93 98 99 87 95 93 89 95 97 87 91 83 82 94 89 99 94 93 98 82 88 92 102 98 103 93 90 87 100 106 98 117 105 132 110 129 121
81 74 67 69 79 84 89 88 89 82 88 81 85 79 88 83 87 85 88 86 93 85 94 89 88 85 94 94 95 93 91 94 80 93 92 88 98 96 90 86 92 89 84 91 86 92 91 103 98 89 95 98 95 91 89 85 102 89 101 97 97 98 84 96 98 98 97 94 98 98 91 88 91 94 83 95 94 95 94 96 87 93 80 87 87 84 85 91 85 89 89 78 89 81 88 91 84 77 81 89 81 85 82 72 83 82 91 87 86 83 73 87 87 85 95 128 131 92 140 80
72 71 82 87 75 87 81 88 87 78 84 87 81 82 83 88 86 88 83 88 87 90 83 91 86 86 93 83 94 88 85 94 92 99 89 90 87 95 88 96 95 96 96 88 85 102 90 94 98 92 91 96 95 84 99 93 90 98 90 96 97 84 88 93 90 96 90 97 107 93 84 98 85 97 96 97 92 85 97 93 92 89 91 90 79 87 89 80 94 92 77 91 76 78 89 84 89 88 82 84 88 83 82 77 76 85 84 87 89 91 86 87 87 85 94 87 117 90 85 156
