0 0 0 0 0 0 0 0 0 0 0 0 0 0 0 0 0 0 0 0 0 0 0 0 0 0 0 0 0 0 0 0 0 0 0 0 0 0 0 0 0 0 0 0 0 0 0 0 0 0 0 0 0 0 0 0 0 0 0 0 0 0 0 0 0 0 0 0 0 0 0 0 0 0 0 0 0 0 0 0 0 0 0 0 0 0 0 0 0 0 0 0 0 0 0 0 0 0 0 0 0 0 0 0 0 0 0 0 0 0 0 0 0 0 0 0 0 0 0 0
0 0 0 0 0 0 0 0 0 0 0 0 0 0 0 0 0 0 0 0 0 0 0 0 0 0 0 0 0 0 0 0 0 0 0 0 0 0 0 0 0 0 0 0 0 0 0 0 0 0 0 0 0 0 0 0 0 0 0 0 0 0 0 0 0 0 0 0 0 0 0 0 0 0 0 0 0 0 0 0 0 0 0 0 0 0 0 0 0 0 0 0 0 0 0 0 0 0 0 0 0 0 0 0 0 0 0 0 0 0 0 0 0 0 0 0 0 0 0 0
0 0 0 0 0 0 0 0 0 0 0 0 0 0 0 0 0 0 0 0 0 0 0 0 0 0 0 0 0 0 0 0 0 0 0 0 0 0 0 0 0 0 0 0 0 0 0 0 0 0 0 0 0 0 0 0 0 0 0 0 0 0 0 0 0 0 0 0 0 0 0 0 0 0 0 0 0 0 0 0 0 0 0 0 0 0 0 0 0 0 0 0 0 0 0 0 0 0 0 0 0 0 0 0 0 0 0 0 0 0 0 0 0 0 0 0 0 0 0 0
0 0 0 0 0 0 0 0 0 0 0 0 0 0 0 0 0 0 0 0 0 0 0 0 0 0 0 0 0 0 0 0 0 0 0 0 0 0 0 0 0 0 0 0 0 0 0 0 0 0 0 0 0 0 0 0 0 0 0 0 0 0 0 0 0 0 0 0 0 0 0 0 0 0 0 0 0 0 0 0 0 0 0 0 0 0 0 0 0 0 0 0 0 0 0 0 0 0 0 0 0 0 0 0 0 0 0 0 0 0 0 0 0 0 0 0 0 0 0 0
0 0 0 0 0 0 0 0 0 0 0 0 0 0 0 0 0 0 0 0 0 0 0 0 0 0 0 0 0 0 0 0 0 0 0 0 0 0 0 0 0 0 0 0 0 0 0 0 0 0 0 0 0 0 0 0 0 0 0 0 0 0 0 0 0 0 0 0 0 0 0 0 0 0 0 0 0 0 0 0 0 0 0 0 0 0 0 0 0 0 0 0 0 0 0 0 0 0 0 0 0 0 0 0 0 0 0 0 0 0 0 0 0 0 0 0 0 0 0 0
0 0 0 0 0 0 0 0 0 0 0 0 0 0 0 0 0 0 0 0 0 0 0 0 0 0 0 0 0 0 0 0 0 0 0 0 0 0 0 509 517 503 498 513 503 519 514 507 502 502 508 499 510 545 533 0 0 0 0 0 0 0 0 0 0 0 0 0 0 0 0 0 0 0 0 0 0 0 0 0 0 0 0 0 0 0 0 0 0 0 0 0 0 0 0 0 0 0 0 0 0 0 0 0 0 0 0 0 0 0 0 0 0 0 0 0 0 0 0 0
0 0 0 0 0 0 0 0 0 0 0 0 0 0 0 0 0 0 0 0 0 0 0 0 0 0 0 0 0 0 0 0 0 0 0 0 0 499 507 509 526 487 506 500 495 509 507 515 514 504 500 505 503 519 509 508 522 508 537 466 0 0 0 0 0 0 0 0 0 0 0 0 0 0 0 0 0 0 0 0 0 0 0 0 0 0 0 0 0 0 0 0 0 0 0 0 0 0 0 0 0 0 0 0 0 0 0 0 0 0 0 0 0 0 0 0 0 0 0 0
0 0 0 0 0 0 0 0 0 0 0 0 0 0 0 0 0 0 0 0 0 0 0 0 0 0 0 0 0 0 0 0 0 0 0 549 514 517 509 504 516 516 495 498 503 505 513 527 503 510 504 515 538 507 519 516 524 517 519 514 525 539 516 536 549 0 0 0 0 0 0 0 0 0 0 0 0 0 0 0 0 0 0 0 0 0 0 0 0 0 0 0 0 0 0 0 0 0 0 0 0 0 0 0 0 0 0 0 0 0 0 0 0 0 0 0 0 0 0 0
0 0 0 0 0 0 0 0 0 0 0 0 0 0 0 0 0 0 0 0 0 0 0 0 0 0 0 0 0 0 0 0 0 522 506 508 495 515 500 497 517 505 500 492 496 497 504 505 508 519 498 493 511 500 495 509 504 503 501 517 509 509 494 505 503 518 506 518 552 563 540 592 544 0 593 595 595 565 544 518 0 0 0 0 0 0 0 0 0 0 0 0 0 0 0 0 0 0 0 0 0 0 0 0 0 0 0 0 0 0 0 0 0 0 0 0 0 0 0 0
0 0 0 0 0 0 0 0 0 0 0 0 0 0 0 0 0 0 0 0 0 0 0 0 0 0 0 0 0 0 0 505 503 506 490 503 496 509 518 493 510 501 499 507 503 495 496 509 512 507 496 503 516 503 510 507 501 497 500 502 515 493 515 514 504 527 517 525 525 568 543 569 567 550 574 593 580 585 578 576 572 572 549 653 591 576 520 588 560 588 591 525 573 588 596 557 591 563 580 553 524 543 574 581 0 532 0 0 0 0 0 0 0 0 0 0 0 0 0 0
0 0 0 0 0 0 0 0 0 0 0 0 0 0 0 0 0 0 0 0 0 0 0 0 0 0 0 0 0 0 525 501 507 492 493 501 511 494 498 502 503 507 496 512 508 516 508 507 502 511 500 507 516 510 507 516 506 509 500 513 516 507 517 509 517 505 523 508 521 502 576 544 596 569 577 557 623 553 566 602 598 595 540 591 533 595 616 560 622 587 581 590 577 642 544 596 560 612 590 577 588 579 590 627 588 599 601 0 0 0 0 0 0 0 0 0 0 0 0 0
0 0 0 0 0 0 0 0 0 0 0 0 0 0 0 0 0 0 0 0 0 0 0 0 0 0 0 0 466 493 503 496 502 507 499 484 485 492 502 494 502 512 493 496 508 505 506 502 497 508 500 503 499 504 496 507 500 510 504 500 499 506 503 499 518 505 511 500 506 514 503 534 517 538 531 532 502 519 552 532 555 536 536 513 507 554 511 475 530 532 548 525 565 500 555 560 533 542 522 554 524 566 550 558 511 536 532 540 518 0 0 0 0 0 0 0 0 0 0 0
0 0 0 0 0 0 0 0 0 0 0 0 0 0 0 0 0 0 0 0 0 0 0 0 0 0 0 500 517 502 495 492 513 512 495 499 503 507 505 500 505 498 506 512 512 507 506 505 508 504 501 515 512 505 509 512 501 519 505 513 511 503 511 517 513 508 511 515 513 512 513 516 551 556 580 547 567 561 554 567 529 526 581 567 575 557 559 588 577 578 557 580 552 586 551 525 548 524 554 549 516 555 519 571 578 568 531 549 535 0 0 0 0 0 0 0 0 0 0 0
0 0 0 0 0 0 0 0 0 0 0 0 0 0 0 0 0 0 0 0 0 0 0 0 0 0 499 506 506 495 495 504 508 492 501 498 499 490 516 508 495 503 500 507 496 516 492 498 499 510 501 510 508 506 507 501 504 511 510 506 509 513 505 512 497 513 509 503 509 515 510 528 517 565 572 519 571 556 564 536 588 570 562 558 600 586 548 547 558 578 573 518 557 562 586 570 554 591 568 580 561 531 546 545 571 550 571 570 545 0 0 0 0 0 0 0 0 0 0 0
0 0 0 0 0 0 0 0 0 0 0 0 0 0 0 0 0 0 0 0 0 0 0 0 0 490 485 484 498 494 495 494 499 493 495 498 498 490 511 489 499 491 510 504 505 499 503 499 503 506 493 502 512 505 502 502 506 502 500 503 509 505 510 510 505 504 505 505 511 512 513 510 516 513 528 542 521 522 513 550 500 503 535 547 516 571 552 536 494 538 528 525 489 506 519 531 534 539 531 541 525 518 515 508 496 506 501 546 549 512 463 0 0 0 0 0 0 0 0 0
0 0 0 0 0 0 0 0 0 0 0 0 0 0 0 0 0 0 0 0 0 0 0 0 0 484 493 503 491 498 493 505 493 508 503 495 505 501 506 502 497 504 505 500 498 503 509 504 499 509 495 511 509 496 508 504 508 501 516 508 503 499 509 511 516 503 518 511 507 510 507 514 512 517 564 572 542 571 577 556 559 547 586 572 549 554 560 576 539 565 566 579 551 555 580 545 542 543 576 540 593 549 537 550 557 565 607 554 600 565 585 562 598 597 0 0 0 0 0 0
0 0 0 0 0 0 0 0 0 0 0 0 0 0 0 0 0 0 0 0 0 0 0 0 487 488 493 493 487 487 491 499 502 496 491 499 496 499 496 499 500 501 491 500 512 506 502 496 498 499 502 504 499 502 497 508 498 506 500 510 498 500 508 512 505 508 502 509 504 511 502 502 516 505 520 539 533 529 523 534 510 550 531 532 546 515 518 529 529 508 542 525 545 509 514 490 545 540 508 511 525 539 525 510 524 535 488 489 547 486 514 0 0 0 0 0 0 0 0 0
0 0 0 0 0 0 0 0 0 0 0 0 0 0 0 0 0 0 0 0 0 0 0 0 472 483 499 491 497 493 491 495 493 491 489 497 503 490 496 506 495 497 498 501 491 505 506 500 499 500 493 505 509 506 497 498 506 504 506 505 502 500 503 509 505 510 510 498 509 509 498 511 509 507 506 506 515 539 519 520 502 531 540 513 522 501 499 546 552 510 497 491 517 531 554 514 526 554 543 549 563 526 518 516 515 527 529 508 527 511 0 0 0 0 0 0 0 0 0 0
0 0 0 0 0 0 0 0 0 0 0 0 0 0 0 0 0 0 0 0 0 0 0 480 494 501 493 493 489 489 496 497 495 502 491 499 493 501 500 494 499 495 500 493 497 512 503 504 503 504 504 504 502 508 506 508 507 509 507 493 510 496 506 505 501 502 510 515 503 502 515 498 504 512 504 518 526 536 537 534 560 549 529 537 544 552 547 545 563 520 560 562 569 525 555 530 525 547 528 526 556 518 551 557 552 544 550 519 549 481 518 0 0 0 0 0 0 0 0 0
0 0 0 0 0 0 0 0 0 0 0 0 0 0 0 0 0 0 0 0 0 0 0 471 478 483 484 486 484 494 494 488 482 493 491 487 492 491 481 496 484 499 499 498 499 492 501 496 501 502 498 501 492 499 499 512 500 506 496 505 502 506 500 504 503 493 495 508 509 499 510 502 508 508 499 508 512 544 488 521 509 506 492 515 526 530 511 529 502 511 499 523 528 513 512 538 519 511 541 545 509 501 527 531 483 505 560 531 511 503 500 0 0 0 0 0 0 0 0 0
0 0 0 0 0 0 0 0 0 0 0 0 0 0 0 0 0 0 0 0 0 0 447 496 495 486 494 490 484 486 487 507 492 492 487 494 497 497 493 498 496 498 495 500 498 492 505 493 499 499 496 497 501 494 509 507 507 497 504 501 503 508 514 505 497 505 505 501 499 506 506 508 507 500 500 507 510 528 556 523 527 535 558 541 540 508 525 540 554 534 527 538 534 529 525 535 508 522 536 520 521 530 535 525 525 550 521 533 495 516 525 471 518 0 0 0 0 0 0 0
0 0 0 0 0 0 0 0 0 0 0 0 0 0 0 0 0 0 0 0 0 0 490 499 492 490 489 488 498 500 489 495 497 489 489 498 488 497 490 495 501 506 495 505 506 502 506 501 508 499 500 505 505 500 502 504 506 509 502 506 507 503 502 507 509 508 509 517 512 500 512 505 516 512 509 508 518 531 547 527 536 510 528 521 532 510 539 541 555 559 549 545 533 531 563 539 563 556 537 538 529 541 522 524 556 542 551 557 520 549 562 521 0 0 0 0 0 0 0 0
0 0 0 0 0 0 0 0 0 0 0 0 0 0 0 0 0 0 0 0 0 0 485 479 484 485 492 481 498 488 492 488 494 486 490 491 486 500 486 491 492 499 498 495 491 492 494 496 500 500 496 500 499 498 497 499 508 500 510 500 505 497 507 502 505 503 512 496 501 506 506 497 511 493 509 511 501 506 495 513 516 536 508 495 503 523 541 503 529 502 488 522 512 510 518 495 490 537 510 541 532 491 508 528 497 509 510 501 546 536 517 514 508 510 0 0 0 0 0 0
0 0 0 0 0 0 0 0 0 0 0 0 0 0 0 0 0 0 0 0 0 0 492 491 497 486 492 496 490 497 494 492 490 488 494 491 489 492 504 484 491 495 497 498 497 501 504 498 497 504 507 510 498 502 496 506 505 501 505 506 508 506 505 509 500 507 506 504 502 497 515 507 508 509 506 515 514 512 513 545 529 530 503 538 540 543 528 537 539 536 526 539 566 566 506 556 535 543 539 580 562 577 555 554 548 534 562 524 534 512 526 557 562 0 0 0 0 0 0 0
0 0 0 0 0 0 0 0 0 0 0 0 0 0 0 0 0 0 0 0 0 0 491 474 479 484 489 492 499 495 489 494 490 492 495 482 490 493 487 495 496 494 509 502 489 498 498 492 496 504 500 498 498 500 501 502 505 501 506 502 505 511 504 507 506 501 502 502 504 502 513 511 510 501 507 507 510 517 522 516 505 520 510 511 525 500 519 523 530 519 503 498 532 506 536 513 535 520 522 499 527 534 519 550 527 522 529 538 507 483 519 472 507 0 0 0 0 0 0 0
0 0 0 0 0 0 0 0 0 0 0 0 0 0 0 0 0 0 0 0 0 0 480 471 481 484 489 489 483 487 481 485 484 485 497 485 485 486 498 491 493 497 490 495 494 491 491 503 495 492 500 493 501 498 493 497 504 503 498 501 506 496 505 494 503 502 499 498 497 498 500 498 499 507 501 503 502 502 507 493 499 510 494 530 529 493 497 503 514 511 527 481 519 514 479 520 511 512 498 512 527 522 506 502 490 524 476 497 511 438 468 464 509 497 0 0 0 0 0 0
0 0 0 0 0 0 0 0 0 0 0 0 0 0 0 0 0 0 0 0 0 449 488 493 484 480 483 487 496 485 487 494 487 498 501 483 496 499 487 495 490 503 495 497 496 495 494 498 492 496 495 502 498 498 500 496 499 506 501 501 506 503 500 505 502 506 502 504 506 509 505 500 506 513 516 507 507 497 508 537 522 493 514 528 524 527 517 516 547 519 508 480 521 530 517 498 531 520 568 564 542 554 487 541 558 540 516 512 537 531 503 0 0 0 0 0 0 0 0 0
0 0 0 0 0 0 0 0 0 0 0 0 0 0 0 0 0 0 0 0 0 450 476 485 479 487 481 478 478 479 482 491 496 485 484 492 490 490 487 492 499 489 485 491 498 492 492 496 492 494 493 497 498 494 496 501 500 499 496 502 506 502 497 500 504 506 504 500 505 499 497 501 505 502 510 511 500 511 495 502 516 488 487 496 484 500 514 479 494 497 477 484 513 502 515 463 494 521 492 464 486 476 514 490 469 471 471 479 475 446 511 486 0 0 0 0 0 0 0 0
0 0 0 0 0 0 0 0 0 0 0 0 0 0 0 0 0 0 0 0 0 481 476 483 489 475 488 487 487 481 484 482 487 491 492 486 489 491 491 497 498 500 491 496 495 497 501 494 497 504 493 501 497 499 497 505 498 499 506 498 505 503 507 505 501 506 510 498 510 502 509 499 501 505 509 495 504 500 505 514 487 524 517 511 520 506 538 517 532 535 529 495 526 519 524 492 530 533 529 534 505 515 531 548 511 503 525 568 536 525 585 551 566 0 0 0 0 0 0 0
0 0 0 0 0 0 0 0 0 0 0 0 0 0 0 0 0 0 0 0 0 443 478 477 487 479 484 486 488 488 493 487 486 486 484 489 487 483 492 493 492 486 488 495 496 494 491 496 495 497 497 505 500 501 498 497 502 502 503 501 496 505 503 502 508 501 509 503 499 505 499 504 511 504 503 500 503 509 508 509 500 514 518 505 532 504 511 522 519 512 524 511 512 524 502 502 492 499 502 515 515 549 533 569 508 507 525 510 509 540 490 474 622 0 0 0 0 0 0 0
0 0 0 0 0 0 0 0 0 0 0 0 0 0 0 0 0 0 0 0 0 465 481 482 477 478 477 476 481 483 485 480 481 485 489 481 482 487 487 489 487 489 494 494 495 488 491 492 493 493 499 499 498 496 494 497 495 498 501 493 505 498 497 497 500 504 499 502 506 502 497 503 502 506 502 504 504 503 506 499 490 495 480 497 515 514 507 515 501 498 495 513 497 521 491 498 484 489 515 495 520 477 518 512 507 504 490 495 480 486 502 496 463 0 0 0 0 0 0 0
0 0 0 0 0 0 0 0 0 0 0 0 0 0 0 0 0 0 0 0 0 488 477 484 490 489 476 486 487 494 487 486 492 485 487 495 492 492 490 490 491 492 493 490 490 490 497 498 494 495 495 495 496 502 496 503 499 497 502 509 497 495 500 506 500 505 506 502 500 499 507 509 502 506 502 501 502 504 506 520 511 518 515 523 525 516 533 523 515 494 519 528 521 518 513 541 523 534 529 514 546 535 542 496 552 499 549 533 550 543 541 559 498 515 0 0 0 0 0 0
0 0 0 0 0 0 0 0 0 0 0 0 0 0 0 0 0 0 0 0 0 447 473 477 479 486 473 478 483 481 489 478 485 479 486 490 486 494 486 491 492 487 490 492 495 495 491 494 490 501 495 491 496 497 494 502 495 501 499 495 501 496 499 501 497 502 497 497 500 498 504 496 501 495 507 495 502 502 514 504 499 515 503 513 516 503 514 512 549 493 500 485 506 494 512 489 523 513 523 511 511 515 518 483 510 515 495 490 498 530 512 472 527 0 0 0 0 0 0 0
0 0 0 0 0 0 0 0 0 0 0 0 0 0 0 0 0 0 0 0 0 448 475 471 478 474 477 478 471 473 483 488 488 486 482 486 483 483 483 489 491 487 488 493 489 495 493 489 493 488 489 498 492 488 494 496 496 497 495 492 498 498 498 497 497 498 499 495 496 501 501 495 497 501 499 491 497 500 497 473 493 506 489 491 524 500 518 498 485 481 506 496 488 477 490 493 498 509 477 477 497 489 460 515 521 521 508 479 493 490 482 511 470 0 0 0 0 0 0 0
0 0 0 0 0 0 0 0 0 0 0 0 0 0 0 0 0 0 0 0 0 462 482 480 480 476 476 483 485 492 478 488 482 489 481 486 488 490 485 487 493 487 490 487 492 493 490 495 495 500 500 492 496 497 497 498 496 497 495 501 494 502 502 496 501 501 504 499 499 497 499 500 498 504 498 510 502 502 495 531 526 504 504 506 519 489 520 516 515 513 501 542 499 506 520 533 511 516 541 509 515 513 544 504 537 524 506 502 518 521 505 520 529 502 0 0 0 0 0 0
0 0 0 0 0 0 0 0 0 0 0 0 0 0 0 0 0 0 0 0 0 440 472 473 474 473 471 476 482 478 482 477 482 481 482 483 481 486 484 484 482 488 491 489 491 485 487 487 492 494 492 486 494 494 493 495 489 500 494 491 494 492 492 496 499 501 499 499 497 497 495 496 498 493 497 499 498 494 505 492 484 494 491 469 479 479 505 456 505 491 479 469 462 477 482 493 476 494 479 468 467 494 464 457 458 491 485 474 481 475 495 470 482 470 0 0 0 0 0 0
0 0 0 0 0 0 0 0 0 0 0 0 0 0 0 0 0 0 0 0 0 507 484 475 477 475 479 478 481 479 475 484 484 482 489 484 486 489 482 489 488 491 492 485 489 493 494 492 493 495 491 498 493 495 496 496 502 496 492 494 495 499 500 499 501 500 495 499 497 494 501 502 500 495 498 493 497 498 500 498 499 500 489 473 491 500 489 499 490 479 503 507 496 484 510 488 496 508 520 514 497 504 499 522 513 493 479 473 507 496 471 517 511 512 0 0 0 0 0 0
0 0 0 0 0 0 0 0 0 0 0 0 0 0 0 0 0 0 0 0 0 0 478 477 474 481 475 484 481 482 477 488 483 481 477 475 492 482 484 485 484 489 486 488 490 494 491 491 498 492 491 494 493 497 497 496 493 494 495 495 495 500 495 497 495 500 499 496 501 498 498 504 500 501 499 499 499 501 496 496 507 500 500 504 505 528 509 508 540 509 494 493 521 523 528 496 523 511 510 515 516 512 496 513 528 485 496 509 497 530 524 515 517 550 0 0 0 0 0 0
0 0 0 0 0 0 0 0 0 0 0 0 0 0 0 0 0 0 0 0 0 0 497 475 474 474 477 472 474 478 481 476 478 478 478 480 486 488 492 480 484 481 487 484 488 482 486 490 490 487 488 488 496 494 493 492 496 491 494 496 492 495 492 496 493 491 494 493 499 498 501 498 496 499 494 487 498 494 484 485 503 495 494 487 505 502 493 487 501 497 517 493 509 486 501 478 489 492 494 488 470 441 466 472 483 473 458 494 489 498 486 484 463 424 0 0 0 0 0 0
0 0 0 0 0 0 0 0 0 0 0 0 0 0 0 0 0 0 0 0 0 0 522 477 471 478 475 478 485 474 476 480 483 485 484 488 485 482 483 485 489 487 489 493 487 492 485 488 493 494 492 491 493 497 492 496 491 495 495 494 493 494 496 503 502 494 501 497 494 493 498 501 496 498 496 500 495 500 501 496 497 523 521 507 525 532 536 529 513 523 532 514 541 539 525 500 518 527 539 521 510 512 517 521 573 527 511 507 536 529 524 596 515 486 494 525 0 0 0 0
0 0 0 0 0 0 0 0 0 0 0 0 0 0 0 0 0 0 0 0 0 0 580 476 475 473 474 476 473 476 476 477 476 481 488 487 481 486 482 488 484 488 490 488 487 484 492 485 489 484 488 488 494 491 499 495 497 493 499 491 495 493 503 498 493 495 500 496 498 494 494 495 494 491 493 490 496 491 485 481 482 502 514 506 513 498 514 517 496 493 491 515 483 505 507 489 506 517 506 509 517 505 507 514 498 479 505 483 494 501 463 456 468 526 491 0 0 0 0 0
0 0 0 0 0 0 0 0 0 0 0 0 0 0 0 0 0 0 0 0 0 0 754 472 468 475 477 474 471 474 476 480 478 485 474 475 476 482 484 485 485 486 486 486 489 482 488 489 491 490 496 488 494 493 493 493 491 494 496 491 495 494 493 495 496 492 496 496 494 493 498 493 498 494 490 492 488 497 485 493 491 484 484 499 497 498 491 494 482 494 487 510 485 514 494 514 481 507 506 491 490 519 491 459 499 473 457 496 506 471 483 515 462 0 0 0 0 0 0 0
0 0 0 0 0 0 0 0 0 0 0 0 0 0 0 0 0 0 0 0 0 0 0 482 477 472 469 475 473 479 483 477 476 478 484 477 483 479 487 479 480 492 490 488 489 487 486 490 490 491 491 485 490 494 496 494 499 492 494 494 491 492 495 492 488 500 493 500 496 496 499 497 495 492 491 494 496 492 502 514 494 496 489 492 516 507 502 496 489 501 514 514 488 520 493 503 506 526 510 536 536 488 516 509 495 494 499 490 485 496 504 503 510 0 0 0 0 0 0 0
0 0 0 0 0 0 0 0 0 0 0 0 0 0 0 0 0 0 0 0 0 0 0 502 467 470 471 472 469 475 474 475 478 479 470 474 480 484 477 482 486 482 484 484 484 491 488 492 485 483 486 491 484 489 493 491 490 496 491 491 494 494 491 496 492 494 492 491 492 497 493 494 494 496 492 492 487 498 485 493 496 513 488 485 511 498 497 493 500 514 505 509 479 492 474 495 497 479 491 467 482 479 496 472 500 465 489 454 469 469 498 456 436 456 0 0 0 0 0 0
0 0 0 0 0 0 0 0 0 0 0 0 0 0 0 0 0 0 0 0 0 0 0 0 477 467 466 475 478 476 479 472 480 480 480 475 478 482 477 481 483 484 482 487 489 489 489 492 493 490 486 489 490 493 491 494 494 495 497 493 493 495 492 498 494 494 497 493 498 497 502 490 496 491 495 487 493 507 508 508 500 508 523 506 514 511 527 498 510 509 496 511 531 494 529 530 498 517 507 508 478 529 525 520 519 494 518 510 489 492 484 524 493 486 552 517 0 0 0 0
0 0 0 0 0 0 0 0 0 0 0 0 0 0 0 0 0 0 0 0 0 0 0 0 520 475 467 471 468 477 478 476 474 476 475 483 475 478 482 482 485 484 484 485 487 486 486 491 485 493 489 490 489 492 490 486 496 489 497 492 491 490 494 499 493 498 496 491 493 492 496 490 494 492 497 492 501 496 494 486 493 500 495 507 505 518 488 509 483 503 529 501 509 507 534 507 513 521 519 511 492 515 521 466 492 516 497 487 484 474 496 506 510 532 460 0 0 0 0 0
0 0 0 0 0 0 0 0 0 0 0 0 0 0 0 0 0 0 0 0 0 0 0 0 0 481 465 469 468 477 469 477 479 475 471 472 474 476 479 481 480 479 483 487 485 484 487 484 483 487 489 485 486 493 486 490 493 487 486 490 489 489 490 494 496 489 485 496 489 497 496 492 492 487 495 487 484 477 473 487 484 487 495 499 484 493 480 503 487 504 502 489 517 516 513 501 490 506 499 520 499 482 494 518 496 473 480 478 467 472 492 485 467 479 410 0 0 0 0 0
0 0 0 0 0 0 0 0 0 0 0 0 0 0 0 0 0 0 0 0 0 0 0 0 0 561 472 472 475 474 473 474 478 475 480 478 476 478 479 479 487 483 483 486 488 486 483 485 487 484 490 486 491 491 489 493 496 485 491 493 492 489 493 492 491 491 490 493 492 487 492 489 500 493 499 487 496 492 495 496 499 496 493 485 509 507 497 507 501 487 523 505 499 513 527 500 510 531 517 545 524 522 527 477 528 512 504 502 510 511 512 509 500 490 497 0 0 0 0 0
0 0 0 0 0 0 0 0 0 0 0 0 0 0 0 0 0 0 0 0 0 0 0 0 0 0 484 470 462 469 465 470 473 473 472 475 471 476 478 477 476 476 480 477 490 482 485 481 482 485 485 492 491 490 489 490 489 491 490 489 492 486 486 492 495 494 492 489 494 494 489 495 495 489 487 491 484 487 491 487 488 483 487 508 487 494 496 499 492 486 484 494 489 495 479 500 488 483 489 490 501 472 498 488 476 463 478 506 452 475 486 464 456 452 0 0 0 0 0 0
0 0 0 0 0 0 0 0 0 0 0 0 0 0 0 0 0 0 0 0 0 0 0 0 0 0 0 471 465 468 471 471 472 470 471 470 472 475 477 479 475 479 480 476 476 480 482 483 480 482 484 487 486 491 487 484 493 487 484 491 490 490 489 490 490 489 489 490 489 487 487 484 483 477 486 477 480 486 485 485 490 484 478 470 489 483 492 474 475 484 476 483 473 488 471 492 479 470 468 502 471 510 470 478 473 469 450 457 480 432 445 450 462 480 434 0 0 0 0 0
0 0 0 0 0 0 0 0 0 0 0 0 0 0 0 0 0 0 0 0 0 0 0 0 0 0 0 495 469 467 470 472 475 474 477 470 474 473 475 477 480 479 483 480 483 479 483 483 483 486 486 485 488 490 483 492 491 488 487 487 488 488 493 487 486 489 487 488 488 489 490 486 484 480 494 494 488 513 486 490 488 487 484 479 491 508 497 489 491 494 483 497 488 484 500 478 495 493 518 484 497 493 515 495 494 498 477 444 491 455 469 446 483 463 0 0 0 0 0 0
0 0 0 0 0 0 0 0 0 0 0 0 0 0 0 0 0 0 0 0 0 0 0 0 0 0 0 0 503 466 464 462 469 469 470 469 476 470 473 473 475 474 477 480 479 482 476 478 477 479 481 484 482 487 491 480 484 488 485 490 483 483 486 483 486 485 491 487 487 486 489 485 484 485 482 484 482 478 474 479 472 480 479 489 478 471 493 487 488 481 476 497 486 479 465 492 464 484 465 466 466 466 468 456 456 475 463 461 448 431 457 464 458 429 0 0 0 0 0 0
0 0 0 0 0 237 238 269 307 0 0 0 0 0 0 0 0 0 0 0 0 2329 0 0 0 0 0 0 0 518 468 467 468 472 465 470 473 470 475 475 477 477 482 474 477 481 481 481 483 479 483 481 481 486 485 485 485 484 486 485 484 483 487 489 485 488 483 484 482 489 481 498 493 498 490 487 483 497 485 482 484 488 490 497 491 478 475 483 482 471 491 501 512 509 524 489 526 502 490 513 503 492 494 486 474 512 474 488 503 496 508 559 522 522 493 0 0 0 0 0
0 0 0 0 249 228 232 237 236 294 387 0 0 0 0 0 0 0 0 0 0 2345 0 0 0 0 0 0 0 0 458 470 462 471 476 470 472 466 470 474 473 477 474 470 481 477 479 476 479 477 480 480 483 486 486 483 484 483 484 479 482 482 485 492 485 486 483 484 486 477 479 487 493 484 489 493 479 479 491 492 492 486 487 479 482 488 487 483 479 489 500 496 492 475 499 483 496 490 507 500 482 512 483 519 497 461 470 484 505 450 480 475 512 0 0 0 0 0 0 0
0 0 0 249 225 230 224 220 233 241 327 0 0 0 0 0 0 0 0 0 0 0 0 0 0 0 0 0 0 0 0 479 460 467 460 463 468 468 463 473 474 469 474 470 470 472 473 479 478 476 482 473 477 478 480 479 483 477 481 481 477 484 478 482 480 479 480 481 482 487 481 481 471 480 469 484 478 482 472 479 475 480 479 480 489 479 477 479 479 484 481 489 478 480 474 468 460 482 475 483 481 483 471 459 452 419 448 475 484 466 437 469 464 456 447 0 0 0 0 0
268 246 286 257 312 285 275 235 242 239 319 0 436 422 416 442 420 438 443 427 493 487 459 453 465 459 450 453 466 461 462 471 470 472 463 464 467 466 470 472 466 471 476 472 478 474 469 477 474 479 480 470 483 481 480 481 480 483 478 483 468 483 471 480 487 481 478 491 478 482 482 474 479 473 483 473 478 468 468 463 464 465 487 508 478 487 477 498 473 496 498 492 475 491 494 472 475 484 474 495 488 467 480 482 470 507 445 501 500 475 465 474 460 444 437 0 0 0 0 0
198 207 224 178 232 257 227 230 229 254 373 395 404 394 401 407 392 383 389 397 406 414 398 421 424 426 425 436 443 441 453 455 453 454 457 452 455 462 459 458 456 457 463 461 460 464 474 467 469 476 462 470 470 472 468 465 465 475 471 467 471 477 473 473 475 470 471 474 476 470 469 472 474 459 459 448 452 443 461 463 462 457 443 448 455 448 461 454 447 465 454 453 456 439 460 438 432 444 451 454 438 448 426 476 443 448 434 449 432 452 448 452 430 410 408 424 405 0 0 0
167 193 186 215 230 232 230 228 237 293 394 361 369 353 368 376 371 374 383 383 368 374 388 401 401 420 424 417 423 444 439 438 441 441 441 444 447 447 438 442 444 448 448 447 446 449 453 451 454 462 455 454 454 454 453 456 458 454 456 464 457 459 453 461 453 456 456 455 450 456 457 450 450 446 439 429 422 430 423 416 430 423 431 432 413 426 425 432 416 415 426 425 423 422 433 419 418 428 424 434 427 432 414 414 416 410 404 408 426 406 414 403 402 390 406 417 399 424 388 381
284 304 251 227 242 233 231 230 262 352 347 343 344 355 371 356 365 349 358 363 351 364 381 373 383 381 393 400 420 415 418 418 420 428 432 430 438 433 429 437 433 436 428 433 435 438 440 444 437 444 444 442 441 447 451 450 449 447 444 446 447 445 446 451 440 448 444 442 443 440 433 446 432 427 424 423 423 406 403 403 398 396 408 391 398 401 403 408 406 400 401 406 402 400 415 400 397 401 390 409 402 392 414 414 415 401 389 393 388 419 404 405 421 397 408 435 414 432 437 0
286 257 271 224 235 235 228 244 259 299 296 310 308 297 304 310 297 307 298 306 331 316 329 342 349 366 374 391 387 387 395 401 400 406 413 411 406 413 408 413 417 416 417 417 417 417 407 424 422 417 414 414 421 425 424 422 414 428 426 427 425 421 415 414 412 421 426 420 414 417 411 412 402 401 392 396 384 369 366 367 361 367 351 357 365 362 371 364 356 358 356 353 352 378 357 364 353 368 360 358 357 352 363 364 356 355 344 356 352 366 344 353 367 346 364 323 348 324 289 328
288 280 277 279 266 261 274 280 279 290 281 286 285 288 297 282 291 296 291 286 290 306 316 320 336 355 364 378 362 383 373 399 399 392 379 383 398 398 400 399 401 389 394 396 393 394 396 389 394 397 394 401 396 401 401 396 398 402 397 398 396 399 396 404 396 386 398 396 400 392 390 390 393 381 371 376 353 346 337 341 343 331 334 337 331 335 332 342 342 337 335 339 339 341 351 330 339 324 326 330 347 321 339 357 341 353 339 351 332 330 328 336 338 341 382 335 341 334 345 343
245 240 241 253 239 243 250 257 259 261 248 251 256 251 255 263 265 266 270 276 271 283 288 301 304 326 339 340 349 363 367 361 360 360 367 370 364 366 372 369 367 367 367 375 373 375 368 364 367 374 377 372 374 374 384 374 376 379 373 375 378 379 375 374 371 375 374 370 368 372 368 369 359 357 345 347 326 318 311 309 317 313 299 299 317 322 301 305 296 297 301 308 304 294 300 296 293 303 300 300 311 317 299 293 295 308 311 303 303 306 313 318 325 297 306 303 275 309 311 287
232 229 223 221 229 240 234 237 249 231 236 234 241 242 242 242 251 243 245 252 256 264 267 278 296 302 315 327 326 330 342 331 337 343 335 337 343 340 336 340 350 350 349 343 348 348 346 347 348 339 344 349 344 354 352 354 343 355 353 352 348 354 351 347 345 344 348 351 348 345 353 342 341 337 324 320 308 298 292 285 282 276 284 278 281 279 278 285 277 270 280 282 279 279 274 267 270 277 272 282 285 280 274 270 278 285 274 273 273 283 288 286 281 279 265 278 295 270 274 289
221 227 243 226 226 223 224 228 226 232 228 232 227 241 235 232 237 229 236 241 245 250 252 267 275 279 293 298 302 303 310 318 328 322 322 324 326 323 322 331 325 324 319 317 321 329 327 333 327 327 328 328 337 329 332 326 331 325 334 331 325 332 328 327 331 330 332 328 329 319 324 320 317 308 311 298 289 283 277 275 272 266 260 269 265 268 260 261 256 256 258 264 275 266 265 254 266 251 260 260 263 255 269 258 268 266 263 261 270 271 268 261 289 280 275 292 276 288 294 291
197 208 206 217 212 207 221 221 214 212 209 213 212 215 211 208 218 216 217 222 226 231 241 247 254 264 275 275 280 282 289 291 287 292 296 296 294 295 298 301 296 298 300 300 304 296 302 299 308 303 307 297 300 298 303 303 306 310 312 302 304 304 306 305 306 303 299 305 303 302 299 305 301 293 285 279 266 255 256 251 247 247 247 248 248 244 241 248 239 236 241 253 240 245 242 240 232 239 247 241 247 244 243 237 242 244 241 240 247 236 243 250 246 259 262 243 238 235 239 234
183 196 203 209 195 197 203 205 202 189 188 198 205 193 184 192 206 190 212 211 214 228 233 230 240 249 251 261 268 271 267 270 272 271 276 270 277 280 282 276 281 280 284 287 281 280 279 280 287 284 276 283 281 285 278 283 287 283 286 285 285 287 286 287 287 286 285 279 286 281 289 277 277 274 268 259 257 245 235 232 232 228 226 230 229 227 224 226 229 233 221 222 224 227 226 222 226 225 227 229 222 227 219 229 225 219 223 220 231 228 233 228 239 238 235 222 214 210 243 213
181 178 173 177 189 184 188 201 182 182 188 184 178 183 183 177 186 186 187 188 212 195 226 224 230 229 243 245 245 247 261 255 262 259 262 258 260 261 266 270 262 265 260 269 268 267 268 270 263 263 265 268 264 264 270 267 264 275 269 274 268 270 263 274 269 273 269 271 271 268 269 263 260 256 253 243 239 234 227 220 223 203 223 220 222 223 216 215 219 218 220 221 225 211 210 212 214 212 220 217 219 217 216 212 209 215 214 216 221 219 221 219 229 237 223 212 230 221 246 231
175 174 169 173 179 176 181 175 183 174 182 183 180 180 184 186 181 187 189 188 183 186 204 213 213 219 221 217 227 233 231 241 243 240 243 239 238 239 250 245 245 241 247 247 252 244 245 246 245 250 249 253 250 251 244 246 250 248 247 249 255 243 248 247 241 253 246 247 246 251 245 242 239 242 231 223 223 217 213 201 194 195 190 185 189 190 188 195 189 189 189 192 186 193 190 188 188 186 185 188 191 207 207 191 191 187 183 202 180 186 204 202 203 198 180 204 203 202 202 205
171 170 179 172 176 180 172 174 176 173 181 177 176 179 174 178 182 184 182 189 181 183 189 198 207 210 213 216 220 224 227 231 224 227 228 231 231 232 227 230 230 229 236 231 234 236 228 231 234 236 237 232 236 232 234 233 234 236 239 242 239 240 237 236 233 236 235 231 234 233 235 232 231 226 218 218 211 196 193 198 195 192 194 193 191 185 195 193 185 191 185 193 191 190 191 182 180 188 179 181 176 181 181 178 191 185 188 176 180 184 198 185 197 201 216 207 206 208 208 194
163 164 168 173 170 170 167 173 171 164 165 163 167 166 171 170 173 175 176 180 178 182 181 182 184 183 194 190 208 212 198 216 207 209 215 215 220 214 213 214 218 221 223 219 219 223 222 220 219 224 218 224 222 220 224 221 223 222 222 223 220 224 220 219 221 215 218 217 221 221 220 217 216 211 194 195 188 196 190 189 188 181 190 186 186 184 186 184 184 183 178 182 182 182 183 182 181 181 177 186 181 185 181 185 182 178 180 180 180 178 180 176 176 169 184 175 183 195 171 181
154 156 160 159 156 165 158 162 164 165 162 159 162 159 162 161 163 169 169 171 175 173 181 184 182 187 185 183 190 185 195 188 181 196 188 191 188 190 186 192 195 194 188 193 200 193 197 194 190 193 196 195 194 194 194 196 195 195 193 196 202 196 193 192 191 196 192 193 197 196 199 196 196 192 188 196 197 188 183 181 180 180 175 173 169 171 175 174 175 176 175 176 170 176 173 174 171 173 169 174 169 172 173 174 171 171 174 168 167 168 165 174 179 181 176 163 162 167 169 178
148 155 155 150 160 162 154 160 161 158 160 160 155 157 158 161 162 162 158 168 170 172 178 176 176 180 179 181 183 192 191 185 190 191 190 188 197 192 192 191 196 195 191 198 197 199 194 197 199 191 195 197 196 196 200 196 198 189 199 199 198 199 193 200 195 198 194 199 190 197 199 197 195 191 190 186 187 184 179 175 169 172 166 168 168 167 172 172 170 170 168 169 173 165 172 166 163 164 165 172 164 168 171 170 166 162 158 162 164 165 166 169 175 180 172 177 151 176 172 160
145 141 145 150 148 150 148 153 151 154 147 151 149 152 150 147 150 150 158 158 162 163 168 170 168 173 174 174 172 178 178 181 183 180 178 182 182 180 183 185 183 183 186 184 181 184 186 186 186 183 187 188 193 185 187 186 188 190 0 191 192 189 183 183 185 188 191 186 184 185 187 185 182 179 177 177 175 172 169 167 159 156 161 154 159 161 162 161 166 161 158 164 161 163 162 161 160 158 164 163 161 162 157 161 158 163 157 156 153 160 158 159 162 168 153 172 158 160 157 157
137 139 136 141 143 150 148 148 146 145 146 146 141 145 146 147 144 145 150 149 157 159 164 163 170 166 170 167 171 172 172 172 179 171 173 172 179 173 171 173 176 180 175 178 175 179 175 179 178 176 181 180 177 180 183 181 181 0 0 179 179 180 179 182 180 176 180 179 179 174 176 178 174 172 170 172 168 165 162 161 162 156 155 156 156 160 159 154 156 155 150 155 156 160 156 153 152 155 157 155 158 154 153 155 153 148 146 150 159 156 147 149 150 153 154 151 149 152 156 137
133 136 134 134 143 145 148 142 145 143 141 137 143 145 143 142 145 152 147 146 150 153 156 159 158 159 162 164 165 166 165 165 167 165 164 167 167 169 168 171 173 0 173 170 172 173 172 171 173 171 174 174 175 174 175 0 173 173 0 175 174 0 175 175 172 171 173 171 176 171 170 168 169 171 164 164 167 158 156 152 155 152 152 154 154 154 154 151 153 155 148 152 149 151 147 147 151 151 156 149 148 146 149 150 150 143 141 144 151 148 149 147 156 155 157 152 145 162 156 165
132 125 123 116 135 136 142 136 134 121 126 131 134 126 139 133 135 135 137 139 138 142 148 153 150 155 155 156 156 159 162 156 159 160 158 156 161 160 0 0 0 0 0 0 0 0 165 165 165 166 166 161 166 167 0 0 169 165 168 0 0 0 0 0 165 165 169 0 160 162 162 159 161 159 154 155 154 159 147 147 146 146 144 146 146 150 142 144 143 146 141 146 143 145 138 140 140 145 140 144 137 140 139 136 136 133 137 133 142 144 137 144 147 152 143 131 140 143 136 125
125 130 123 115 129 134 134 130 134 124 134 133 127 128 136 127 120 136 137 136 139 143 147 149 148 150 155 155 154 156 156 157 156 160 153 155 153 0 0 0 0 0 0 0 0 0 0 0 0 160 164 163 0 0 0 0 0 0 0 0 0 0 0 0 160 0 0 0 0 0 0 155 160 153 155 150 151 151 149 145 140 140 145 143 141 145 143 138 146 141 137 139 139 143 140 139 144 143 141 138 138 136 140 136 132 128 136 134 138 143 133 151 143 146 138 141 140 140 139 160
110 108 119 127 125 117 130 128 127 128 130 121 121 119 121 129 134 123 133 136 127 128 133 143 141 143 143 144 143 150 153 148 153 152 148 147 0 0 0 0 0 0 0 0 0 0 0 0 151 154 158 0 0 0 0 0 0 0 0 0 0 0 0 0 0 0 0 0 0 0 0 0 149 151 150 148 145 142 143 147 131 141 137 128 130 127 139 140 128 131 136 139 138 137 118 130 132 138 131 133 128 140 133 123 127 135 133 126 139 141 135 140 133 136 143 133 136 129 119 137
106 109 113 114 107 111 121 119 116 119 115 117 114 116 128 123 120 118 118 119 122 125 126 124 134 141 141 140 145 143 145 144 141 142 146 142 0 0 0 0 0 0 0 0 0 0 0 0 0 0 0 0 0 0 0 0 0 0 0 0 0 0 0 0 0 0 0 0 0 0 0 0 143 140 143 143 140 139 128 129 126 121 121 121 123 121 124 127 125 125 124 123 114 127 123 124 127 133 117 120 115 132 134 118 120 130 112 123 128 132 116 132 115 122 110 129 110 108 119 110
111 110 116 117 114 115 116 125 118 118 118 119 114 118 121 125 121 129 122 116 119 117 125 117 130 136 137 139 0 136 0 0 0 142 140 0 0 0 0 0 0 0 0 0 0 0 0 0 0 0 0 0 0 0 0 0 0 0 0 0 0 0 0 0 0 0 0 0 0 0 0 0 0 143 136 136 123 124 123 126 125 118 123 127 120 124 118 119 120 119 122 123 112 116 112 123 118 122 119 123 121 125 130 123 118 118 114 127 113 122 131 110 135 119 132 118 115 132 151 155
101 100 108 109 104 102 103 106 100 103 109 106 104 108 105 109 106 112 119 111 116 117 112 116 120 119 123 123 0 126 129 0 0 0 126 0 0 0 0 0 0 0 0 0 0 0 0 0 0 0 0 0 0 0 0 0 0 0 0 0 0 0 0 0 0 0 0 0 0 0 0 0 131 0 0 125 121 118 121 116 114 116 109 116 113 118 110 116 110 113 114 117 114 112 109 105 112 114 112 110 114 114 108 112 113 116 112 101 110 111 103 109 96 124 111 105 111 127 101 126
100 104 90 94 101 102 102 100 100 102 104 102 104 106 110 104 106 106 114 107 108 112 106 109 115 110 119 118 119 121 0 127 0 0 0 0 0 0 0 0 0 0 0 0 0 0 0 0 0 0 0 0 0 0 0 0 0 0 0 0 0 0 0 0 0 0 0 0 0 0 0 0 0 126 0 118 121 119 114 112 112 111 105 103 110 109 109 118 103 105 115 114 111 115 107 117 112 107 97 117 109 104 109 106 106 112 108 103 112 118 102 106 118 101 96 121 110 103 122 135
99 104 100 105 100 100 103 95 95 99 94 99 103 96 99 95 105 104 112 117 113 105 98 112 113 107 113 112 116 122 121 123 123 0 0 0 0 0 0 0 0 0 0 0 0 0 0 0 0 0 0 0 0 0 0 0 0 0 0 0 0 0 0 0 0 0 0 0 0 0 0 0 123 122 108 121 116 119 118 117 106 111 102 121 108 109 102 103 104 106 105 105 115 95 99 100 108 102 112 107 110 115 114 109 111 105 107 94 112 97 106 102 102 101 109 107 137 143 125 124
88 80 82 88 80 87 83 93 91 83 89 92 96 96 93 87 76 93 92 90 92 88 100 106 100 100 114 107 0 0 106 105 117 0 0 0 0 0 0 0 0 0 0 0 0 0 0 0 0 0 0 0 0 0 0 0 0 0 0 0 0 0 0 0 0 0 0 0 0 0 0 113 110 110 106 112 105 105 105 98 101 103 99 90 100 94 88 98 106 99 94 96 103 87 86 96 93 102 86 97 88 96 91 92 80 90 93 92 91 86 88 91 80 87 86 99 97 84 96 84
92 85 88 90 99 95 93 107 92 94 95 99 93 93 97 93 98 91 102 99 97 106 105 104 106 106 110 109 0 106 109 109 119 113 121 108 116 0 113 0 0 115 0 0 0 0 0 0 0 0 0 0 0 0 0 0 0 0 0 0 0 0 0 115 114 0 0 0 112 0 106 108 117 115 115 109 106 111 101 99 110 105 106 88 96 103 106 105 104 103 105 106 111 97 101 104 99 94 101 109 108 98 96 106 94 101 97 89 93 87 97 94 91 97 108 87 96 123 125 125
84 93 90 90 97 98 91 93 85 98 88 91 86 94 89 83 93 96 98 93 96 94 95 112 89 103 105 98 103 108 95 102 106 104 101 104 0 116 115 0 108 0 0 0 0 0 0 0 0 0 0 0 0 0 0 0 0 114 0 0 112 105 105 109 114 112 105 103 112 108 106 102 104 101 113 111 101 93 102 98 94 97 99 87 94 92 95 106 105 95 96 102 108 88 86 82 86 95 94 83 95 86 93 103 91 92 103 92 100 92 93 95 84 100 94 98 109 134 114 108
84 88 84 87 90 93 102 88 85 83 87 89 83 93 93 91 89 90 89 87 78 93 94 86 85 91 95 91 104 92 95 98 96 98 93 108 100 100 104 103 106 98 99 107 104 89 0 0 97 0 0 107 105 92 101 110 106 102 111 106 99 104 109 103 102 107 99 95 98 106 97 105 106 101 105 92 96 95 97 90 92 90 91 95 95 97 96 91 93 94 101 89 95 94 92 91 95 94 92 83 89 89 86 96 90 92 99 87 85 91 86 96 90 97 77 105 94 84 80 103
86 80 86 85 83 83 99 102 91 89 86 84 86 90 85 93 90 95 91 97 83 99 94 95 91 94 95 88 99 101 96 87 99 95 97 94 99 100 95 107 103 96 102 107 100 97 107 0 107 103 99 108 98 97 101 102 105 109 99 107 107 94 96 104 104 101 98 103 98 106 101 107 102 97 103 86 97 93 98 85 97 96 87 93 98 99 88 86 96 90 87 103 91 94 93 94 90 99 101 88 93 102 86 93 92 101 93 98 90 90 86 96 108 128 130 130 143 107 132 136
81 78 71 69 81 84 86 87 88 81 85 79 84 91 89 83 86 89 87 85 93 85 93 90 84 84 94 94 85 93 91 95 81 91 92 96 95 85 92 96 88 91 87 91 97 95 90 101 97 90 94 87 99 92 90 85 99 88 98 96 94 82 99 98 97 81 97 99 95 98 97 98 98 93 98 94 92 95 94 96 87 92 83 91 84 93 90 88 87 88 95 78 87 81 85 89 84 78 80 92 82 86 83 72 83 83 86 84 77 81 84 85 83 85 78 93 122 83 86 62
72 73 85 85 74 85 82 88 85 83 82 88 81 81 83 88 86 88 83 88 83 94 86 86 88 87 92 83 94 91 95 96 91 98 96 93 97 91 96 94 96 96 92 91 88 98 90 92 100 92 94 88 94 84 105 97 91 85 88 97 98 98 95 94 92 98 88 97 110 94 96 98 85 98 95 97 96 85 95 94 90 84 89 92 81 87 91 79 95 95 77 87 80 79 93 84 91 88 83 80 83 83 80 76 76 83 84 86 82 87 83 86 75 94 92 96 96 81 87 170
