0 0 0 0 0 0 0 0 0 0 0 0 0 0 0 0 0 0 0 0 0 0 0 0 0 0 0 0 0 0 0 0 0 0 0 0 0 0 0 0 0 0 0 0 0 0 0 0 0 0 0 0 0 0 0 0 0 0 0 0 0 0 0 0 0 0 0 0 0 0 0 0 0 0 0 0 0 0 0 0 0 0 0 0 0 0 0 0 0 0 0 0 0 0 0 0 0 0 0 0 0 0 0 0 0 0 0 0 0 0 0 0 0 0 0 0 0 0 0 0
0 0 0 0 0 0 0 0 0 0 0 0 0 0 0 0 0 0 0 0 0 0 0 0 0 0 0 0 0 0 0 0 0 0 0 0 0 0 0 0 0 0 0 0 0 0 0 0 0 0 0 0 0 0 0 0 0 0 0 0 0 0 0 0 0 0 0 0 0 0 0 0 0 0 0 0 0 0 0 0 0 0 0 0 0 0 0 0 0 0 0 0 0 0 0 0 0 0 0 0 0 0 0 0 0 0 0 0 0 0 0 0 0 0 0 0 0 0 0 0
0 0 0 0 0 0 0 0 0 0 0 0 0 0 0 0 0 0 0 0 0 0 0 0 0 0 0 0 0 0 0 0 0 0 0 0 0 0 0 0 0 0 0 0 0 0 0 0 0 0 0 0 0 0 0 0 0 0 0 0 0 0 0 0 0 0 0 0 0 0 0 0 0 0 0 0 0 0 0 0 0 0 0 0 0 0 0 0 0 0 0 0 0 0 0 0 0 0 0 0 0 0 0 0 0 0 0 0 0 0 0 0 0 0 0 0 0 0 0 0
0 0 0 0 0 0 0 0 0 0 0 0 0 0 0 0 0 0 0 0 0 0 0 0 0 0 0 0 0 0 0 0 0 0 0 0 0 0 0 0 0 0 0 0 0 0 0 0 0 0 0 0 0 0 0 0 0 0 0 0 0 0 0 0 0 0 0 0 0 0 0 0 0 0 0 0 0 0 0 0 0 0 0 0 0 0 0 0 0 0 0 0 0 0 0 0 0 0 0 0 0 0 0 0 0 0 0 0 0 0 0 0 0 0 0 0 0 0 0 0
0 0 0 0 0 0 0 0 0 0 0 0 0 0 0 0 0 0 0 0 0 0 0 0 0 0 0 0 0 0 0 0 0 0 0 0 0 0 0 0 0 0 0 0 0 0 0 0 0 0 0 0 0 0 0 0 0 0 0 0 0 0 0 0 0 0 0 0 0 0 0 0 0 0 0 0 0 0 0 0 0 0 0 0 0 0 0 0 0 0 0 0 0 0 0 0 0 0 0 0 0 0 0 0 0 0 0 0 0 0 0 0 0 0 0 0 0 0 0 0
0 0 0 0 0 0 0 0 0 0 0 0 0 0 0 0 0 0 0 0 0 0 0 0 0 0 0 0 0 0 0 0 0 0 0 0 0 0 0 527 503 532 523 512 523 525 540 533 525 537 511 511 533 529 510 0 0 0 0 0 0 0 0 0 0 0 0 0 0 0 0 0 0 0 0 0 0 0 0 0 0 0 0 0 0 0 0 0 0 0 0 0 0 0 0 0 0 0 0 0 0 0 0 0 0 0 0 0 0 0 0 0 0 0 0 0 0 0 0 0
0 0 0 0 0 0 0 0 0 0 0 0 0 0 0 0 0 0 0 0 0 0 0 0 0 0 0 0 0 0 0 0 0 0 0 0 0 506 507 502 529 514 511 501 514 511 498 502 517 534 507 508 503 517 512 509 522 523 524 533 0 0 0 0 0 0 0 0 0 0 0 0 0 0 0 0 0 0 0 0 0 0 0 0 0 0 0 0 0 0 0 0 0 0 0 0 0 0 0 0 0 0 0 0 0 0 0 0 0 0 0 0 0 0 0 0 0 0 0 0
0 0 0 0 0 0 0 0 0 0 0 0 0 0 0 0 0 0 0 0 0 0 0 0 0 0 0 0 0 0 0 0 0 0 0 466 498 514 502 497 511 488 495 509 486 505 507 500 501 493 507 501 504 515 525 521 506 491 501 501 520 486 531 491 477 0 0 0 0 0 0 0 0 0 0 0 0 0 0 0 0 0 0 0 0 0 0 0 0 0 0 0 0 0 0 0 0 0 0 0 0 0 0 0 0 0 0 0 0 0 0 0 0 0 0 0 0 0 0 0
0 0 0 0 0 0 0 0 0 0 0 0 0 0 0 0 0 0 0 0 0 0 0 0 0 0 0 0 0 0 0 0 0 519 511 504 518 510 500 498 516 506 508 512 519 514 521 522 518 516 506 509 515 509 503 518 505 509 527 526 514 512 506 515 520 503 519 580 561 593 670 627 603 624 650 597 641 622 567 667 0 0 0 0 0 0 0 0 0 0 0 0 0 0 0 0 0 0 0 0 0 0 0 0 0 0 0 0 0 0 0 0 0 0 0 0 0 0 0 0
0 0 0 0 0 0 0 0 0 0 0 0 0 0 0 0 0 0 0 0 0 0 0 0 0 0 0 0 0 0 0 512 488 509 500 506 493 494 500 493 505 503 489 498 501 513 501 499 511 501 495 506 511 497 499 503 499 507 499 505 506 502 512 528 502 521 509 503 527 531 567 543 587 563 570 594 551 586 569 574 583 600 585 0 0 598 590 569 638 566 577 566 548 591 574 564 600 600 568 543 590 531 587 537 0 0 0 0 0 0 0 0 0 0 0 0 0 0 0 0
0 0 0 0 0 0 0 0 0 0 0 0 0 0 0 0 0 0 0 0 0 0 0 0 0 0 0 0 0 0 468 496 498 489 493 494 501 483 489 508 494 494 509 490 497 505 508 498 500 499 495 505 512 496 503 510 506 511 498 513 505 500 509 499 498 502 499 507 508 521 531 516 541 530 585 497 503 540 563 580 538 526 539 529 503 502 489 524 527 532 538 554 524 547 552 537 527 535 505 524 539 489 522 501 518 563 538 0 528 0 0 0 0 0 0 0 0 0 0 0
0 0 0 0 0 0 0 0 0 0 0 0 0 0 0 0 0 0 0 0 0 0 0 0 0 0 0 0 483 513 513 501 499 496 502 501 493 504 500 505 504 507 502 499 508 503 502 498 496 503 501 508 497 502 496 511 498 502 505 515 499 504 508 509 512 507 506 509 505 518 512 547 548 568 573 574 574 608 562 560 598 574 614 555 552 565 621 545 578 593 548 576 559 528 577 591 565 546 561 565 549 586 586 597 600 560 567 620 549 0 0 0 0 0 0 0 0 0 0 0
0 0 0 0 0 0 0 0 0 0 0 0 0 0 0 0 0 0 0 0 0 0 0 0 0 0 0 460 510 485 507 483 498 492 490 494 493 499 505 495 499 482 489 502 499 496 504 503 504 501 494 505 503 501 505 504 506 504 499 508 507 494 504 507 502 510 503 501 509 496 504 500 517 514 535 509 519 522 523 539 548 492 530 498 538 543 499 506 521 525 547 536 532 505 529 515 528 525 531 516 492 507 524 466 538 506 496 517 0 0 0 0 0 0 0 0 0 0 0 0
0 0 0 0 0 0 0 0 0 0 0 0 0 0 0 0 0 0 0 0 0 0 0 0 0 0 513 516 499 493 498 499 491 500 505 502 504 489 508 506 491 505 502 502 509 503 502 499 497 507 511 504 511 516 506 500 503 506 513 504 513 508 507 510 503 515 509 505 506 512 513 510 542 591 545 559 547 549 538 560 574 565 553 550 557 573 560 565 560 541 539 543 545 540 580 565 573 552 538 577 561 547 547 595 547 545 552 526 520 0 0 0 0 0 0 0 0 0 0 0
0 0 0 0 0 0 0 0 0 0 0 0 0 0 0 0 0 0 0 0 0 0 0 0 0 500 494 493 511 498 509 497 499 492 496 506 500 498 507 503 504 502 507 509 500 504 498 515 500 509 507 507 505 502 506 507 504 510 509 512 513 507 508 513 510 506 511 508 523 510 513 513 511 536 555 592 567 544 558 579 547 560 562 559 545 551 556 579 565 536 539 575 541 572 533 583 540 599 579 566 562 570 527 553 565 587 557 579 568 589 581 0 0 0 0 0 0 0 0 0
0 0 0 0 0 0 0 0 0 0 0 0 0 0 0 0 0 0 0 0 0 0 0 0 0 487 498 498 497 496 496 496 500 499 490 492 500 492 507 509 509 494 509 506 502 500 498 505 493 499 497 503 506 510 506 498 505 506 501 501 515 506 512 508 506 503 512 505 503 512 512 515 501 518 538 537 544 562 560 524 559 552 581 527 508 532 519 514 537 535 533 551 550 537 532 521 547 557 555 543 535 522 565 502 533 541 563 500 519 542 525 0 486 514 0 0 0 0 0 0
0 0 0 0 0 0 0 0 0 0 0 0 0 0 0 0 0 0 0 0 0 0 0 0 511 498 499 498 498 500 495 504 498 492 499 497 497 490 499 503 502 497 496 501 500 504 512 513 504 513 509 501 506 508 504 517 504 498 504 509 501 502 508 512 501 508 508 512 503 518 513 517 512 522 531 549 526 533 557 555 579 568 568 579 548 557 562 574 564 556 558 592 564 578 572 562 575 565 551 556 577 568 594 519 603 563 588 560 585 564 570 551 0 0 0 0 0 0 0 0
0 0 0 0 0 0 0 0 0 0 0 0 0 0 0 0 0 0 0 0 0 0 0 0 483 492 495 485 498 499 498 493 494 498 492 496 496 502 489 498 502 494 503 496 496 496 507 502 500 503 506 494 501 506 502 506 505 499 501 506 504 502 509 504 507 506 510 507 505 508 505 501 517 510 501 530 542 527 559 538 558 564 530 515 523 532 536 540 522 561 532 544 536 532 564 557 532 547 527 536 545 557 538 568 544 557 545 512 553 549 551 0 0 0 0 0 0 0 0 0
0 0 0 0 0 0 0 0 0 0 0 0 0 0 0 0 0 0 0 0 0 0 0 479 491 490 497 486 488 488 492 489 495 485 497 490 501 500 491 494 497 499 498 497 497 503 496 499 499 503 499 501 501 506 503 502 504 506 506 511 507 496 502 499 505 502 512 505 510 504 508 505 512 506 499 518 507 504 541 544 517 503 508 542 558 543 523 526 499 502 515 520 541 526 546 498 508 502 484 544 500 519 523 496 513 507 529 490 442 497 443 0 0 0 0 0 0 0 0 0
0 0 0 0 0 0 0 0 0 0 0 0 0 0 0 0 0 0 0 0 0 0 0 499 488 489 486 495 480 497 496 498 489 485 492 494 484 494 489 500 496 499 499 500 497 498 500 506 496 501 494 505 504 495 509 505 503 505 513 504 497 511 498 506 501 503 506 504 505 514 511 510 506 518 504 507 537 531 525 551 522 531 529 505 536 542 551 550 555 512 567 545 530 546 554 523 550 530 531 529 530 529 550 550 592 564 544 535 560 554 535 0 0 0 0 0 0 0 0 0
0 0 0 0 0 0 0 0 0 0 0 0 0 0 0 0 0 0 0 0 0 0 455 475 489 489 493 487 488 482 486 498 493 488 479 498 490 488 492 496 499 497 493 495 487 491 494 498 495 498 500 503 497 492 504 501 503 497 499 500 506 500 500 502 495 505 500 511 502 508 503 493 498 509 516 502 528 506 516 530 519 508 503 495 494 500 445 451 493 520 502 504 489 528 529 524 531 532 501 510 490 511 488 527 487 487 507 523 452 525 495 0 485 0 0 0 0 0 0 0
0 0 0 0 0 0 0 0 0 0 0 0 0 0 0 0 0 0 0 0 0 0 467 495 489 485 491 485 491 502 484 495 497 490 495 497 484 493 493 490 497 496 496 495 507 499 500 504 504 504 508 504 500 506 498 507 507 506 505 514 510 503 506 509 510 501 504 514 514 500 498 513 506 510 518 511 502 506 541 531 510 530 524 547 523 545 509 530 535 555 530 534 518 528 524 548 512 529 532 525 551 519 550 530 526 550 506 514 540 518 488 0 0 0 0 0 0 0 0 0
0 0 0 0 0 0 0 0 0 0 0 0 0 0 0 0 0 0 0 0 0 0 511 486 486 489 489 497 494 488 489 486 491 484 493 487 491 503 493 499 498 498 488 505 496 503 500 497 493 501 501 495 492 497 508 498 501 502 510 503 506 500 511 502 503 513 507 510 504 512 506 505 511 506 519 508 509 528 532 523 526 563 522 529 521 521 543 539 549 547 568 518 522 533 546 548 571 551 526 498 560 517 513 579 555 548 543 514 582 557 544 561 622 0 0 0 0 0 0 0
0 0 0 0 0 0 0 0 0 0 0 0 0 0 0 0 0 0 0 0 0 0 477 488 487 484 488 486 494 485 494 493 486 486 485 483 484 490 488 492 503 491 498 494 501 495 503 499 499 493 502 500 506 492 495 495 503 497 497 503 500 501 505 502 497 502 506 505 506 504 511 509 502 505 500 513 508 528 503 524 501 508 527 515 521 531 523 501 498 511 518 503 501 500 502 517 464 536 536 525 539 515 539 536 518 489 508 477 535 443 488 498 513 0 0 0 0 0 0 0
0 0 0 0 0 0 0 0 0 0 0 0 0 0 0 0 0 0 0 0 0 0 501 493 488 496 490 482 498 502 490 485 499 489 493 497 494 492 494 492 497 492 500 503 496 498 495 497 506 500 500 509 499 502 503 506 501 507 504 493 507 507 507 511 505 506 502 504 503 509 507 505 514 511 511 501 508 531 544 541 532 521 515 536 551 539 520 537 539 552 520 551 560 521 532 519 545 498 549 542 548 552 545 590 563 575 516 560 529 583 571 532 561 0 0 0 0 0 0 0
0 0 0 0 0 0 0 0 0 0 0 0 0 0 0 0 0 0 0 0 0 0 491 485 490 489 492 481 489 484 492 487 491 496 499 484 493 490 498 494 490 488 486 498 495 492 500 499 494 501 497 497 498 506 496 501 506 501 495 498 504 501 504 499 505 503 500 505 498 505 496 505 499 506 507 500 505 516 511 520 511 512 524 523 529 519 518 493 507 509 514 528 489 514 494 523 525 523 480 521 492 513 486 508 493 533 512 498 0 532 0 517 535 0 0 0 0 0 0 0
0 0 0 0 0 0 0 0 0 0 0 0 0 0 0 0 0 0 0 0 0 449 488 489 488 482 481 485 490 487 482 491 483 490 494 481 494 493 487 493 491 492 493 492 488 497 497 495 494 495 497 495 498 500 502 503 495 506 502 498 502 504 501 505 507 497 500 502 496 501 502 500 500 509 505 506 496 501 488 511 495 503 505 519 498 493 501 523 507 515 507 512 491 511 498 509 496 489 509 503 490 491 488 479 508 528 485 483 441 471 453 0 450 0 0 0 0 0 0 0
0 0 0 0 0 0 0 0 0 0 0 0 0 0 0 0 0 0 0 0 0 472 477 483 485 477 479 480 479 481 480 483 487 493 490 494 489 490 488 497 493 494 491 495 492 492 494 496 496 497 497 499 499 496 503 500 503 505 506 504 497 494 504 496 500 502 500 502 499 503 504 499 493 495 501 501 503 515 518 523 547 514 499 533 539 496 521 526 509 510 523 518 517 510 509 478 526 499 493 486 510 521 518 513 514 488 520 494 495 495 525 496 0 0 0 0 0 0 0 0
0 0 0 0 0 0 0 0 0 0 0 0 0 0 0 0 0 0 0 0 0 441 467 483 482 472 482 488 479 483 485 487 481 482 482 490 486 489 491 492 493 491 495 495 489 491 495 494 496 490 496 496 494 497 495 500 496 497 498 491 503 498 502 504 501 503 509 509 503 506 499 498 501 503 498 496 499 509 508 506 507 500 487 497 487 502 513 505 476 503 491 480 492 480 499 479 464 485 514 509 481 463 494 511 522 509 534 528 543 511 440 447 477 0 472 0 0 0 0 0
0 0 0 0 0 0 0 0 0 0 0 0 0 0 0 0 0 0 0 0 0 448 482 476 482 487 480 478 484 493 485 488 485 492 486 487 492 485 486 491 492 489 492 491 492 492 495 494 494 493 489 500 499 497 497 499 501 500 504 504 502 500 497 502 504 501 507 499 502 505 504 503 501 505 502 503 498 511 509 499 533 515 515 504 525 502 498 512 504 513 515 499 487 526 517 515 525 505 503 500 505 508 484 513 538 523 509 490 473 539 512 494 522 0 0 0 0 0 0 0
0 0 0 0 0 0 0 0 0 0 0 0 0 0 0 0 0 0 0 0 0 488 479 483 489 484 478 481 491 477 480 482 489 490 485 489 492 490 492 495 486 495 488 493 496 494 494 493 495 494 497 498 496 498 502 495 496 501 497 495 501 509 505 507 500 506 500 502 509 504 505 503 502 510 500 501 508 507 508 517 509 541 540 520 542 493 522 539 500 517 531 528 523 519 524 518 532 518 532 520 519 548 486 551 546 522 538 538 552 529 503 557 0 0 0 0 0 0 0 0
0 0 0 0 0 0 0 0 0 0 0 0 0 0 0 0 0 0 0 0 0 454 478 476 487 482 478 476 476 481 485 482 487 483 485 483 486 491 488 490 493 487 496 490 492 489 493 497 497 496 488 499 497 499 494 501 499 498 500 500 497 500 500 499 497 503 497 503 501 498 499 503 507 508 503 499 505 500 509 512 505 536 510 508 507 506 517 520 498 516 505 506 522 515 510 502 532 481 522 509 498 535 500 501 471 486 523 527 512 498 517 470 537 522 0 0 0 0 0 0
0 0 0 0 0 0 0 0 0 0 0 0 0 0 0 0 0 0 0 0 0 462 479 484 480 483 472 480 481 480 487 489 486 484 486 489 489 494 482 492 491 492 488 497 486 493 492 496 499 502 499 499 497 495 497 497 495 504 503 496 503 490 504 496 500 498 502 500 505 505 504 500 504 505 503 499 505 499 504 517 518 520 500 527 529 515 527 528 495 519 524 513 506 515 504 539 532 535 534 524 515 545 543 541 521 546 525 529 500 503 544 528 555 532 0 0 0 0 0 0
0 0 0 0 0 0 0 0 0 0 0 0 0 0 0 0 0 0 0 0 0 444 474 470 474 468 478 480 476 479 479 486 484 482 485 486 484 482 488 493 488 484 486 494 491 489 486 495 494 490 492 493 495 496 494 496 490 497 497 495 497 495 501 496 503 499 499 500 497 496 504 493 495 506 500 496 501 498 502 482 502 527 526 505 492 512 508 498 489 511 505 493 495 495 518 492 511 529 496 487 494 511 509 522 522 523 531 509 512 485 526 506 462 0 0 0 0 0 0 0
0 0 0 0 0 0 0 0 0 0 0 0 0 0 0 0 0 0 0 0 0 439 476 474 473 477 472 475 482 478 482 483 479 482 487 485 489 481 486 485 491 485 487 484 487 495 489 488 486 491 494 494 494 495 501 498 489 495 491 496 496 498 497 498 500 500 496 493 502 496 493 494 495 497 496 495 508 494 488 495 502 476 494 499 486 495 486 517 475 463 468 467 464 473 475 482 481 480 489 481 485 450 494 470 484 456 454 449 478 483 463 458 456 450 0 0 0 0 0 0
0 0 0 0 0 0 0 0 0 0 0 0 0 0 0 0 0 0 0 0 0 454 473 471 471 473 478 480 477 484 477 478 476 483 483 480 486 486 486 487 484 489 487 490 491 485 490 488 488 499 498 492 496 488 498 495 494 502 496 494 494 499 495 499 496 505 493 506 500 497 499 493 494 499 498 493 499 502 516 493 500 502 496 504 500 494 507 495 505 510 481 522 525 489 496 493 531 502 526 512 496 498 498 520 516 510 484 503 509 478 520 523 479 521 0 0 0 0 0 0
0 0 0 0 0 0 0 0 0 0 0 0 0 0 0 0 0 0 0 0 0 430 467 472 473 468 481 477 473 478 477 476 484 485 482 483 480 481 482 482 484 486 489 486 488 491 483 492 487 488 491 495 498 497 493 494 489 493 491 492 493 498 498 494 497 500 495 499 494 498 498 495 495 489 496 496 492 486 492 490 496 482 478 476 499 486 484 478 476 465 485 476 470 479 485 474 461 480 498 481 486 469 480 475 507 467 438 445 457 462 456 432 456 443 0 0 0 0 0 0
0 0 0 0 0 0 0 0 0 0 0 0 0 0 0 0 0 0 0 0 0 0 481 477 474 484 472 480 481 484 478 481 487 486 486 481 489 486 482 485 487 485 489 486 489 484 490 493 496 491 492 495 494 494 497 495 487 490 499 496 502 496 496 497 500 499 497 495 497 493 494 498 498 496 491 497 491 496 504 491 503 497 501 489 509 509 507 513 502 501 491 524 487 498 492 490 538 509 521 512 536 506 505 490 503 508 513 477 519 497 501 492 476 488 0 0 0 0 0 0
0 0 0 0 0 0 0 0 0 0 0 0 0 0 0 0 0 0 0 0 0 0 499 477 473 477 481 480 479 481 483 479 480 485 483 484 480 489 489 483 487 486 485 486 487 495 489 492 499 492 495 493 495 492 493 493 497 495 495 497 492 496 493 502 495 501 497 501 492 498 502 495 502 498 500 495 496 509 520 504 507 514 531 523 507 495 539 523 537 516 516 534 527 525 548 524 511 528 503 525 519 524 512 515 540 523 533 520 522 537 532 522 568 534 0 0 0 0 0 0
0 0 0 0 0 0 0 0 0 0 0 0 0 0 0 0 0 0 0 0 0 0 518 479 466 483 476 477 478 481 476 479 479 483 482 482 482 487 482 488 486 486 490 486 488 489 488 489 491 490 492 501 492 494 493 493 499 498 497 493 494 493 492 495 498 497 496 496 494 495 499 496 495 488 497 498 500 499 493 494 503 500 488 503 495 504 508 496 511 502 504 506 527 540 511 489 497 486 511 497 490 500 518 490 491 534 473 494 521 522 474 494 482 493 472 541 0 0 0 0
0 0 0 0 0 0 0 0 0 0 0 0 0 0 0 0 0 0 0 0 0 0 630 479 475 477 479 478 478 474 479 479 481 483 485 487 487 483 480 489 483 491 489 486 489 485 492 490 494 494 494 494 493 495 495 495 493 497 494 491 491 494 495 503 495 496 497 498 501 495 496 493 496 501 495 498 496 505 514 518 516 513 500 512 505 519 527 522 549 522 517 534 517 542 526 528 537 536 515 529 508 512 520 512 537 506 506 497 497 502 494 545 477 550 487 536 0 0 0 0
0 0 0 0 0 0 0 0 0 0 0 0 0 0 0 0 0 0 0 0 0 0 762 484 466 471 476 475 472 474 480 489 478 482 478 476 480 480 481 483 484 483 485 486 491 483 488 486 487 486 491 492 492 491 488 489 494 498 494 497 493 496 495 495 493 493 492 497 499 498 498 491 499 494 490 495 490 486 486 492 509 495 478 492 507 509 501 525 485 486 498 501 504 506 492 496 502 510 492 541 499 530 499 482 500 503 497 490 485 464 462 474 472 0 0 443 0 0 0 0
0 0 0 0 0 0 0 0 0 0 0 0 0 0 0 0 0 0 0 0 0 0 0 480 470 465 475 473 472 474 480 478 472 479 480 481 480 480 485 479 488 483 487 486 486 485 490 490 489 486 492 488 490 491 493 495 490 491 491 490 489 493 490 488 493 494 495 500 493 491 494 491 492 490 491 492 487 489 490 492 488 476 486 493 485 483 493 503 502 506 497 495 492 488 504 502 485 502 495 469 484 476 489 459 480 450 469 463 477 488 463 456 437 457 0 0 0 0 0 0
0 0 0 0 0 0 0 0 0 0 0 0 0 0 0 0 0 0 0 0 0 0 0 513 463 475 471 473 476 470 477 473 480 479 479 483 478 477 478 482 483 481 488 487 487 492 489 487 490 489 493 497 490 490 495 486 492 492 490 490 494 495 491 496 495 494 494 492 493 496 495 497 495 496 498 492 488 496 497 498 508 523 497 483 511 511 487 492 493 499 506 525 520 508 512 511 508 501 490 495 533 514 486 489 505 519 457 471 462 503 491 500 507 494 519 0 0 0 0 0
0 0 0 0 0 0 0 0 0 0 0 0 0 0 0 0 0 0 0 0 0 0 0 0 476 469 467 474 472 470 476 476 480 476 476 473 478 480 478 479 474 482 478 482 485 487 490 484 489 493 490 493 487 492 488 491 488 496 489 499 490 497 490 497 495 490 489 493 498 499 494 495 490 487 492 493 489 494 494 496 478 504 491 497 492 507 499 491 474 487 489 501 488 499 494 471 457 477 496 482 485 501 458 470 470 460 450 479 488 482 467 463 458 453 404 407 0 0 0 0
0 0 0 0 0 0 0 0 0 0 0 0 0 0 0 0 0 0 0 0 0 0 0 0 513 469 474 472 473 479 478 476 480 476 478 475 482 474 482 486 482 482 479 484 485 485 490 488 485 491 492 489 492 493 492 490 498 491 492 491 494 491 493 497 490 498 494 492 494 494 492 491 495 495 496 488 481 492 494 510 498 491 490 485 489 524 505 513 518 501 500 512 483 514 528 536 522 511 520 498 510 515 503 514 490 490 484 476 473 465 501 528 489 523 436 490 0 0 0 0
0 0 0 0 0 0 0 0 0 0 0 0 0 0 0 0 0 0 0 0 0 0 0 0 0 469 468 475 473 474 474 471 481 475 474 480 481 475 477 482 480 482 486 483 488 485 486 486 490 491 493 488 488 491 486 491 492 490 489 490 491 492 495 489 495 495 495 495 488 499 495 493 496 492 495 491 486 500 493 521 501 511 503 504 519 501 504 517 494 500 497 510 502 501 521 531 535 511 509 525 500 501 528 521 491 535 497 489 469 526 527 508 525 529 0 0 0 0 0 0
0 0 0 0 0 0 0 0 0 0 0 0 0 0 0 0 0 0 0 0 0 0 0 0 0 481 469 468 471 472 467 469 477 475 476 476 475 476 479 476 482 482 484 483 483 482 482 482 483 484 487 484 486 491 492 488 487 487 489 488 488 491 494 489 490 496 493 493 491 488 490 490 491 488 491 489 480 485 490 486 489 498 494 487 485 498 498 487 485 490 492 496 492 503 505 504 506 506 470 525 506 501 499 504 492 453 472 452 439 491 485 478 466 472 0 0 0 0 0 0
0 0 0 0 0 0 0 0 0 0 0 0 0 0 0 0 0 0 0 0 0 0 0 0 0 0 482 474 465 474 468 471 468 477 475 477 479 481 479 476 478 474 481 482 487 485 485 485 485 485 493 494 488 490 488 491 488 491 488 493 489 490 492 494 493 488 498 490 496 491 495 496 494 490 486 490 484 496 490 505 496 497 496 519 492 504 499 483 487 502 513 503 499 506 519 494 520 501 504 517 504 491 524 524 506 475 499 496 511 519 511 508 548 495 534 0 0 0 0 0
0 0 0 0 0 0 0 0 0 0 0 0 0 0 0 0 0 0 0 0 0 0 0 0 0 0 0 472 467 465 469 475 473 474 474 467 468 475 476 481 478 478 475 479 481 478 479 483 484 484 480 487 484 484 487 483 485 487 485 484 486 485 488 488 488 494 487 488 492 487 493 487 486 481 486 479 477 487 496 475 482 485 476 486 482 492 483 485 491 484 474 486 466 488 472 491 500 490 476 492 485 494 477 455 450 456 450 477 482 454 442 444 443 453 462 0 0 0 0 0
0 0 0 0 0 0 0 0 0 0 0 0 0 0 0 0 0 0 0 0 0 0 0 0 0 0 0 488 472 459 466 466 472 468 467 471 472 472 475 477 474 476 473 480 477 470 480 483 485 486 480 482 483 482 481 484 487 485 486 483 489 489 486 487 486 482 491 491 488 484 481 488 479 491 479 493 479 480 473 485 472 476 476 475 493 496 470 461 474 485 481 482 453 485 468 497 471 489 482 485 487 468 470 473 475 484 439 480 433 421 485 446 457 448 451 0 0 0 0 0
0 0 0 0 0 0 0 0 0 0 0 0 0 0 0 0 0 0 0 0 0 0 0 0 0 0 0 0 505 468 463 472 464 467 477 468 472 474 472 473 475 475 480 478 477 478 477 483 485 483 480 483 485 483 483 482 484 486 481 487 489 487 482 490 488 490 488 486 487 488 486 485 475 493 481 483 476 475 490 485 477 469 493 495 483 486 490 483 484 503 492 495 490 489 474 468 471 495 476 478 478 493 482 495 458 497 442 473 487 504 511 479 455 460 443 0 0 0 0 0
0 0 0 0 0 236 238 256 248 0 0 0 0 0 0 0 0 0 0 0 0 2380 0 0 0 0 0 0 0 493 445 466 472 469 463 464 472 468 470 469 472 474 479 473 477 477 478 482 476 475 481 481 476 484 480 481 488 480 484 486 486 485 485 483 487 486 483 482 482 484 476 478 484 479 471 481 484 479 481 484 478 478 480 476 481 479 485 485 473 495 469 486 450 470 499 477 474 488 472 468 462 477 465 473 443 449 460 457 440 483 422 439 450 458 486 0 0 0 0 0
0 0 0 0 253 229 236 239 237 284 396 0 0 0 0 0 0 0 0 0 0 0 0 0 0 0 0 0 0 0 456 470 460 470 464 471 470 473 474 471 475 476 472 472 479 477 479 475 484 479 481 479 481 482 484 487 476 484 483 481 483 482 487 487 484 485 484 482 479 481 474 483 476 475 480 489 484 467 480 472 474 481 477 483 475 486 484 477 473 502 485 483 483 473 478 479 485 471 489 507 473 492 500 509 448 477 462 468 455 487 476 466 478 477 0 0 0 0 0 0
0 0 0 282 223 231 230 225 239 239 348 0 0 0 0 0 0 0 0 0 0 0 0 0 0 0 0 0 0 0 0 478 470 465 464 470 471 468 468 474 468 469 473 477 473 477 473 477 477 475 476 476 480 480 480 480 484 480 480 486 481 481 480 478 483 480 482 480 482 481 469 485 485 487 477 486 479 479 482 477 490 493 488 477 491 496 496 479 502 486 482 489 487 486 498 499 479 505 495 515 493 512 491 484 505 477 502 514 513 467 476 487 485 495 485 0 0 0 0 0
250 257 262 257 263 271 275 228 235 233 298 0 434 423 407 426 416 413 404 432 458 475 412 444 439 438 452 458 441 457 441 463 460 467 458 462 462 464 468 468 460 465 475 465 474 474 473 466 474 476 475 474 472 475 482 471 475 481 479 479 479 484 478 481 483 473 481 479 471 472 467 465 468 478 473 464 469 477 471 467 479 477 483 467 482 493 476 483 476 466 492 464 482 473 481 477 461 480 463 481 470 486 481 485 467 474 453 460 457 451 497 452 451 435 447 0 0 0 0 0
226 225 234 229 269 265 276 238 233 270 377 423 420 415 421 412 413 404 402 404 433 427 421 420 429 437 431 445 450 449 456 462 459 459 454 457 461 461 466 457 460 460 463 466 459 469 471 482 471 470 472 473 478 473 476 478 473 470 474 472 469 472 479 475 468 481 478 474 470 482 470 474 472 477 462 459 463 482 466 473 455 463 459 471 472 456 458 472 450 459 471 455 452 444 458 462 465 460 456 480 462 442 482 469 483 483 443 462 461 449 436 452 443 430 445 496 437 0 0 0
203 197 212 208 225 212 229 223 230 308 371 360 372 364 356 378 366 362 361 377 363 381 387 390 409 407 414 421 426 436 442 440 444 442 440 443 440 451 448 443 443 454 453 455 449 445 453 449 458 460 446 450 456 452 456 458 457 458 452 462 465 459 458 459 460 454 455 458 450 455 456 451 442 443 429 444 434 431 432 429 424 430 415 428 425 425 418 426 421 427 436 424 407 427 418 417 413 437 420 412 429 432 409 413 405 431 415 420 405 407 402 399 432 402 412 394 422 412 0 0
288 258 232 216 223 222 227 231 247 329 320 317 332 319 329 333 341 333 355 346 334 358 363 374 377 381 385 404 407 416 415 415 421 425 424 431 432 427 428 428 425 437 426 425 434 435 433 434 439 436 442 438 434 439 443 446 445 435 434 441 442 443 440 446 444 444 439 435 442 433 426 433 429 431 424 422 399 395 393 385 390 395 393 393 390 395 397 380 400 393 395 391 392 397 398 395 373 392 385 388 396 379 387 390 384 377 380 374 389 389 377 358 392 394 373 370 359 368 364 0
304 284 279 240 234 235 233 245 296 315 316 306 291 295 303 313 308 306 309 303 329 314 324 346 344 365 377 387 395 402 395 400 404 403 402 411 408 410 410 414 420 416 409 413 420 419 416 415 416 419 419 415 422 421 426 429 421 424 421 425 431 421 414 423 421 420 425 419 420 415 411 407 405 404 391 391 383 370 367 357 354 373 363 364 354 363 352 364 357 361 366 367 357 361 366 371 353 352 342 368 356 372 363 364 354 375 361 359 372 350 355 367 367 356 335 361 369 347 361 379
257 263 262 259 251 239 237 259 261 282 274 270 265 280 271 281 289 274 278 285 285 303 315 312 327 344 351 365 356 380 384 379 386 375 377 390 390 397 387 384 399 389 393 390 384 398 392 390 387 397 389 397 399 397 392 391 395 400 396 397 397 394 395 391 391 380 394 391 397 393 392 389 389 382 372 359 353 340 341 337 326 332 319 325 311 321 323 330 328 326 324 336 322 312 333 329 322 317 328 323 325 324 323 326 323 332 330 315 307 324 310 341 325 298 328 313 309 290 311 291
241 246 247 246 262 251 251 262 257 272 250 258 264 252 262 259 268 264 273 276 273 293 295 299 309 318 331 335 351 365 359 368 368 366 361 365 375 376 367 369 376 372 374 374 372 368 370 371 369 377 380 377 378 382 384 377 380 381 378 376 384 372 380 373 363 374 376 372 376 366 368 368 365 357 350 340 327 319 324 308 307 297 305 296 293 309 292 307 298 300 304 301 310 315 314 309 293 302 305 314 308 329 312 304 299 301 303 298 306 314 307 309 299 313 304 288 317 342 310 319
241 235 236 227 233 238 238 253 241 249 244 250 245 251 242 240 243 239 254 256 259 268 270 282 295 298 322 318 335 332 327 335 342 340 344 348 347 341 343 344 348 346 352 350 348 348 347 347 352 342 341 348 351 353 351 354 352 352 354 355 353 353 352 342 352 346 352 354 347 346 347 344 338 336 332 322 309 298 290 285 285 281 281 274 277 285 277 283 283 284 279 277 282 282 278 271 276 279 277 297 292 280 273 277 274 284 276 281 275 289 288 281 288 294 274 298 296 300 293 285
227 221 227 228 229 217 227 221 221 226 225 234 233 234 229 227 224 232 231 239 244 249 259 262 276 283 294 291 307 309 303 314 317 319 317 319 313 319 333 327 324 323 314 315 326 324 328 330 325 325 323 325 328 333 329 326 324 321 332 332 323 332 322 324 325 334 328 328 323 319 319 319 323 320 307 297 286 279 273 272 268 270 260 258 260 259 254 256 259 262 259 255 260 255 256 264 267 256 264 260 265 263 263 265 256 262 263 261 265 270 264 256 266 277 277 279 248 263 286 276
218 209 210 217 213 218 215 221 213 218 210 218 216 216 216 223 228 224 220 224 230 236 252 251 258 268 272 274 285 282 289 294 297 296 303 298 301 304 302 306 300 296 299 303 304 299 307 306 308 311 311 298 297 306 298 301 307 311 311 305 311 308 308 303 304 305 306 300 302 299 302 300 305 292 287 280 270 266 255 251 244 249 247 249 247 248 244 240 242 249 251 255 242 252 249 247 248 239 249 253 241 250 249 252 252 248 243 239 236 249 253 262 259 271 250 293 277 253 270 284
180 201 203 200 205 205 200 206 199 208 208 202 203 191 199 190 207 192 216 214 219 225 229 230 239 248 251 259 265 269 270 266 267 270 280 280 282 277 279 282 281 282 283 288 285 282 279 283 285 288 286 284 281 285 284 283 287 281 283 285 286 292 282 285 290 286 280 283 283 288 283 282 281 270 267 261 253 243 246 237 232 230 229 234 231 234 227 223 227 236 235 229 225 233 221 224 223 218 230 220 225 230 230 227 226 217 222 224 234 229 235 234 240 221 246 245 231 220 239 225
174 173 177 177 198 197 185 204 181 186 204 186 183 178 183 188 187 188 188 193 212 211 215 227 226 230 235 240 246 253 252 254 253 255 259 258 256 259 264 268 265 262 267 266 260 265 263 266 266 265 265 267 265 268 264 269 265 266 265 278 271 270 263 273 267 267 270 270 265 267 265 258 261 255 252 245 240 234 222 226 201 219 222 220 216 221 218 212 216 215 213 219 217 196 211 215 213 200 210 214 217 213 215 205 213 211 215 214 216 213 221 232 229 223 210 216 227 245 225 207
173 172 174 174 174 180 175 176 178 182 181 181 179 182 183 183 184 183 187 186 183 189 192 214 215 218 224 221 233 229 233 248 241 239 242 242 240 245 246 247 243 244 245 246 250 250 247 248 250 250 248 247 246 253 243 246 252 251 248 252 250 249 250 245 240 252 251 249 248 248 244 242 238 240 238 230 222 215 213 195 212 197 188 187 190 191 193 197 197 192 194 192 191 183 181 189 186 204 186 195 189 193 208 188 187 193 180 199 199 205 208 203 205 202 224 205 205 199 199 221
161 165 177 176 174 175 168 169 177 175 172 173 174 176 180 180 181 176 185 185 186 186 180 191 192 185 212 216 217 220 226 227 219 224 227 226 232 228 230 229 226 230 231 229 231 237 229 229 235 233 234 234 234 232 235 231 234 237 236 237 231 237 235 234 233 232 233 227 227 231 232 231 228 219 217 214 212 194 186 198 193 196 196 192 191 195 192 194 191 190 191 190 191 192 187 184 180 186 185 187 184 176 177 187 183 182 179 174 174 179 172 184 199 184 202 201 200 181 197 182
163 161 168 166 170 170 169 171 168 166 165 166 170 170 171 172 172 174 179 181 177 182 179 189 186 183 183 186 194 208 209 212 193 215 213 216 216 213 213 198 214 222 218 219 221 223 220 217 221 223 219 220 220 225 220 221 221 222 219 222 218 225 216 214 217 216 217 218 222 218 221 215 217 197 192 194 189 196 191 189 183 186 186 184 183 185 185 181 185 184 185 181 180 183 183 185 185 180 180 183 178 184 182 181 178 183 181 182 181 176 181 182 179 179 202 173 180 172 167 204
153 156 158 160 161 164 159 166 167 165 158 162 158 164 161 159 161 172 171 178 177 177 178 181 183 184 185 182 194 185 195 187 184 184 187 190 186 187 197 189 192 188 192 194 196 196 194 195 196 194 195 201 197 195 195 195 192 190 192 195 201 198 195 192 191 193 193 196 193 190 198 195 196 190 198 194 197 189 187 179 177 180 178 176 177 171 180 182 176 173 175 176 171 176 173 175 170 167 167 173 167 173 171 171 170 169 169 170 170 169 169 179 171 170 171 178 166 167 188 184
143 152 150 157 154 154 159 156 161 157 157 159 154 154 157 156 156 162 160 166 167 170 173 173 179 180 177 182 185 186 188 186 190 192 191 187 190 194 189 194 194 192 192 196 195 196 195 196 198 195 194 198 198 196 199 195 199 198 196 198 196 195 198 189 194 196 195 199 197 195 193 194 192 191 190 185 184 184 180 172 172 171 169 164 163 168 168 165 170 165 169 168 169 172 166 168 164 166 163 171 167 169 173 166 162 164 159 160 165 165 167 167 168 166 173 164 166 168 177 171
145 143 147 148 145 152 149 151 151 153 149 152 148 157 150 150 155 152 157 158 163 163 166 175 172 176 174 177 176 178 176 177 183 183 179 182 183 178 183 185 184 184 187 187 186 186 187 188 187 186 186 187 188 188 188 187 188 189 0 187 190 189 187 186 191 189 190 185 189 185 187 185 184 181 177 177 176 177 171 166 160 158 163 161 160 160 164 162 165 163 166 163 161 165 161 164 159 158 163 166 164 163 161 158 157 162 156 157 161 165 162 159 162 157 161 168 161 165 174 171
135 139 139 142 144 149 146 148 148 146 143 147 141 145 145 146 144 150 148 151 158 160 162 164 168 166 172 168 168 171 173 172 176 174 169 172 177 172 175 178 176 181 176 176 178 178 175 178 175 179 179 177 182 181 180 179 182 0 0 178 179 179 179 185 179 177 176 179 179 177 174 176 173 176 171 171 169 165 163 161 164 156 152 156 158 157 159 154 152 159 150 156 156 157 156 154 156 154 157 153 157 152 153 150 151 144 148 150 158 155 157 151 149 155 149 151 164 149 142 144
140 133 132 140 142 143 152 139 142 143 138 142 141 143 144 143 143 150 146 145 149 151 156 157 158 160 162 160 163 162 165 165 168 165 163 166 165 169 167 167 171 0 171 169 173 173 174 170 169 171 175 172 173 174 174 0 173 174 0 175 175 0 0 176 171 172 174 170 172 173 168 168 171 168 166 164 165 160 158 151 148 155 152 151 157 152 149 148 151 156 145 155 148 149 148 146 148 150 154 146 145 147 143 147 148 144 141 141 146 142 146 145 137 150 156 148 147 156 153 163
129 124 128 123 134 136 142 136 136 130 134 133 133 125 137 136 137 137 135 143 136 146 148 155 149 159 157 157 156 162 159 155 158 160 162 158 164 158 0 0 0 0 0 0 0 0 0 163 165 166 164 164 166 167 0 0 166 168 0 0 0 0 0 0 167 165 168 0 162 164 161 161 159 160 153 157 154 158 149 150 149 148 147 149 142 151 140 144 148 143 146 148 144 147 141 137 142 146 143 145 135 140 142 141 139 133 136 134 144 143 145 142 148 151 143 132 136 143 145 142
123 120 123 114 126 132 136 132 135 123 133 133 127 128 133 125 123 139 135 136 141 141 145 146 147 147 152 151 152 156 152 155 157 158 153 155 156 0 0 0 0 0 0 0 0 0 0 0 0 160 159 162 0 0 0 0 0 0 0 0 0 0 0 0 159 0 0 0 0 0 0 158 159 153 155 149 150 151 148 145 141 139 143 140 141 141 143 139 146 140 134 139 138 142 137 139 142 143 137 134 138 136 139 135 131 132 126 130 134 146 138 143 135 133 135 135 134 131 127 133
112 109 117 122 129 126 126 128 130 119 133 123 122 121 120 123 132 133 131 135 127 135 135 145 142 141 146 145 146 148 151 147 151 154 150 150 0 0 0 0 0 0 0 0 0 0 0 0 151 154 154 0 0 0 0 0 0 0 0 0 0 0 0 0 0 0 0 0 0 0 0 0 153 151 147 147 148 141 142 146 131 130 137 137 127 127 129 136 130 132 138 139 139 129 119 128 142 139 135 132 128 134 136 131 126 135 131 131 134 140 135 137 142 140 139 127 138 111 123 142
105 110 114 110 106 116 121 117 116 122 117 114 117 116 128 121 122 117 116 117 131 127 128 123 136 140 138 140 142 144 142 142 143 143 145 142 0 0 0 0 0 0 0 0 0 0 0 0 0 0 0 0 0 0 0 0 0 0 0 0 0 0 0 0 0 0 0 0 0 0 0 0 142 142 144 140 138 129 128 138 125 122 120 121 125 120 126 123 123 128 127 134 116 128 124 125 133 125 121 118 120 129 130 115 122 122 119 122 129 138 129 132 113 120 122 127 113 104 114 137
110 110 114 119 116 115 116 116 121 117 116 117 119 115 117 123 120 119 123 115 118 117 123 116 129 137 139 137 0 140 0 0 136 138 143 0 0 0 0 0 0 0 0 0 0 0 0 0 0 0 0 0 0 0 0 0 0 0 0 0 0 0 0 0 0 0 0 0 0 0 0 0 0 142 136 139 125 124 119 125 121 118 124 125 116 122 118 121 119 117 115 126 116 116 112 120 119 121 120 116 119 126 131 120 132 118 127 120 105 123 128 124 123 120 132 111 109 136 146 139
103 101 105 111 105 104 107 108 104 104 111 107 107 105 107 108 109 114 115 109 114 115 113 118 120 123 125 119 119 135 0 0 0 0 0 0 0 0 0 0 0 0 0 0 0 0 0 0 0 0 0 0 0 0 0 0 0 0 0 0 0 0 0 0 0 0 0 0 0 0 0 0 132 0 0 128 122 120 121 116 118 120 110 117 112 116 113 114 112 116 114 118 115 112 109 109 112 111 112 110 114 111 111 113 115 113 110 112 123 106 110 117 100 123 120 103 123 142 128 169
98 100 95 97 103 105 102 101 101 105 103 102 103 107 107 104 105 106 113 107 107 113 108 108 114 110 115 119 118 120 0 126 0 0 0 0 0 0 0 0 0 0 0 0 0 0 0 0 0 0 0 0 0 0 0 0 0 0 0 0 0 0 0 0 0 0 0 0 0 0 0 0 0 123 0 116 121 117 114 111 114 116 104 102 112 108 108 116 107 111 117 109 112 111 107 117 104 107 98 118 114 105 107 104 107 118 113 114 120 112 102 106 119 95 105 138 115 103 105 146
97 103 99 105 99 101 99 92 99 100 98 101 101 93 102 94 104 104 112 117 113 105 100 108 110 107 116 115 115 123 118 120 123 0 0 0 0 0 0 0 0 0 0 0 0 0 0 0 0 0 0 0 0 0 0 0 0 0 0 0 0 0 0 0 0 0 0 0 0 0 0 0 122 121 109 119 115 115 119 116 105 111 101 116 108 105 105 102 103 106 106 107 112 96 101 103 106 102 109 105 105 110 114 102 111 112 111 89 98 97 105 103 109 106 104 101 132 129 126 126
87 81 82 85 83 84 79 95 94 84 91 94 96 95 94 89 78 95 88 90 93 88 100 103 100 101 115 109 0 0 107 109 118 0 113 0 0 0 0 0 0 0 0 0 0 0 0 0 0 0 0 0 0 0 0 0 0 0 0 0 0 0 0 0 0 0 0 0 0 0 0 114 110 108 106 112 109 106 103 101 102 105 96 89 100 97 88 97 107 98 94 93 103 86 83 97 95 102 90 97 91 98 93 89 80 90 95 99 97 90 80 83 82 95 90 97 95 98 105 137
93 86 90 87 95 94 96 108 90 94 93 92 91 91 94 96 99 91 103 97 93 103 104 105 103 104 108 108 0 105 108 111 116 113 116 106 0 0 112 0 0 116 0 0 0 0 0 0 0 0 0 0 0 0 0 0 0 0 0 0 114 0 0 0 112 0 0 0 112 0 108 112 113 111 113 109 108 114 100 99 110 105 102 90 96 98 105 101 102 103 105 108 112 99 98 104 98 95 97 110 98 96 94 100 92 102 99 86 93 82 85 94 91 95 94 93 85 84 104 98
85 91 94 89 95 98 89 94 83 99 85 90 88 92 87 85 96 97 96 93 98 95 97 117 91 104 105 103 105 107 93 0 107 102 97 102 0 116 114 0 111 0 0 0 0 0 0 0 0 0 0 0 0 0 0 0 0 110 0 0 0 105 106 112 115 113 104 104 110 107 108 101 102 105 113 108 102 93 100 96 94 99 102 83 96 91 94 102 108 94 100 104 109 84 95 84 92 93 97 86 94 87 93 101 90 90 99 96 100 89 93 88 88 85 104 102 115 132 156 102
84 85 83 92 93 91 99 89 85 84 90 89 83 93 87 90 89 87 93 90 80 92 96 87 85 94 93 91 102 89 94 99 95 94 96 111 99 102 103 101 104 98 99 107 108 90 0 0 93 0 0 106 103 95 102 107 108 102 109 106 102 107 110 101 100 111 101 99 98 105 98 105 106 102 106 95 95 94 98 90 95 90 90 94 91 92 89 90 96 94 99 88 96 94 92 94 84 94 93 87 88 86 94 91 94 81 96 86 80 95 90 98 97 98 80 108 101 138 147 105
84 80 85 86 84 89 97 98 85 83 87 83 83 91 86 90 86 93 89 98 87 98 95 94 91 96 92 88 96 101 96 89 96 95 99 96 104 101 93 106 103 98 98 102 103 95 104 0 104 102 99 106 97 99 100 100 102 106 99 106 105 97 96 105 106 102 98 104 94 107 99 105 101 94 106 88 97 95 95 84 102 96 86 93 97 98 87 86 94 89 83 97 86 93 94 95 93 95 102 87 92 95 82 90 91 100 92 96 91 90 88 96 104 93 109 122 122 99 124 111
82 74 71 67 84 86 93 87 89 79 87 85 87 81 89 86 87 87 88 86 93 86 93 90 89 86 93 94 86 94 93 95 95 89 93 97 99 86 90 83 94 95 89 92 93 98 87 101 96 87 95 99 98 90 87 85 103 88 102 98 99 82 83 98 98 83 98 92 96 98 94 88 91 95 84 94 96 94 93 84 88 95 85 90 84 91 88 88 89 88 94 78 90 81 90 85 81 77 82 89 84 84 84 71 86 75 87 86 83 87 82 100 87 96 94 133 158 121 125 85
72 72 80 86 72 84 88 86 84 82 84 88 80 85 83 86 86 88 83 85 81 90 86 93 88 84 92 84 94 90 84 98 91 97 88 92 95 96 89 97 96 96 94 86 89 99 92 88 99 90 94 85 97 84 105 98 88 85 93 92 100 98 93 95 89 96 89 95 105 92 95 94 88 85 95 97 95 84 96 93 94 88 93 88 81 85 86 80 92 92 79 93 80 84 91 80 94 88 79 79 86 80 85 77 78 86 83 83 87 91 88 93 85 101 97 96 112 109 109 144
