0 0 0 0 0 0 0 0 0 0 0 0 0 0 0 0 0 0 0 0 0 0 0 0 0 0 0 0 0 0 0 0 0 0 0 0 0 0 0 0 0 0 0 0 0 0 0 0 0 0 0 0 0 0 0 0 0 0 0 0 0 0 0 0 0 0 0 0 0 0 0 0 0 0 0 0 0 0 0 0 0 0 0 0 0 0 0 0 0 0 0 0 0 0 0 0 0 0 0 0 0 0 0 0 0 0 0 0 0 0 0 0 0 0 0 0 0 0 0 0
0 0 0 0 0 0 0 0 0 0 0 0 0 0 0 0 0 0 0 0 0 0 0 0 0 0 0 0 0 0 0 0 0 0 0 0 0 0 0 0 0 0 0 0 0 0 0 0 0 0 0 0 0 0 0 0 0 0 0 0 0 0 0 0 0 0 0 0 0 0 0 0 0 0 0 0 0 0 0 0 0 0 0 0 0 0 0 0 0 0 0 0 0 0 0 0 0 0 0 0 0 0 0 0 0 0 0 0 0 0 0 0 0 0 0 0 0 0 0 0
0 0 0 0 0 0 0 0 0 0 0 0 0 0 0 0 0 0 0 0 0 0 0 0 0 0 0 0 0 0 0 0 0 0 0 0 0 0 0 0 0 0 0 0 0 0 0 0 0 0 0 0 0 0 0 0 0 0 0 0 0 0 0 0 0 0 0 0 0 0 0 0 0 0 0 0 0 0 0 0 0 0 0 0 0 0 0 0 0 0 0 0 0 0 0 0 0 0 0 0 0 0 0 0 0 0 0 0 0 0 0 0 0 0 0 0 0 0 0 0
0 0 0 0 0 0 0 0 0 0 0 0 0 0 0 0 0 0 0 0 0 0 0 0 0 0 0 0 0 0 0 0 0 0 0 0 0 0 0 0 0 0 0 0 0 0 0 0 0 0 0 0 0 0 0 0 0 0 0 0 0 0 0 0 0 0 0 0 0 0 0 0 0 0 0 0 0 0 0 0 0 0 0 0 0 0 0 0 0 0 0 0 0 0 0 0 0 0 0 0 0 0 0 0 0 0 0 0 0 0 0 0 0 0 0 0 0 0 0 0
0 0 0 0 0 0 0 0 0 0 0 0 0 0 0 0 0 0 0 0 0 0 0 0 0 0 0 0 0 0 0 0 0 0 0 0 0 0 0 0 0 0 0 0 0 0 0 0 0 0 0 0 0 0 0 0 0 0 0 0 0 0 0 0 0 0 0 0 0 0 0 0 0 0 0 0 0 0 0 0 0 0 0 0 0 0 0 0 0 0 0 0 0 0 0 0 0 0 0 0 0 0 0 0 0 0 0 0 0 0 0 0 0 0 0 0 0 0 0 0
0 0 0 0 0 0 0 0 0 0 0 0 0 0 0 0 0 0 0 0 0 0 0 0 0 0 0 0 0 0 0 0 0 0 0 0 0 0 0 523 517 489 501 492 514 510 494 533 510 499 505 503 502 496 473 0 0 0 0 0 0 0 0 0 0 0 0 0 0 0 0 0 0 0 0 0 0 0 0 0 0 0 0 0 0 0 0 0 0 0 0 0 0 0 0 0 0 0 0 0 0 0 0 0 0 0 0 0 0 0 0 0 0 0 0 0 0 0 0 0
0 0 0 0 0 0 0 0 0 0 0 0 0 0 0 0 0 0 0 0 0 0 0 0 0 0 0 0 0 0 0 0 0 0 0 0 0 496 501 480 491 482 501 500 494 503 508 512 517 518 503 500 499 510 516 504 500 502 514 492 0 0 0 0 0 0 0 0 0 0 0 0 0 0 0 0 0 0 0 0 0 0 0 0 0 0 0 0 0 0 0 0 0 0 0 0 0 0 0 0 0 0 0 0 0 0 0 0 0 0 0 0 0 0 0 0 0 0 0 0
0 0 0 0 0 0 0 0 0 0 0 0 0 0 0 0 0 0 0 0 0 0 0 0 0 0 0 0 0 0 0 0 0 0 0 524 521 513 504 505 509 506 497 512 499 522 505 507 507 510 516 500 519 518 517 509 515 518 522 506 526 529 539 515 512 0 0 0 0 0 0 0 0 0 0 0 0 0 0 0 0 0 0 0 0 0 0 0 0 0 0 0 0 0 0 0 0 0 0 0 0 0 0 0 0 0 0 0 0 0 0 0 0 0 0 0 0 0 0 0
0 0 0 0 0 0 0 0 0 0 0 0 0 0 0 0 0 0 0 0 0 0 0 0 0 0 0 0 0 0 0 0 0 491 494 489 489 503 500 496 509 496 486 506 502 496 499 507 496 512 510 493 495 487 502 503 505 494 511 510 510 499 506 488 518 511 497 538 568 488 547 541 525 0 582 522 537 543 0 552 0 0 0 0 0 0 0 0 0 0 0 0 0 0 0 0 0 0 0 0 0 0 0 0 0 0 0 0 0 0 0 0 0 0 0 0 0 0 0 0
0 0 0 0 0 0 0 0 0 0 0 0 0 0 0 0 0 0 0 0 0 0 0 0 0 0 0 0 0 0 0 533 526 515 498 504 498 491 504 503 509 504 513 512 506 503 503 508 510 505 515 501 503 512 505 495 514 499 511 514 504 509 509 519 506 511 521 522 524 580 586 569 607 554 613 624 580 614 579 600 598 579 578 591 604 623 609 604 589 559 597 583 591 640 618 607 569 586 619 538 603 625 550 539 0 0 0 0 0 0 0 0 0 0 0 0 0 0 0 0
0 0 0 0 0 0 0 0 0 0 0 0 0 0 0 0 0 0 0 0 0 0 0 0 0 0 0 0 0 0 507 492 516 501 480 504 494 504 512 503 506 498 507 502 504 508 510 496 499 517 501 499 510 506 502 510 505 498 501 507 508 503 525 514 513 505 514 507 505 533 567 553 530 572 570 561 548 553 571 574 589 581 589 551 574 583 558 574 564 550 563 539 567 537 604 610 593 569 568 586 558 555 617 534 580 605 542 0 0 0 0 0 0 0 0 0 0 0 0 0
0 0 0 0 0 0 0 0 0 0 0 0 0 0 0 0 0 0 0 0 0 0 0 0 0 0 0 0 516 477 502 505 495 493 498 486 491 491 496 499 509 506 499 495 503 500 505 491 502 510 506 501 505 508 492 498 497 519 496 512 509 496 505 503 507 507 503 502 503 507 510 531 556 545 517 566 518 589 583 556 581 558 576 507 557 580 537 550 610 552 544 597 570 542 579 587 562 488 573 548 596 526 552 546 505 517 554 512 546 0 0 0 0 0 0 0 0 0 0 0
0 0 0 0 0 0 0 0 0 0 0 0 0 0 0 0 0 0 0 0 0 0 0 0 0 0 0 506 508 507 521 480 509 507 496 501 502 499 511 501 508 511 502 510 494 512 509 511 502 502 504 510 508 502 503 509 503 514 513 510 519 514 504 517 513 512 511 518 513 509 520 522 535 569 580 578 597 570 584 557 594 540 568 595 592 548 566 597 578 584 562 557 541 582 616 588 548 577 585 577 590 563 577 540 594 530 611 547 558 0 0 0 0 0 0 0 0 0 0 0
0 0 0 0 0 0 0 0 0 0 0 0 0 0 0 0 0 0 0 0 0 0 0 0 0 0 490 501 503 496 497 491 488 508 486 490 488 498 495 503 492 501 496 505 500 517 498 496 502 506 500 505 509 504 502 502 500 502 508 510 506 501 509 500 506 513 503 496 505 503 507 516 524 522 508 511 552 551 553 561 543 541 553 541 515 494 558 548 493 540 537 553 534 533 593 544 541 580 510 536 538 547 549 518 538 559 546 530 487 0 0 0 0 0 0 0 0 0 0 0
0 0 0 0 0 0 0 0 0 0 0 0 0 0 0 0 0 0 0 0 0 0 0 0 0 463 496 485 499 505 497 495 502 494 492 493 502 496 497 501 502 512 505 505 503 512 508 505 499 501 501 510 494 500 501 510 499 510 511 508 511 501 507 515 504 510 502 506 512 508 505 503 522 537 525 547 550 557 558 565 547 546 553 553 522 516 576 538 584 534 565 562 561 558 564 539 555 564 547 563 538 551 607 586 547 566 536 522 534 559 552 0 0 0 0 0 0 0 0 0
0 0 0 0 0 0 0 0 0 0 0 0 0 0 0 0 0 0 0 0 0 0 0 0 0 485 497 491 490 493 489 492 497 495 491 497 497 496 497 505 495 503 505 500 506 500 508 504 489 512 500 510 508 507 503 501 507 505 507 513 505 503 509 508 508 512 512 506 513 505 511 515 517 523 516 557 561 544 547 540 539 558 576 568 563 554 563 534 547 536 556 553 565 567 539 561 548 554 548 557 549 551 556 521 559 550 524 554 522 0 0 0 0 567 0 0 0 0 0 0
0 0 0 0 0 0 0 0 0 0 0 0 0 0 0 0 0 0 0 0 0 0 0 0 504 489 493 493 487 492 501 489 494 495 495 500 502 504 507 503 496 493 502 499 493 507 495 502 496 493 501 500 505 498 506 513 497 502 503 503 494 500 506 509 508 504 501 502 507 515 515 504 505 502 530 508 501 529 509 532 530 537 546 540 539 539 515 543 525 519 568 520 552 493 514 553 587 515 562 517 557 526 542 484 543 518 536 555 561 530 0 0 0 0 0 0 0 0 0 0
0 0 0 0 0 0 0 0 0 0 0 0 0 0 0 0 0 0 0 0 0 0 0 0 483 491 503 495 498 488 496 493 497 493 496 492 499 492 499 506 499 500 507 494 495 506 500 501 510 505 504 503 501 506 498 499 507 504 510 500 507 500 504 498 508 514 507 508 503 508 509 514 509 518 501 541 530 549 504 548 569 564 538 568 514 539 540 550 552 546 547 552 551 573 552 560 600 556 588 542 562 548 572 555 589 586 564 560 539 585 0 0 0 0 0 0 0 0 0 0
0 0 0 0 0 0 0 0 0 0 0 0 0 0 0 0 0 0 0 0 0 0 0 489 498 496 493 495 480 486 492 500 497 497 498 497 493 491 493 496 497 494 500 494 506 508 495 514 499 499 502 504 503 505 501 507 504 504 503 509 509 497 507 508 503 498 506 509 505 506 495 500 510 504 494 505 487 564 530 535 514 526 559 506 528 543 506 556 560 538 548 540 535 529 531 564 555 549 533 522 562 574 513 521 536 547 564 521 514 514 564 0 0 0 0 0 0 0 0 0
0 0 0 0 0 0 0 0 0 0 0 0 0 0 0 0 0 0 0 0 0 0 0 495 496 490 489 489 484 491 498 497 490 489 490 486 486 485 488 494 498 495 498 498 508 493 490 496 498 494 494 500 490 504 500 498 500 510 504 503 495 503 503 502 508 507 506 500 500 509 507 508 509 503 499 503 519 523 523 530 500 521 515 509 536 544 520 526 517 497 526 507 527 534 517 488 520 514 522 539 495 519 514 534 532 540 504 530 481 462 496 486 0 0 0 0 0 0 0 0
0 0 0 0 0 0 0 0 0 0 0 0 0 0 0 0 0 0 0 0 0 0 469 498 483 491 492 493 485 481 486 496 496 494 483 495 496 500 493 486 495 497 509 492 487 496 501 500 500 506 501 503 496 499 509 508 498 502 501 505 504 509 510 501 502 507 508 511 506 508 514 504 515 499 507 511 532 531 533 519 533 534 552 536 518 541 526 549 547 537 531 541 546 561 509 524 544 557 534 538 531 558 497 544 540 537 553 536 553 511 531 546 548 0 0 0 0 0 0 0
0 0 0 0 0 0 0 0 0 0 0 0 0 0 0 0 0 0 0 0 0 0 456 490 488 483 493 485 486 494 490 488 489 485 498 488 484 494 499 499 493 498 496 497 502 496 492 493 502 492 495 499 492 499 494 500 502 503 509 503 506 501 498 507 510 511 507 504 519 502 506 503 508 511 517 500 512 499 499 507 499 504 535 540 528 508 508 491 517 509 535 489 532 497 508 548 538 524 560 534 532 513 501 516 526 537 525 497 485 491 487 0 0 0 0 0 0 0 0 0
0 0 0 0 0 0 0 0 0 0 0 0 0 0 0 0 0 0 0 0 0 0 486 482 486 489 490 491 496 494 489 483 491 490 483 495 489 494 491 502 488 502 501 501 499 494 501 492 498 502 499 501 499 496 501 499 502 501 506 501 505 501 504 503 499 510 498 500 506 499 505 499 508 505 505 505 513 513 514 509 533 486 531 509 487 536 517 521 531 506 553 529 492 508 504 529 508 536 522 506 532 514 538 545 526 529 534 525 517 529 531 560 510 548 0 0 0 0 0 0
0 0 0 0 0 0 0 0 0 0 0 0 0 0 0 0 0 0 0 0 0 0 495 490 494 486 484 496 489 485 494 488 490 493 488 491 487 489 497 491 498 494 492 496 497 500 504 498 497 502 505 500 499 493 504 500 499 495 506 503 507 509 506 505 510 494 502 499 500 496 511 504 507 513 506 513 507 533 529 525 536 503 546 552 501 513 523 534 554 519 520 532 566 571 534 527 531 543 552 540 527 537 548 526 546 562 572 507 546 525 539 535 544 0 0 0 0 0 0 0
0 0 0 0 0 0 0 0 0 0 0 0 0 0 0 0 0 0 0 0 0 0 490 478 489 489 488 486 494 493 484 487 499 488 492 489 493 489 484 493 495 487 496 491 497 500 491 503 494 502 499 499 497 501 503 506 504 499 504 502 505 512 503 496 502 500 505 496 499 504 508 502 501 508 508 506 503 511 502 498 518 483 510 517 492 520 483 504 533 510 538 525 528 506 538 542 504 517 526 557 500 523 519 541 531 534 539 541 484 530 517 510 504 0 0 0 0 0 0 0
0 0 0 0 0 0 0 0 0 0 0 0 0 0 0 0 0 0 0 0 0 0 489 483 495 487 490 486 479 489 491 491 493 491 495 484 492 499 496 492 499 494 492 499 504 494 498 502 496 494 496 500 499 503 495 499 503 504 498 503 499 502 504 507 501 500 502 498 501 504 504 501 504 503 500 506 505 519 539 513 548 518 521 521 537 539 522 543 551 506 553 558 533 518 510 520 505 500 550 502 547 523 519 500 542 559 524 539 596 563 500 612 554 584 0 0 0 0 0 0
0 0 0 0 0 0 0 0 0 0 0 0 0 0 0 0 0 0 0 0 0 447 476 490 486 482 487 483 490 483 486 489 482 496 495 490 501 490 492 497 499 497 492 492 492 497 500 497 487 497 498 500 496 502 505 498 502 499 496 501 506 509 504 501 503 509 509 500 500 504 507 505 508 510 500 502 506 510 517 494 514 509 510 551 506 530 501 520 505 507 514 510 522 487 500 492 503 504 499 526 536 516 537 463 522 534 504 512 501 481 453 0 0 0 0 0 0 0 0 0
0 0 0 0 0 0 0 0 0 0 0 0 0 0 0 0 0 0 0 0 0 446 476 490 482 480 482 485 480 480 475 479 488 489 490 491 494 486 488 487 490 497 487 489 493 491 491 495 497 490 493 500 497 494 498 501 508 500 498 500 499 500 500 497 508 505 503 506 503 503 500 497 496 501 507 505 502 500 497 516 497 499 517 477 522 476 532 529 495 543 511 477 465 475 504 494 528 476 496 480 495 498 488 499 495 493 496 507 480 490 489 469 448 0 0 0 0 0 0 0
0 0 0 0 0 0 0 0 0 0 0 0 0 0 0 0 0 0 0 0 0 460 479 485 487 478 487 483 481 484 485 495 486 486 477 488 486 495 490 489 499 494 493 498 492 496 493 496 497 492 497 496 500 497 498 499 495 499 501 500 506 503 500 504 501 502 513 508 504 497 505 501 499 503 503 499 503 512 517 517 528 530 503 508 515 544 529 522 533 504 541 500 512 534 525 524 509 536 540 532 511 498 515 530 522 542 515 549 493 549 514 547 508 0 489 0 0 0 0 0
0 0 0 0 0 0 0 0 0 0 0 0 0 0 0 0 0 0 0 0 0 442 486 472 477 478 480 481 484 488 476 485 485 490 485 485 480 485 485 489 496 490 493 490 489 498 494 492 498 490 488 499 497 501 496 495 498 503 506 497 496 503 499 498 497 498 501 505 496 501 502 496 502 501 498 503 503 502 491 510 512 490 480 492 487 520 481 512 499 497 497 509 497 508 482 503 478 512 492 507 470 484 514 533 506 519 508 491 453 469 472 456 516 0 0 0 0 0 0 0
0 0 0 0 0 0 0 0 0 0 0 0 0 0 0 0 0 0 0 0 0 464 484 483 478 477 479 481 480 476 490 480 473 486 485 486 481 490 485 487 487 494 491 494 492 494 492 490 491 493 494 493 498 496 494 496 497 497 502 496 497 501 498 494 497 509 499 498 504 497 499 500 496 505 498 501 495 500 505 509 502 503 510 513 511 504 511 482 521 516 490 512 500 525 484 497 519 516 510 514 527 482 499 520 461 485 514 502 530 472 511 490 488 0 0 0 0 0 0 0
0 0 0 0 0 0 0 0 0 0 0 0 0 0 0 0 0 0 0 0 0 476 479 479 480 483 485 478 481 479 483 482 487 484 487 487 483 486 489 487 491 489 493 494 495 492 494 494 498 494 494 495 493 499 497 494 496 495 499 501 500 500 498 506 502 502 501 501 497 498 502 496 503 507 499 499 503 492 518 494 517 500 497 520 510 498 510 509 522 491 516 502 521 503 521 511 510 519 504 530 538 518 510 491 518 502 544 537 535 557 507 534 557 527 0 0 0 0 0 0
0 0 0 0 0 0 0 0 0 0 0 0 0 0 0 0 0 0 0 0 0 436 473 483 474 480 475 480 479 476 486 478 482 479 485 490 482 486 486 487 489 487 483 494 490 487 491 493 491 496 496 490 491 501 492 500 495 501 500 498 499 499 497 501 502 495 498 496 501 503 509 496 504 499 500 499 497 498 492 481 518 495 493 495 488 513 484 481 501 487 492 500 501 484 470 490 521 492 502 497 492 508 507 487 510 484 491 508 493 508 550 472 493 501 0 0 0 0 0 0
0 0 0 0 0 0 0 0 0 0 0 0 0 0 0 0 0 0 0 0 0 459 475 468 478 476 479 475 478 474 486 486 485 485 482 481 486 484 488 494 488 485 488 497 492 494 493 495 490 493 490 494 493 493 499 500 493 498 497 502 496 500 499 500 498 498 499 494 495 497 501 499 491 500 502 494 497 494 510 503 512 511 489 492 497 497 500 522 520 518 488 498 511 508 502 496 477 525 508 499 498 528 504 506 539 503 512 498 512 527 510 540 506 0 0 0 0 0 0 0
0 0 0 0 0 0 0 0 0 0 0 0 0 0 0 0 0 0 0 0 0 456 486 483 471 477 472 491 487 484 480 482 483 490 486 488 479 484 488 486 491 489 487 485 491 492 489 492 491 490 498 494 492 496 494 495 499 488 492 495 494 499 499 494 503 499 499 498 501 497 502 501 495 503 496 497 504 501 511 504 496 509 513 499 507 498 509 505 494 519 520 493 501 482 501 512 494 487 496 523 524 509 522 506 529 503 490 499 509 512 512 500 502 491 0 0 0 0 0 0
0 0 0 0 0 0 0 0 0 0 0 0 0 0 0 0 0 0 0 0 0 403 471 470 470 472 476 478 471 479 478 478 478 481 481 481 485 480 483 485 484 487 486 489 489 484 487 492 489 496 494 492 496 491 497 496 493 496 498 500 493 495 493 494 498 500 499 498 493 494 495 494 494 497 495 493 499 504 505 483 507 490 494 484 483 498 483 482 485 489 495 493 468 496 522 473 508 486 497 490 485 510 515 504 496 491 484 482 465 504 451 495 470 446 0 0 0 0 0 0
0 0 0 0 0 0 0 0 0 0 0 0 0 0 0 0 0 0 0 0 0 515 480 477 476 474 483 476 476 482 479 486 486 481 485 487 490 486 484 486 484 488 488 490 486 489 488 496 494 497 491 493 490 494 493 493 493 493 488 494 495 504 500 498 496 498 497 498 496 495 501 491 500 499 503 491 497 496 500 502 506 500 495 492 496 506 521 507 502 499 515 510 501 507 500 499 531 519 516 506 526 530 522 537 478 525 537 523 543 521 472 530 554 554 0 0 0 0 0 0
0 0 0 0 0 0 0 0 0 0 0 0 0 0 0 0 0 0 0 0 0 0 469 476 466 472 473 473 480 473 474 478 483 481 481 484 485 482 483 488 484 481 482 490 487 485 491 488 496 493 492 494 493 492 498 490 487 493 488 493 497 499 494 496 495 502 495 497 495 497 496 500 494 500 495 497 493 486 484 480 490 484 506 486 491 500 491 502 495 491 493 473 494 475 488 490 480 536 477 461 508 530 470 501 464 493 472 492 494 465 473 441 462 500 0 0 0 0 0 0
0 0 0 0 0 0 0 0 0 0 0 0 0 0 0 0 0 0 0 0 0 0 500 475 472 476 473 475 480 480 478 480 476 480 480 487 484 485 485 480 486 482 487 485 482 484 488 493 493 491 492 490 489 497 488 491 491 495 496 496 494 497 494 498 494 498 500 497 496 495 498 495 495 498 494 493 494 505 483 485 506 504 494 500 523 508 497 484 528 496 517 503 507 522 502 513 482 506 504 500 484 505 475 510 513 520 506 485 503 480 475 471 475 484 0 0 0 0 0 0
0 0 0 0 0 0 0 0 0 0 0 0 0 0 0 0 0 0 0 0 0 0 532 470 473 475 481 480 477 477 476 477 480 482 479 487 484 479 479 488 484 482 489 484 493 493 490 486 493 494 488 494 491 495 495 494 490 492 498 494 497 492 496 496 502 494 500 496 494 498 493 496 494 495 495 495 496 501 501 511 497 508 494 521 497 521 529 515 515 512 523 527 514 522 529 516 524 486 507 513 502 512 515 488 546 511 504 501 543 494 512 525 483 516 544 0 0 0 0 0
0 0 0 0 0 0 0 0 0 0 0 0 0 0 0 0 0 0 0 0 0 0 592 472 474 474 474 477 475 478 477 475 479 476 481 489 482 483 480 488 483 487 490 487 489 486 491 487 496 490 487 495 491 498 494 497 497 491 495 493 489 493 497 499 498 495 494 497 497 493 489 492 494 495 494 493 492 488 487 494 491 482 499 500 493 495 500 473 520 484 502 495 507 496 526 511 484 505 489 492 509 482 468 524 512 483 494 498 487 476 492 471 469 541 457 0 0 0 0 0
0 0 0 0 0 0 0 0 0 0 0 0 0 0 0 0 0 0 0 0 0 0 0 475 468 471 472 474 473 471 477 482 483 481 473 477 481 482 480 481 485 487 486 484 488 488 488 487 494 492 491 493 495 490 491 487 492 496 493 495 497 498 489 497 496 496 490 498 499 499 498 490 500 493 493 496 495 491 488 501 511 492 488 506 494 509 506 497 500 511 509 503 515 495 501 503 507 498 486 528 496 528 520 500 493 505 480 472 519 540 491 479 486 0 0 474 0 0 0 0
0 0 0 0 0 0 0 0 0 0 0 0 0 0 0 0 0 0 0 0 0 0 0 502 475 468 474 475 476 471 480 477 475 473 483 479 483 480 484 483 485 484 493 488 487 488 486 490 492 491 489 492 492 492 491 491 496 487 493 491 496 494 491 493 494 497 494 501 496 495 494 495 496 492 494 493 491 490 503 490 510 507 492 497 499 487 496 501 500 492 493 512 498 500 514 532 506 505 512 513 515 519 486 490 518 470 474 476 497 482 500 509 466 0 0 0 0 0 0 0
0 0 0 0 0 0 0 0 0 0 0 0 0 0 0 0 0 0 0 0 0 0 0 501 469 474 469 473 478 474 478 471 481 479 476 481 478 475 475 482 481 480 484 486 486 486 483 483 491 485 490 490 491 490 493 486 496 491 487 491 495 494 488 494 490 491 490 498 490 494 489 496 492 496 494 489 491 495 495 493 502 507 505 481 492 500 513 491 490 482 482 501 473 502 496 495 475 479 477 493 492 492 485 453 486 478 447 488 447 470 461 472 472 509 442 0 0 0 0 0
0 0 0 0 0 0 0 0 0 0 0 0 0 0 0 0 0 0 0 0 0 0 0 0 479 468 467 477 470 477 478 468 478 479 478 471 481 481 475 477 481 482 480 484 485 489 485 489 490 488 489 487 486 491 489 493 492 490 490 495 492 496 490 495 493 495 496 495 497 494 496 491 489 492 487 492 484 501 507 503 498 497 514 496 525 510 499 503 488 502 518 515 513 510 510 519 497 504 510 502 500 509 496 513 476 482 480 479 479 499 498 493 465 481 516 527 0 0 0 0
0 0 0 0 0 0 0 0 0 0 0 0 0 0 0 0 0 0 0 0 0 0 0 0 490 464 466 467 468 471 476 474 474 474 471 477 473 475 480 477 482 485 481 481 488 490 486 486 486 494 492 493 489 490 489 487 489 492 493 486 489 488 493 495 496 494 493 494 494 493 493 488 493 493 498 492 486 476 471 487 462 496 481 493 485 489 474 515 484 496 486 488 482 496 506 502 493 479 504 483 472 503 483 467 462 489 465 468 450 489 477 493 468 428 443 0 0 0 0 0
0 0 0 0 0 0 0 0 0 0 0 0 0 0 0 0 0 0 0 0 0 0 0 0 0 479 474 465 471 470 469 476 478 465 473 474 474 479 479 485 481 479 483 482 483 485 483 484 486 490 491 480 487 487 487 493 488 489 489 489 488 491 488 493 492 485 494 493 496 491 490 494 489 489 491 491 479 488 487 488 488 485 494 493 485 490 491 487 484 494 490 485 500 497 492 509 507 494 490 501 510 503 474 521 511 472 451 467 461 487 483 500 454 450 0 0 0 0 0 0
0 0 0 0 0 0 0 0 0 0 0 0 0 0 0 0 0 0 0 0 0 0 0 0 0 534 471 469 472 481 471 469 479 477 478 482 472 474 480 479 480 478 479 482 482 480 483 483 482 489 489 485 490 485 488 487 488 486 486 493 490 488 493 492 492 493 492 487 495 487 494 491 493 489 488 487 486 490 496 492 499 504 485 481 492 489 496 488 485 498 500 509 496 513 485 509 532 500 536 519 492 521 529 504 480 485 465 464 470 481 479 478 497 518 0 0 0 0 0 0
0 0 0 0 0 0 0 0 0 0 0 0 0 0 0 0 0 0 0 0 0 0 0 0 0 0 465 469 463 470 466 472 471 475 478 475 478 475 475 475 470 479 484 478 483 483 484 482 482 487 485 490 486 487 482 491 487 490 487 491 490 488 488 487 490 486 490 490 492 489 490 490 486 491 479 484 484 467 477 482 479 496 473 480 488 490 480 473 466 478 482 474 495 482 480 500 473 475 491 483 468 496 499 457 475 450 467 464 426 447 452 454 426 446 0 0 0 0 0 0
0 0 0 0 0 0 0 0 0 0 0 0 0 0 0 0 0 0 0 0 0 0 0 0 0 0 0 477 470 465 469 474 472 475 470 467 476 476 475 474 483 483 473 481 484 482 481 479 484 480 482 483 482 490 486 485 484 491 485 489 490 489 488 487 493 489 485 491 488 489 493 485 488 485 491 492 494 488 495 480 490 495 496 495 504 502 487 503 487 488 488 510 504 501 479 505 517 490 503 490 517 500 481 513 493 492 474 506 512 458 479 481 499 523 533 0 0 0 0 0
0 0 0 0 0 0 0 0 0 0 0 0 0 0 0 0 0 0 0 0 0 0 0 0 0 0 0 472 468 467 467 470 472 476 466 471 475 473 473 474 478 473 476 482 481 480 479 481 480 482 483 485 485 486 482 484 488 483 484 483 487 489 487 491 487 484 487 485 490 489 485 486 488 482 475 488 485 474 492 488 482 491 497 484 506 513 482 480 503 473 479 507 487 502 490 506 474 486 497 482 484 492 487 504 484 474 471 479 487 458 457 442 487 480 0 0 0 0 0 0
0 0 0 0 0 0 0 0 0 0 0 0 0 0 0 0 0 0 0 0 0 0 0 0 0 0 0 0 489 464 459 470 467 466 468 470 472 474 473 473 476 477 478 476 477 479 474 480 479 479 482 477 484 485 484 482 485 484 486 487 484 483 484 484 484 484 488 481 483 486 482 484 471 473 486 487 481 482 474 475 477 474 478 473 479 469 485 469 472 482 498 474 478 473 479 494 462 465 467 466 479 470 475 458 449 467 472 457 454 434 429 448 443 480 439 0 0 0 0 0
0 0 0 0 0 244 242 268 330 0 0 0 0 0 0 0 0 0 0 0 0 2343 0 0 0 0 0 0 0 511 463 468 466 470 466 472 469 474 472 470 476 471 479 473 477 477 477 480 478 482 481 478 477 481 483 485 480 487 488 482 483 485 487 486 483 485 483 482 480 488 472 491 485 480 483 489 480 482 496 512 477 498 490 495 502 501 480 482 493 506 492 516 508 482 510 513 494 500 482 491 489 518 509 513 481 497 469 493 473 457 481 498 489 506 487 0 0 0 0 0
0 0 0 0 236 231 234 230 230 275 382 0 0 0 0 0 0 0 0 0 0 0 0 0 0 0 0 0 0 0 444 464 466 467 469 468 473 468 473 470 474 475 474 473 477 473 476 470 473 478 478 483 476 482 478 474 481 481 483 478 481 478 481 484 484 489 487 486 474 479 478 480 479 478 477 472 475 465 465 469 477 469 479 469 478 484 467 471 468 472 489 480 473 456 478 482 484 457 470 481 480 488 478 489 454 472 455 473 447 441 451 423 389 370 0 0 0 0 0 0
0 0 0 229 218 230 223 225 238 239 316 0 0 0 0 0 0 0 0 0 0 0 0 0 0 0 0 0 0 0 0 473 471 469 466 471 464 471 468 469 472 468 472 469 469 474 472 472 474 478 480 473 479 478 476 480 482 478 479 480 479 481 476 483 481 476 484 480 477 479 479 478 477 481 468 485 483 486 475 477 477 484 501 479 486 484 476 480 481 481 471 505 510 486 476 477 491 468 475 476 479 492 482 510 480 435 476 480 477 477 472 495 490 446 431 0 0 0 0 0
253 237 257 275 297 273 283 232 239 241 322 0 454 410 427 437 430 436 440 425 474 464 443 433 469 465 438 457 459 461 452 464 464 473 466 459 472 469 459 465 470 472 477 471 475 471 479 472 477 474 476 480 477 477 479 475 475 479 479 480 470 485 472 484 480 479 476 485 481 474 489 470 478 474 473 472 480 481 484 465 480 485 493 481 479 483 486 491 480 470 475 492 502 502 482 483 476 482 485 484 484 502 496 478 475 476 485 494 472 475 481 489 503 512 501 507 0 0 0 0
211 200 208 200 217 223 256 224 224 245 392 388 390 408 387 388 411 378 394 407 401 404 408 417 425 423 429 435 444 436 449 449 458 457 456 462 456 459 458 465 457 462 460 454 466 466 467 464 471 468 462 472 472 471 466 473 467 466 468 473 473 469 467 473 473 470 470 472 470 468 465 464 459 464 457 455 449 456 441 455 446 459 452 449 441 451 436 447 447 460 452 460 452 444 451 444 438 445 459 442 441 434 452 452 448 449 425 453 430 439 398 437 423 481 421 370 428 0 0 0
213 202 223 246 230 232 234 226 233 307 379 381 376 378 370 374 387 375 365 380 396 394 380 406 402 404 418 424 435 437 441 449 444 442 448 443 440 449 447 448 445 453 447 454 448 450 454 455 450 454 455 454 458 447 460 463 460 461 460 464 457 464 461 462 466 457 455 459 460 453 458 454 443 443 440 429 435 441 423 444 431 433 429 431 425 444 430 429 429 426 427 426 436 423 442 433 438 430 441 419 432 426 424 426 428 406 413 414 432 410 418 421 427 439 428 440 403 438 403 443
251 272 234 228 231 228 231 231 257 337 330 330 326 338 338 321 337 332 338 345 349 359 365 370 378 400 397 402 405 420 412 420 425 426 429 426 437 434 426 428 429 430 423 436 431 439 433 438 442 436 441 437 440 443 446 451 448 438 444 443 447 441 439 442 440 435 441 437 441 439 433 431 433 429 422 421 408 401 407 403 397 391 393 383 399 404 394 399 399 403 392 395 397 393 404 403 389 404 392 400 397 388 400 399 399 384 380 391 398 374 382 361 399 368 392 377 414 368 397 0
289 280 254 244 235 234 229 242 281 296 304 298 301 300 297 314 315 304 307 313 314 331 327 341 346 359 372 385 396 400 402 402 401 409 404 404 410 411 411 410 413 412 408 420 412 413 415 421 411 413 417 412 418 420 412 422 414 418 418 418 418 424 417 415 412 419 424 414 418 414 409 409 404 402 396 388 377 353 371 358 359 351 360 357 361 363 357 359 363 365 358 358 361 361 349 355 353 353 351 362 363 356 345 367 362 353 348 359 334 349 344 361 351 324 330 312 364 345 334 339
281 284 297 265 279 251 263 276 271 291 289 285 280 287 286 286 289 297 289 288 304 313 316 322 323 352 362 371 366 378 385 398 387 385 387 385 393 393 394 395 396 393 398 391 394 400 403 393 397 395 393 405 400 401 403 398 402 398 401 397 392 393 392 398 393 390 395 395 399 403 389 392 385 381 374 366 361 348 343 343 342 336 327 336 329 337 337 337 330 327 339 335 350 332 356 345 332 324 336 333 330 330 335 345 330 344 343 345 339 315 322 330 342 335 335 340 353 341 342 355
251 244 239 245 238 246 246 254 249 253 250 260 262 251 252 248 257 262 265 265 268 273 289 290 310 315 328 340 338 357 356 366 356 355 357 360 368 364 370 368 368 365 369 367 366 368 370 368 360 375 374 374 371 377 382 369 372 373 370 367 377 371 375 372 377 373 370 369 363 369 372 360 362 354 352 333 329 316 312 305 298 291 299 296 297 308 295 294 287 292 297 293 307 298 304 291 286 287 288 294 301 287 299 293 299 292 298 284 291 289 311 290 310 287 303 272 281 279 258 277
229 230 229 235 233 237 249 243 251 230 237 244 248 237 239 246 243 238 249 256 254 267 273 279 292 300 317 317 328 324 330 336 338 341 340 340 345 343 344 344 344 344 347 347 346 346 343 354 344 348 340 349 344 350 350 358 352 350 349 351 353 354 351 341 341 348 341 348 348 348 338 341 337 337 326 326 317 289 291 287 274 287 288 274 284 275 275 278 271 277 275 273 286 279 281 264 270 279 281 284 283 280 281 281 268 270 277 274 285 279 266 286 286 281 282 277 294 286 266 278
220 221 228 226 226 220 224 221 223 221 234 230 222 235 227 233 235 232 229 242 241 248 261 261 281 279 297 289 310 311 310 315 323 316 318 319 325 320 323 328 323 315 319 317 326 329 324 328 330 328 328 323 331 325 331 329 327 324 332 329 329 329 329 332 330 331 320 332 327 320 327 327 322 315 305 299 284 276 276 275 266 266 261 265 271 262 259 260 262 259 258 263 265 249 265 256 265 258 250 270 267 254 269 260 255 257 262 259 272 265 279 265 261 281 270 273 259 265 285 314
199 195 211 210 213 207 211 213 213 216 208 204 213 211 209 215 212 217 216 219 225 226 240 245 252 258 270 279 282 284 287 295 296 293 291 296 297 298 306 302 295 298 294 297 308 299 305 298 307 300 309 303 297 302 295 305 308 302 303 305 302 303 309 305 305 303 309 300 301 296 295 307 298 291 284 280 269 260 255 249 252 247 249 243 240 243 247 234 243 249 245 245 252 247 234 233 247 237 239 239 244 246 254 253 239 246 239 236 242 242 243 252 256 261 240 230 238 235 250 227
183 204 207 202 202 206 199 205 201 186 209 200 201 202 203 193 213 191 209 217 217 221 232 231 244 248 252 259 266 269 268 267 271 271 280 276 282 276 283 287 279 283 283 291 284 281 280 282 286 287 284 283 281 284 281 288 285 283 283 286 282 287 285 283 286 288 281 285 284 281 280 283 278 274 266 257 258 246 243 234 226 232 223 227 229 225 226 222 226 236 234 234 226 225 225 231 223 220 225 225 231 227 229 234 226 219 234 226 232 236 235 235 250 246 259 233 233 214 251 241
174 171 177 194 185 176 183 190 187 181 184 181 178 184 179 179 181 187 190 189 210 194 217 226 224 234 239 241 244 251 253 253 258 255 262 260 259 257 266 267 263 262 265 267 262 263 267 267 265 265 265 265 266 268 264 268 266 269 265 274 265 265 271 265 265 266 265 270 266 261 264 258 256 252 256 249 239 225 228 220 218 204 198 219 220 222 200 211 212 219 213 224 216 210 216 217 212 209 204 211 216 217 216 213 214 211 215 215 217 218 219 230 234 212 210 214 230 221 219 213
169 173 168 172 172 176 177 183 179 181 179 175 176 179 182 183 184 188 177 182 180 188 192 196 212 220 222 219 227 230 228 239 238 239 241 238 237 242 243 246 238 238 245 247 252 252 249 249 242 248 247 250 243 248 242 247 249 251 253 249 248 244 245 252 239 251 252 250 242 243 244 249 238 236 232 226 219 218 215 202 195 192 192 198 193 190 194 193 191 188 189 195 194 185 182 182 189 181 180 192 189 193 186 183 194 188 180 183 184 198 201 212 197 205 200 194 205 207 183 212
172 173 174 174 175 176 173 171 176 180 177 177 180 175 179 180 175 184 184 184 186 178 184 192 208 190 212 222 216 225 229 226 225 225 228 228 227 232 230 232 227 230 234 234 234 237 232 232 237 235 231 234 235 230 234 236 236 239 238 239 236 240 239 236 239 234 233 228 229 233 234 232 228 224 218 213 211 197 193 188 197 185 192 192 191 184 184 185 182 182 191 181 190 192 191 187 180 190 176 182 175 182 190 184 187 182 183 184 180 185 197 198 200 202 208 208 219 203 202 212
162 161 168 167 172 165 170 168 164 166 164 164 165 166 174 167 172 177 174 181 178 183 179 187 185 182 189 184 206 211 197 211 207 211 210 215 215 199 197 197 213 220 218 215 219 222 220 217 221 223 216 218 217 220 221 221 221 223 219 223 220 220 221 218 218 219 220 216 221 221 220 216 216 194 195 190 186 187 191 186 187 180 187 183 187 182 186 179 184 189 182 179 182 177 178 180 181 176 177 180 183 181 179 177 178 181 183 173 175 181 179 174 171 177 185 174 173 172 167 206
149 153 163 160 160 164 162 164 163 163 157 161 163 160 164 162 162 168 171 174 172 175 184 180 183 187 184 186 192 187 184 187 185 184 184 193 187 189 188 193 194 190 191 195 196 198 197 194 192 193 197 193 197 195 194 194 194 193 212 194 204 200 199 191 194 195 194 194 195 193 197 197 198 188 198 189 194 188 186 182 179 181 176 174 172 174 175 176 174 174 174 173 174 167 171 168 171 170 167 172 168 175 169 173 172 170 171 167 175 170 168 173 171 180 179 178 169 176 164 161
150 150 155 151 157 154 156 161 162 158 157 155 158 153 156 155 156 161 153 168 168 167 178 175 176 183 176 183 181 185 186 186 191 192 188 186 194 194 191 193 195 193 194 197 194 196 195 196 196 194 194 196 196 194 198 194 198 197 198 188 196 196 196 199 192 194 195 195 198 195 196 192 192 193 191 184 185 186 176 174 172 173 168 163 167 169 168 167 172 171 173 172 171 167 170 167 165 164 162 171 166 169 172 167 163 161 163 165 166 171 172 165 171 172 171 177 173 176 173 157
143 143 147 145 147 147 146 148 150 152 150 150 148 153 150 151 153 151 159 158 159 166 166 171 173 172 173 175 172 177 180 180 180 179 176 178 184 182 182 183 184 184 185 187 184 186 186 183 187 185 181 188 186 187 188 184 186 189 0 188 188 186 186 187 189 187 190 187 183 186 186 182 181 179 175 176 170 171 169 166 161 160 160 158 162 157 164 158 164 163 157 160 159 161 160 160 154 156 162 161 159 164 159 157 154 155 156 154 152 163 153 159 151 160 161 170 159 149 155 171
138 140 137 145 143 148 151 144 148 144 146 145 139 146 145 145 145 150 149 151 162 160 163 162 169 166 172 168 170 170 169 169 175 175 170 173 176 173 175 173 180 181 176 176 176 175 174 181 177 179 180 179 180 179 184 181 182 0 0 180 178 179 181 186 180 178 177 179 180 175 176 177 171 175 172 170 167 166 163 160 163 156 154 155 159 156 157 154 154 157 150 153 156 156 155 154 153 154 154 153 156 155 154 156 151 144 147 152 158 155 156 153 148 156 152 154 160 157 172 158
136 129 131 134 141 141 148 140 140 143 140 138 140 146 140 135 139 146 144 147 148 151 158 158 159 157 160 161 163 165 162 165 169 167 163 168 165 169 167 167 168 0 171 167 171 173 167 172 171 171 176 171 174 174 174 0 175 175 0 174 0 0 174 174 172 170 171 169 172 169 167 167 168 167 164 162 164 159 159 153 150 155 149 151 154 151 148 147 151 155 144 154 147 149 145 147 152 155 154 147 148 142 145 150 151 143 141 142 150 151 144 140 151 148 150 154 143 155 148 158
128 122 128 123 135 135 139 137 135 121 133 130 131 124 136 134 136 137 137 141 142 147 147 151 149 159 158 158 158 158 160 154 160 156 157 155 165 161 0 0 0 0 0 0 0 0 0 166 164 164 166 161 168 166 0 0 170 165 0 0 0 0 0 0 166 163 166 0 161 163 161 161 159 159 155 155 152 156 149 150 148 145 145 150 144 150 141 142 143 143 144 145 144 147 138 137 142 147 137 141 140 137 142 138 136 133 135 134 138 138 136 143 142 151 145 138 133 137 144 133
115 127 123 117 127 134 133 131 137 131 132 132 125 123 134 134 120 139 135 138 140 141 147 146 151 150 153 153 155 155 152 154 158 159 155 157 155 0 0 0 0 0 0 0 0 0 0 0 158 162 163 164 0 0 0 0 0 0 0 0 0 0 0 0 159 160 0 0 0 0 0 158 162 158 151 150 150 149 149 145 132 143 147 139 141 139 143 140 145 139 137 143 141 139 138 141 144 141 141 139 141 134 137 136 132 133 140 136 143 146 140 151 141 144 142 145 141 130 129 165
112 110 118 122 126 126 126 131 126 126 132 121 118 119 119 129 124 123 130 134 126 127 132 145 141 138 145 145 144 149 152 149 151 152 152 148 0 0 0 0 0 0 0 0 0 0 0 0 155 153 158 0 0 0 0 0 0 0 0 0 0 0 0 0 0 0 0 0 0 0 0 0 150 148 149 147 144 142 142 144 130 139 137 130 126 136 138 139 129 137 138 137 130 127 118 131 140 138 132 136 129 136 132 123 124 133 131 121 134 130 137 134 137 141 137 133 129 128 105 146
102 109 111 114 110 114 120 121 113 127 113 114 119 117 126 123 123 117 119 119 130 126 128 125 135 140 139 139 144 144 141 142 145 145 144 141 0 0 0 0 0 0 0 0 0 0 0 0 0 0 0 0 0 0 0 0 0 0 0 0 0 0 0 0 0 0 0 0 0 0 0 0 144 142 141 140 139 132 129 130 126 122 120 121 128 119 126 127 124 126 125 125 115 126 127 127 128 122 120 119 122 132 132 111 128 120 126 119 128 132 126 132 126 128 122 130 111 106 122 135
111 108 112 116 114 115 115 125 121 119 115 120 115 115 120 121 122 127 122 117 118 116 122 118 135 138 138 139 0 135 138 0 0 139 140 0 0 0 0 0 0 0 0 0 0 0 0 0 0 0 0 0 0 0 0 0 0 0 0 0 0 0 0 0 0 0 0 0 0 0 0 0 0 142 136 125 127 121 116 125 120 118 123 126 118 120 118 122 119 118 117 128 116 116 113 121 118 119 122 121 117 126 132 123 130 113 118 122 113 124 132 112 127 115 133 132 108 137 142 145
103 98 106 109 104 104 107 103 101 103 105 104 104 105 103 110 109 112 117 112 112 111 108 116 120 119 127 120 0 127 0 0 0 0 129 0 0 0 0 0 0 0 0 0 0 0 0 0 0 0 0 0 0 0 0 0 0 0 0 0 0 0 0 0 0 0 0 0 0 0 0 0 130 0 0 127 116 117 119 117 119 115 109 116 111 115 112 111 108 117 114 118 108 111 109 107 112 115 112 108 113 111 110 111 108 114 108 111 108 100 102 103 104 120 109 100 107 115 113 128
97 100 92 95 101 107 101 103 103 104 101 104 103 104 105 108 105 110 115 106 108 111 109 110 114 110 117 119 119 120 0 125 0 0 0 0 0 0 0 0 0 0 0 0 0 0 0 0 0 0 0 0 0 0 0 0 0 0 0 0 0 0 0 0 0 0 0 0 0 0 0 0 0 122 0 117 120 117 114 113 114 111 106 104 108 109 109 120 107 107 111 111 113 114 106 112 104 110 103 116 112 103 112 108 107 116 111 116 108 117 106 105 116 101 103 131 123 126 111 129
99 101 99 102 98 99 103 91 95 98 94 99 99 96 97 93 103 102 114 114 114 105 95 108 114 106 114 117 112 120 121 118 121 0 0 0 0 0 0 0 0 0 0 0 0 0 0 0 0 0 0 0 0 0 0 0 0 0 0 0 0 0 0 0 0 0 0 0 0 0 0 0 123 120 108 117 115 120 118 117 106 113 99 117 108 108 103 101 99 106 105 106 110 96 98 100 107 102 110 106 106 115 107 105 110 102 106 93 100 103 102 105 106 99 103 101 127 129 110 122
74 83 82 84 83 82 83 95 89 83 91 91 95 91 91 89 93 94 92 88 91 85 98 104 98 100 113 108 0 112 104 105 114 0 109 0 0 0 0 0 0 0 0 0 0 0 0 0 0 0 0 0 0 0 0 0 0 0 0 0 0 0 0 0 0 0 0 0 0 0 0 115 106 107 102 114 103 106 103 100 99 103 97 91 102 93 87 96 104 100 92 96 103 84 84 96 90 102 86 91 93 95 95 91 86 93 91 96 91 84 86 76 78 87 96 92 98 94 81 115
96 85 90 89 96 98 99 106 94 93 96 93 91 92 96 97 99 91 104 95 91 106 105 103 101 104 111 110 0 105 110 109 117 111 121 111 112 0 0 0 0 117 0 0 0 0 0 0 0 0 0 0 0 0 0 0 0 0 0 0 117 0 0 0 111 0 0 0 112 0 109 113 112 111 112 107 107 113 101 99 110 104 105 91 98 99 107 102 100 101 107 107 109 100 100 103 99 97 101 111 105 98 94 100 96 99 94 89 90 90 90 100 93 102 111 109 110 107 112 140
86 93 90 91 96 97 91 92 85 97 88 84 86 91 87 89 94 96 96 94 97 89 96 112 87 103 104 101 102 106 93 102 105 101 98 101 0 111 114 0 0 0 0 0 0 0 0 0 0 0 0 0 0 0 0 0 0 111 0 0 109 108 103 110 113 110 105 99 113 106 106 103 101 101 112 107 98 93 102 96 96 94 101 87 93 90 94 106 103 96 96 105 107 87 83 84 87 93 96 86 91 82 88 100 89 88 96 95 96 87 90 92 86 93 89 78 106 131 139 97
85 87 84 87 92 94 102 89 89 84 90 89 84 91 88 90 92 90 89 89 77 95 96 87 88 92 93 91 106 88 93 99 99 96 92 113 97 103 103 102 0 97 100 107 105 92 0 0 94 0 0 108 105 90 98 107 107 103 110 104 101 108 109 101 101 110 100 94 100 108 96 108 104 100 107 91 94 98 100 90 92 89 95 93 92 96 89 91 96 94 101 86 95 95 92 91 83 94 92 84 88 87 91 89 92 92 96 89 87 101 89 95 95 103 81 106 100 116 122 102
84 80 85 84 86 82 98 102 88 84 85 81 82 87 84 89 90 92 92 99 85 99 97 93 91 96 95 88 97 103 98 86 97 96 97 98 95 99 96 109 102 96 98 107 102 93 107 0 102 101 100 105 101 97 97 100 103 107 96 108 105 94 94 104 102 100 93 99 93 106 98 104 102 94 102 88 96 96 97 87 98 96 84 91 98 98 88 86 94 94 89 98 86 92 83 82 94 93 99 93 82 98 92 94 84 103 99 92 91 89 92 87 98 97 95 123 136 106 122 112
81 74 71 69 79 80 85 84 87 77 85 84 85 82 89 83 86 86 84 81 85 83 93 87 86 85 92 94 84 93 92 93 95 93 96 95 97 83 92 97 91 90 85 90 86 94 88 102 94 90 94 97 95 89 89 81 97 88 99 93 94 97 98 96 93 80 97 92 97 98 90 85 93 92 85 96 94 93 98 84 85 94 79 89 87 90 85 84 85 88 95 77 88 82 85 83 85 78 78 90 83 86 80 71 79 81 86 84 79 75 72 83 82 75 94 92 91 83 86 56
75 75 80 86 70 84 89 88 84 83 86 90 81 83 83 89 87 88 83 87 85 93 88 92 91 94 92 84 94 88 84 94 93 96 86 90 95 94 88 96 96 96 94 92 89 98 92 87 99 91 91 97 95 85 103 91 91 86 87 97 96 98 91 93 89 95 88 93 108 95 95 94 88 84 92 96 93 95 95 95 94 90 88 89 76 85 88 79 95 92 78 90 80 84 90 84 89 83 80 84 86 80 82 78 79 84 82 83 85 90 82 87 86 133 126 115 108 108 120 205
