0 0 0 0 0 0 0 0 0 0 0 0 0 0 0 0 0 0 0 0 0 0 0 0 0 0 0 0 0 0 0 0 0 0 0 0 0 0 0 0 0 0 0 0 0 0 0 0 0 0 0 0 0 0 0 0 0 0 0 0 0 0 0 0 0 0 0 0 0 0 0 0 0 0 0 0 0 0 0 0 0 0 0 0 0 0 0 0 0 0 0 0 0 0 0 0 0 0 0 0 0 0 0 0 0 0 0 0 0 0 0 0 0 0 0 0 0 0 0 0
0 0 0 0 0 0 0 0 0 0 0 0 0 0 0 0 0 0 0 0 0 0 0 0 0 0 0 0 0 0 0 0 0 0 0 0 0 0 0 0 0 0 0 0 0 0 0 0 0 0 0 0 0 0 0 0 0 0 0 0 0 0 0 0 0 0 0 0 0 0 0 0 0 0 0 0 0 0 0 0 0 0 0 0 0 0 0 0 0 0 0 0 0 0 0 0 0 0 0 0 0 0 0 0 0 0 0 0 0 0 0 0 0 0 0 0 0 0 0 0
0 0 0 0 0 0 0 0 0 0 0 0 0 0 0 0 0 0 0 0 0 0 0 0 0 0 0 0 0 0 0 0 0 0 0 0 0 0 0 0 0 0 0 0 0 0 0 0 0 0 0 0 0 0 0 0 0 0 0 0 0 0 0 0 0 0 0 0 0 0 0 0 0 0 0 0 0 0 0 0 0 0 0 0 0 0 0 0 0 0 0 0 0 0 0 0 0 0 0 0 0 0 0 0 0 0 0 0 0 0 0 0 0 0 0 0 0 0 0 0
0 0 0 0 0 0 0 0 0 0 0 0 0 0 0 0 0 0 0 0 0 0 0 0 0 0 0 0 0 0 0 0 0 0 0 0 0 0 0 0 0 0 0 0 0 0 0 0 0 0 0 0 0 0 0 0 0 0 0 0 0 0 0 0 0 0 0 0 0 0 0 0 0 0 0 0 0 0 0 0 0 0 0 0 0 0 0 0 0 0 0 0 0 0 0 0 0 0 0 0 0 0 0 0 0 0 0 0 0 0 0 0 0 0 0 0 0 0 0 0
0 0 0 0 0 0 0 0 0 0 0 0 0 0 0 0 0 0 0 0 0 0 0 0 0 0 0 0 0 0 0 0 0 0 0 0 0 0 0 0 0 0 0 0 0 0 0 0 0 0 0 0 0 0 0 0 0 0 0 0 0 0 0 0 0 0 0 0 0 0 0 0 0 0 0 0 0 0 0 0 0 0 0 0 0 0 0 0 0 0 0 0 0 0 0 0 0 0 0 0 0 0 0 0 0 0 0 0 0 0 0 0 0 0 0 0 0 0 0 0
0 0 0 0 0 0 0 0 0 0 0 0 0 0 0 0 0 0 0 0 0 0 0 0 0 0 0 0 0 0 0 0 0 0 0 0 0 0 0 500 488 493 500 481 514 505 519 519 487 506 482 499 494 488 511 463 0 0 0 0 0 0 0 0 0 0 0 0 0 0 0 0 0 0 0 0 0 0 0 0 0 0 0 0 0 0 0 0 0 0 0 0 0 0 0 0 0 0 0 0 0 0 0 0 0 0 0 0 0 0 0 0 0 0 0 0 0 0 0 0
0 0 0 0 0 0 0 0 0 0 0 0 0 0 0 0 0 0 0 0 0 0 0 0 0 0 0 0 0 0 0 0 0 0 0 0 0 550 510 514 509 510 505 514 495 523 520 527 515 523 518 507 513 517 516 516 523 520 514 542 0 0 0 0 0 0 0 0 0 0 0 0 0 0 0 0 0 0 0 0 0 0 0 0 0 0 0 0 0 0 0 0 0 0 0 0 0 0 0 0 0 0 0 0 0 0 0 0 0 0 0 0 0 0 0 0 0 0 0 0
0 0 0 0 0 0 0 0 0 0 0 0 0 0 0 0 0 0 0 0 0 0 0 0 0 0 0 0 0 0 0 0 0 0 0 472 486 504 484 490 481 490 481 519 502 506 495 505 513 487 506 512 512 506 511 513 516 500 505 504 504 501 500 476 466 0 0 0 0 0 0 0 0 0 0 0 0 0 0 0 0 0 0 0 0 0 0 0 0 0 0 0 0 0 0 0 0 0 0 0 0 0 0 0 0 0 0 0 0 0 0 0 0 0 0 0 0 0 0 0
0 0 0 0 0 0 0 0 0 0 0 0 0 0 0 0 0 0 0 0 0 0 0 0 0 0 0 0 0 0 0 0 0 516 508 500 498 505 502 516 513 499 500 504 505 500 503 509 506 511 501 501 521 507 501 520 502 512 501 494 501 502 503 511 510 503 508 529 561 533 611 586 543 544 583 571 593 586 539 562 0 0 0 0 0 0 0 0 0 0 0 0 0 0 0 0 0 0 0 0 0 0 0 0 0 0 0 0 0 0 0 0 0 0 0 0 0 0 0 0
0 0 0 0 0 0 0 0 0 0 0 0 0 0 0 0 0 0 0 0 0 0 0 0 0 0 0 0 0 0 0 557 518 506 495 493 489 495 507 514 512 501 505 502 505 509 505 514 501 502 504 508 513 506 508 508 504 507 509 509 503 513 504 527 504 521 518 520 540 565 555 543 570 579 555 578 621 577 589 570 540 555 578 599 534 584 522 604 596 595 581 597 534 610 587 609 597 573 611 599 571 571 629 531 0 0 0 0 0 0 0 0 0 0 0 0 0 0 0 0
0 0 0 0 0 0 0 0 0 0 0 0 0 0 0 0 0 0 0 0 0 0 0 0 0 0 0 0 0 0 511 492 502 502 495 488 499 492 489 498 489 500 503 496 514 512 504 506 500 503 508 497 505 509 509 522 507 502 500 510 500 494 504 508 513 511 514 499 506 519 515 532 553 559 569 532 535 553 547 577 551 525 593 555 543 559 585 523 590 569 567 529 561 552 547 574 537 579 559 573 545 537 585 516 557 561 514 0 0 0 0 0 0 0 0 0 0 0 0 0
0 0 0 0 0 0 0 0 0 0 0 0 0 0 0 0 0 0 0 0 0 0 0 0 0 0 0 0 505 498 514 501 493 508 507 498 503 488 510 500 512 497 502 500 509 504 503 500 503 505 498 501 507 505 506 495 509 509 497 504 515 503 507 504 505 508 501 507 505 515 512 521 559 576 570 592 545 592 562 544 552 589 560 602 569 592 555 568 569 582 559 561 606 572 584 574 586 600 551 573 581 618 596 548 566 602 572 523 604 0 0 0 0 0 0 0 0 0 0 0
0 0 0 0 0 0 0 0 0 0 0 0 0 0 0 0 0 0 0 0 0 0 0 0 0 0 0 486 516 502 505 493 503 494 502 505 500 503 501 495 493 493 500 509 502 508 499 507 506 504 496 499 507 507 502 508 504 513 504 509 507 509 508 521 508 501 511 512 508 508 513 511 565 577 577 553 546 553 579 566 550 544 548 560 555 519 591 510 588 525 553 555 562 561 571 561 552 545 585 550 550 550 572 555 545 562 551 564 0 0 0 0 0 0 0 0 0 0 0 0
0 0 0 0 0 0 0 0 0 0 0 0 0 0 0 0 0 0 0 0 0 0 0 0 0 0 478 485 487 498 501 495 490 490 498 489 496 494 509 490 505 502 499 504 509 506 499 502 495 496 505 502 498 501 500 501 500 510 506 512 505 506 504 505 508 513 505 505 511 506 512 519 534 531 498 559 529 543 536 548 557 497 543 546 526 494 562 552 550 547 575 557 532 502 520 532 539 561 560 552 549 508 507 606 522 567 477 514 472 0 0 0 0 0 0 0 0 0 0 0
0 0 0 0 0 0 0 0 0 0 0 0 0 0 0 0 0 0 0 0 0 0 0 0 0 482 497 492 503 508 498 501 498 496 486 488 501 501 501 496 514 503 503 505 499 503 507 503 507 506 497 507 501 502 502 512 500 508 503 507 507 513 513 511 503 506 508 501 507 513 503 511 513 537 555 568 540 558 563 573 549 543 566 545 551 551 552 533 597 566 601 561 544 563 565 552 564 591 563 543 539 551 568 537 557 549 561 533 559 522 546 0 0 0 0 0 0 0 0 0
0 0 0 0 0 0 0 0 0 0 0 0 0 0 0 0 0 0 0 0 0 0 0 0 0 483 489 491 497 497 489 493 498 486 485 490 491 506 496 499 505 491 508 497 495 498 502 503 493 497 504 507 507 503 501 501 507 499 502 504 505 505 515 503 504 501 499 498 499 512 509 510 508 518 504 505 492 504 525 540 535 513 551 531 552 520 559 533 521 545 543 551 520 523 547 523 535 520 533 576 561 528 534 529 506 531 536 552 520 0 0 0 536 540 0 0 0 0 0 0
0 0 0 0 0 0 0 0 0 0 0 0 0 0 0 0 0 0 0 0 0 0 0 0 471 485 498 488 489 495 491 499 500 495 488 494 501 498 495 501 491 504 494 501 504 494 494 502 493 508 493 506 504 502 505 505 501 500 506 501 508 501 505 509 499 508 502 502 497 495 506 499 510 513 510 542 516 542 522 527 521 519 544 547 533 540 523 538 543 537 531 523 513 533 551 554 540 563 520 538 544 537 567 549 555 563 573 520 535 551 521 0 0 0 0 0 0 0 0 0
0 0 0 0 0 0 0 0 0 0 0 0 0 0 0 0 0 0 0 0 0 0 0 0 489 489 497 490 490 497 498 493 487 497 495 502 499 499 489 503 503 493 496 491 493 503 504 498 505 502 505 500 500 498 501 500 499 506 502 502 505 497 502 504 506 509 507 506 501 512 498 512 511 511 500 521 536 536 497 544 527 530 569 548 565 526 538 550 546 512 536 530 548 530 542 504 542 543 519 556 541 533 526 537 544 554 565 532 542 537 598 0 0 0 0 0 0 0 0 0
0 0 0 0 0 0 0 0 0 0 0 0 0 0 0 0 0 0 0 0 0 0 0 470 501 492 491 500 489 489 495 499 505 496 498 492 500 490 493 497 499 498 497 495 502 502 504 504 503 506 502 511 494 505 507 506 506 504 507 501 512 507 507 512 496 500 513 502 506 505 509 501 504 504 509 507 502 538 519 526 507 536 509 537 542 535 533 504 516 545 535 520 516 504 529 535 554 524 502 532 569 546 521 534 540 512 536 518 530 555 475 0 0 0 0 0 0 0 0 0
0 0 0 0 0 0 0 0 0 0 0 0 0 0 0 0 0 0 0 0 0 0 0 499 497 489 502 489 492 504 495 496 498 490 490 486 487 487 493 499 494 500 508 500 499 500 498 500 493 505 501 500 501 496 506 509 507 513 506 506 499 508 509 507 504 498 512 496 506 509 512 507 509 510 519 508 546 514 542 539 539 565 531 568 528 563 554 522 561 537 543 552 539 571 535 534 560 529 546 545 548 551 537 557 541 528 538 542 527 545 527 0 0 0 0 0 0 0 0 0
0 0 0 0 0 0 0 0 0 0 0 0 0 0 0 0 0 0 0 0 0 0 442 490 495 489 491 500 494 491 495 504 493 491 493 492 493 496 496 496 501 499 501 501 488 491 504 495 505 510 497 498 497 497 510 502 498 504 504 504 504 509 503 504 499 501 507 510 509 504 504 510 505 501 509 507 497 514 520 529 545 545 527 525 500 503 516 549 511 524 532 503 529 502 504 526 517 537 522 511 528 519 564 523 551 524 523 578 514 457 565 0 563 0 0 0 0 0 0 0
0 0 0 0 0 0 0 0 0 0 0 0 0 0 0 0 0 0 0 0 0 0 467 493 480 487 490 495 495 489 501 491 491 485 489 497 490 488 491 495 501 497 494 494 499 496 497 501 500 497 497 507 492 502 501 506 505 507 501 507 505 504 498 503 508 512 498 510 509 502 505 505 510 509 516 508 514 529 564 522 511 515 513 497 542 534 485 519 503 521 530 517 501 525 519 529 515 516 547 506 521 528 532 515 536 543 524 520 534 506 560 529 0 0 0 0 0 0 0 0
0 0 0 0 0 0 0 0 0 0 0 0 0 0 0 0 0 0 0 0 0 0 495 481 485 486 494 491 492 480 486 485 488 494 484 490 491 489 492 492 496 498 496 497 503 497 500 497 496 499 492 500 501 499 507 501 497 508 505 502 508 497 507 504 500 507 500 513 506 510 500 501 512 501 508 514 512 549 528 545 521 500 511 521 532 489 568 530 514 543 543 508 550 549 546 544 527 549 545 522 535 524 541 534 538 537 506 567 592 549 604 495 584 523 0 0 0 0 0 0
0 0 0 0 0 0 0 0 0 0 0 0 0 0 0 0 0 0 0 0 0 0 490 483 491 484 488 493 479 493 493 481 487 488 481 485 481 494 489 496 488 497 491 489 492 496 497 497 501 503 496 502 500 494 495 499 493 507 498 500 503 507 504 508 502 501 502 503 493 504 508 503 500 505 497 502 510 495 518 507 516 501 516 515 493 509 479 518 480 516 546 481 517 485 491 482 495 467 504 508 520 504 502 504 514 540 523 527 490 472 473 464 529 0 0 0 0 0 0 0
0 0 0 0 0 0 0 0 0 0 0 0 0 0 0 0 0 0 0 0 0 0 491 489 480 481 483 489 487 491 485 489 487 486 487 493 488 490 487 491 496 486 503 501 492 494 497 498 501 501 502 497 495 495 502 500 501 498 504 500 497 507 506 500 504 504 500 498 504 499 510 496 503 503 503 497 500 521 510 529 498 547 522 485 503 518 499 510 516 502 504 533 506 508 509 535 512 516 484 492 511 495 538 517 503 534 534 534 512 472 511 535 491 0 0 0 0 0 0 0
0 0 0 0 0 0 0 0 0 0 0 0 0 0 0 0 0 0 0 0 0 0 480 476 491 487 490 490 486 486 499 488 489 490 496 487 493 490 500 489 491 499 496 495 493 496 487 498 495 498 497 495 499 495 496 496 497 503 505 501 506 498 503 505 511 497 501 503 496 506 501 507 502 507 509 503 502 514 508 506 539 523 517 533 511 500 513 543 530 530 520 531 538 537 527 533 528 506 488 518 565 510 561 524 535 546 514 552 0 0 541 483 548 0 0 0 0 0 0 0
0 0 0 0 0 0 0 0 0 0 0 0 0 0 0 0 0 0 0 0 0 398 472 496 482 476 489 482 486 484 491 486 480 488 486 491 488 497 490 494 487 494 492 494 494 494 492 499 491 496 497 502 493 497 508 498 496 496 502 499 507 500 494 504 501 502 496 502 502 500 502 498 503 502 507 504 504 498 512 524 508 512 494 500 497 488 497 513 511 500 512 504 509 474 523 502 483 494 509 482 502 503 517 527 494 496 514 526 496 480 496 0 0 0 0 0 0 0 0 0
0 0 0 0 0 0 0 0 0 0 0 0 0 0 0 0 0 0 0 0 0 449 482 487 489 482 488 480 477 479 486 476 491 491 489 492 494 488 488 494 490 496 492 487 497 493 496 500 493 496 495 494 496 498 507 499 503 506 506 509 501 501 497 496 507 508 499 503 505 499 505 505 503 508 506 504 512 507 541 528 531 510 514 535 512 520 529 525 521 550 512 544 516 532 534 528 512 529 518 514 513 525 537 520 497 533 522 508 519 512 493 543 529 0 0 0 0 0 0 0
0 0 0 0 0 0 0 0 0 0 0 0 0 0 0 0 0 0 0 0 0 464 483 484 484 477 481 481 482 478 486 487 487 487 481 488 485 490 489 492 492 493 491 494 494 495 494 499 495 500 496 497 499 492 494 502 496 499 502 496 505 497 498 497 505 497 510 503 505 503 498 501 498 505 509 497 507 491 513 502 512 499 512 519 518 520 511 516 539 503 521 519 520 511 500 515 506 495 505 490 549 524 532 559 534 504 525 527 520 486 526 478 479 0 0 0 0 0 0 0
0 0 0 0 0 0 0 0 0 0 0 0 0 0 0 0 0 0 0 0 0 443 480 474 487 480 478 485 484 483 480 486 487 484 487 495 481 482 484 488 486 494 489 494 498 490 491 498 495 492 495 502 498 501 493 497 498 496 498 498 496 498 501 498 494 497 504 504 495 493 502 501 505 499 502 503 506 498 498 496 512 545 514 499 512 509 506 522 508 497 529 495 518 522 494 527 498 521 534 503 476 523 494 505 487 481 502 493 480 540 459 464 441 498 0 0 0 0 0 0
0 0 0 0 0 0 0 0 0 0 0 0 0 0 0 0 0 0 0 0 0 462 494 482 478 483 483 493 482 478 483 483 484 489 494 487 483 486 482 484 494 494 486 491 491 489 494 492 494 492 494 496 497 496 496 497 496 499 500 499 503 498 497 501 499 507 502 507 499 506 504 503 497 502 502 497 497 511 508 527 481 512 543 498 514 522 507 521 507 502 503 518 517 516 512 495 517 516 515 502 517 511 494 544 529 512 523 509 508 520 520 530 462 0 0 0 0 0 0 0
0 0 0 0 0 0 0 0 0 0 0 0 0 0 0 0 0 0 0 0 0 471 479 479 489 477 478 475 480 479 486 485 482 483 487 482 482 487 485 491 490 491 488 492 490 495 491 496 495 496 490 496 492 494 492 501 493 497 498 503 500 501 495 498 497 503 498 497 501 503 499 503 501 497 503 500 503 492 510 489 488 508 519 499 504 506 499 489 500 495 496 516 502 494 498 499 499 487 502 497 518 494 499 487 488 485 501 505 507 511 524 528 528 0 0 0 0 0 0 0
0 0 0 0 0 0 0 0 0 0 0 0 0 0 0 0 0 0 0 0 0 453 472 476 477 476 472 479 481 484 483 481 486 483 484 485 482 488 483 489 494 487 487 494 493 490 492 490 496 496 494 493 493 501 493 500 492 495 503 499 498 495 499 500 497 498 496 500 498 499 501 499 502 495 497 508 500 493 498 490 501 507 495 502 505 499 511 493 513 475 530 501 492 524 528 485 542 492 498 516 476 494 512 510 511 536 509 520 510 502 505 529 518 525 0 0 0 0 0 0
0 0 0 0 0 0 0 0 0 0 0 0 0 0 0 0 0 0 0 0 0 472 481 473 474 477 482 475 473 483 477 481 483 485 479 481 485 488 484 486 483 483 490 495 487 488 490 489 488 483 494 493 496 496 492 499 495 493 488 498 495 497 499 496 505 498 496 495 497 496 502 495 499 504 499 499 503 495 497 505 510 503 491 507 494 507 494 507 513 515 497 510 480 493 496 507 499 492 499 522 532 504 512 505 516 533 528 529 527 511 504 554 445 0 0 0 0 0 0 0
0 0 0 0 0 0 0 0 0 0 0 0 0 0 0 0 0 0 0 0 0 460 482 474 475 481 477 478 479 484 479 481 481 483 479 485 482 483 489 487 486 484 488 488 490 491 485 493 493 486 494 493 495 495 497 497 499 493 493 495 498 493 496 492 501 498 498 496 495 492 500 500 490 500 499 500 510 498 492 493 495 481 492 509 487 479 510 487 489 507 473 508 492 492 478 511 492 492 469 531 484 481 485 490 531 543 484 488 502 501 492 518 545 487 0 0 0 0 0 0
0 0 0 0 0 0 0 0 0 0 0 0 0 0 0 0 0 0 0 0 0 430 475 472 472 477 479 473 474 477 480 482 481 477 482 478 488 482 484 484 488 489 481 491 487 484 486 486 487 492 496 497 495 492 497 495 498 497 496 495 494 495 494 495 498 498 496 503 494 496 493 495 489 498 506 499 494 494 501 506 524 517 495 513 491 506 510 498 489 522 487 521 505 525 488 486 514 519 508 491 526 525 508 506 496 483 502 471 510 538 507 515 455 465 0 0 0 0 0 0
0 0 0 0 0 0 0 0 0 0 0 0 0 0 0 0 0 0 0 0 0 488 478 472 477 473 479 476 482 479 475 484 477 484 481 482 481 484 482 487 482 485 486 484 484 488 489 496 491 489 494 491 488 493 494 501 494 494 488 496 495 502 499 500 504 502 498 501 496 499 500 498 500 497 502 499 495 498 498 496 517 496 495 491 489 484 502 486 496 491 505 516 511 484 517 488 528 516 494 497 518 518 519 512 528 495 462 514 486 480 535 535 490 461 0 0 0 0 0 0
0 0 0 0 0 0 0 0 0 0 0 0 0 0 0 0 0 0 0 0 0 0 473 474 469 476 471 476 485 476 473 479 480 479 478 482 480 486 486 487 486 487 489 489 484 487 486 488 490 491 487 495 492 494 495 491 491 492 492 494 496 495 500 491 496 499 497 498 495 494 495 499 496 497 498 497 495 491 489 492 499 503 504 511 518 487 493 483 497 484 494 480 501 499 509 476 499 497 491 506 483 480 466 473 472 486 459 495 502 501 496 467 480 480 0 0 0 0 0 0
0 0 0 0 0 0 0 0 0 0 0 0 0 0 0 0 0 0 0 0 0 0 493 471 468 470 470 473 477 477 481 476 480 482 482 479 482 485 486 481 486 484 486 483 490 489 489 492 491 492 492 493 495 499 494 490 494 495 499 496 496 495 493 499 495 498 495 505 495 499 505 494 499 494 496 497 492 500 512 492 502 515 486 505 518 521 498 516 519 514 521 504 494 519 519 515 522 509 508 501 503 492 530 508 476 494 510 511 522 482 499 504 479 521 0 0 0 0 0 0
0 0 0 0 0 0 0 0 0 0 0 0 0 0 0 0 0 0 0 0 0 0 520 469 471 477 474 472 479 471 470 477 481 478 482 481 486 486 477 479 484 481 484 483 486 490 490 485 488 494 486 496 489 492 496 497 492 489 495 493 494 494 495 493 498 499 497 497 493 495 495 496 493 495 492 491 496 496 501 491 505 505 502 505 493 506 505 497 497 515 504 494 506 518 479 506 520 489 489 523 491 491 478 472 469 499 486 468 488 516 457 477 494 519 513 500 0 0 0 0
0 0 0 0 0 0 0 0 0 0 0 0 0 0 0 0 0 0 0 0 0 0 574 468 473 473 476 478 479 474 475 481 476 480 482 483 484 483 485 483 481 487 486 489 489 487 491 488 491 491 492 494 493 492 497 496 486 491 491 489 492 493 500 493 498 495 496 498 494 491 492 493 489 493 494 491 499 483 487 486 501 511 507 520 515 492 522 493 503 514 532 509 491 513 500 513 485 512 512 488 488 486 501 491 489 491 475 497 497 517 489 495 473 496 497 0 0 0 0 0
0 0 0 0 0 0 0 0 0 0 0 0 0 0 0 0 0 0 0 0 0 0 0 478 475 475 481 473 477 471 477 487 484 480 477 481 479 480 483 485 488 487 484 486 489 488 489 490 493 493 491 494 494 492 495 491 491 495 495 492 490 495 488 495 497 495 492 496 497 496 497 494 496 490 492 493 490 500 500 510 501 493 501 496 510 486 507 499 488 505 504 500 486 546 528 514 525 493 498 520 493 515 500 485 504 501 509 529 491 506 511 534 539 0 0 0 0 0 0 0
0 0 0 0 0 0 0 0 0 0 0 0 0 0 0 0 0 0 0 0 0 0 0 484 466 468 472 472 475 474 478 477 475 476 481 478 479 486 484 479 483 482 489 484 486 484 488 492 488 490 491 494 491 490 495 491 494 493 492 489 490 493 493 494 489 498 494 495 496 494 495 491 497 488 490 493 492 482 488 516 485 491 493 491 491 489 503 492 514 492 490 502 519 499 480 488 497 524 486 476 518 497 505 511 501 463 488 479 486 482 479 456 503 0 0 0 0 0 0 0
0 0 0 0 0 0 0 0 0 0 0 0 0 0 0 0 0 0 0 0 0 0 0 507 472 474 473 476 476 473 477 475 478 480 475 484 477 481 476 483 482 482 488 490 488 487 490 487 494 484 493 496 489 486 495 490 489 492 487 486 491 489 491 495 495 494 494 499 493 491 496 489 490 495 488 492 490 496 491 490 507 513 524 519 519 504 498 505 540 509 499 499 505 489 523 506 500 499 503 516 502 497 512 472 479 516 498 493 468 491 477 499 499 522 0 0 0 0 0 0
0 0 0 0 0 0 0 0 0 0 0 0 0 0 0 0 0 0 0 0 0 0 0 0 473 468 468 464 474 471 474 474 480 477 478 478 478 479 477 478 482 484 478 484 488 486 486 484 489 485 487 489 493 492 489 489 492 490 491 490 492 498 490 491 494 495 494 492 501 493 496 491 488 493 488 493 491 492 490 509 521 491 487 522 504 506 509 503 503 486 489 511 511 496 521 503 489 508 476 499 480 483 472 517 465 486 488 463 493 458 482 464 521 508 449 0 0 0 0 0
0 0 0 0 0 0 0 0 0 0 0 0 0 0 0 0 0 0 0 0 0 0 0 0 480 473 474 469 467 473 473 474 475 482 475 482 479 479 482 480 478 482 476 485 481 486 487 483 485 486 492 490 492 496 494 490 493 491 491 486 487 489 495 493 486 493 493 490 495 492 499 492 490 491 493 483 485 496 488 492 489 506 497 511 501 520 496 492 500 478 503 497 505 480 524 498 514 484 491 505 503 485 469 481 476 495 453 454 472 462 489 497 463 468 471 458 0 0 0 0
0 0 0 0 0 0 0 0 0 0 0 0 0 0 0 0 0 0 0 0 0 0 0 0 0 478 471 472 470 472 468 474 472 474 474 479 476 474 479 481 479 480 477 483 485 480 491 484 484 486 492 486 487 489 486 487 490 483 485 487 493 489 498 492 490 491 490 491 496 495 495 491 495 488 487 491 490 490 493 498 487 481 485 501 481 488 498 487 497 501 508 482 499 491 513 510 523 529 516 486 526 492 485 502 468 480 468 484 495 510 452 452 484 467 0 0 0 0 0 0
0 0 0 0 0 0 0 0 0 0 0 0 0 0 0 0 0 0 0 0 0 0 0 0 0 513 466 471 466 468 464 471 469 471 475 474 476 471 481 474 479 480 482 484 479 482 478 482 480 485 479 482 487 486 487 491 487 489 487 486 486 486 489 490 493 491 494 491 489 490 492 489 495 489 485 485 481 471 488 476 495 495 473 481 476 482 489 486 487 489 486 485 490 493 494 508 500 481 511 517 480 507 504 487 450 480 481 492 477 482 447 456 457 458 0 0 0 0 0 0
0 0 0 0 0 0 0 0 0 0 0 0 0 0 0 0 0 0 0 0 0 0 0 0 0 0 479 467 467 471 467 471 470 475 474 472 475 474 479 475 475 480 484 478 482 485 483 481 484 484 486 484 487 487 489 490 483 495 491 485 491 488 489 492 491 490 488 492 491 487 492 491 492 491 483 494 477 484 488 494 481 472 494 507 492 503 480 479 477 504 495 486 503 491 488 501 486 503 485 492 494 511 483 461 514 516 499 484 488 469 484 470 474 468 470 0 0 0 0 0
0 0 0 0 0 0 0 0 0 0 0 0 0 0 0 0 0 0 0 0 0 0 0 0 0 0 0 471 465 462 470 477 475 473 473 471 478 477 475 481 477 484 475 479 479 480 481 481 483 478 486 482 483 485 487 483 487 489 481 493 483 487 490 491 487 491 485 493 488 491 486 483 483 480 486 496 488 492 490 484 488 507 490 485 499 483 496 496 486 510 499 491 498 479 501 486 517 500 484 514 515 505 502 502 481 465 471 497 499 459 484 461 489 452 475 0 0 0 0 0
0 0 0 0 0 0 0 0 0 0 0 0 0 0 0 0 0 0 0 0 0 0 0 0 0 0 0 486 464 461 467 467 474 472 470 471 478 472 474 475 477 471 481 480 481 479 479 482 479 481 478 483 483 483 480 479 486 479 483 487 486 485 486 489 487 491 492 491 488 490 484 486 474 477 483 483 485 483 475 496 496 486 478 478 488 498 487 482 485 503 505 480 489 480 461 481 454 467 495 496 485 472 497 462 471 473 480 453 500 484 467 484 421 471 0 0 0 0 0 0
0 0 0 0 0 0 0 0 0 0 0 0 0 0 0 0 0 0 0 0 0 0 0 0 0 0 0 0 501 471 464 468 467 467 474 472 473 473 474 474 475 482 479 477 475 479 472 479 475 482 482 484 483 483 486 486 487 482 484 484 489 484 484 492 484 490 490 485 486 486 485 482 477 502 491 486 480 491 497 483 489 490 497 488 503 481 501 497 494 489 493 478 502 484 492 489 488 496 477 490 484 499 494 494 490 495 490 491 480 485 504 502 487 489 503 0 0 0 0 0
0 0 0 0 0 237 242 258 307 0 0 0 0 0 0 0 0 0 0 0 0 2352 0 0 0 0 0 0 0 500 467 466 465 472 466 471 472 468 467 470 469 477 476 476 473 472 479 476 479 477 479 482 478 482 482 481 483 482 485 480 483 480 485 486 487 490 485 483 483 484 475 489 476 477 485 481 486 477 480 483 479 487 494 483 481 490 482 515 492 495 468 492 499 509 514 506 501 502 493 496 477 502 453 478 471 493 453 482 494 484 461 536 472 492 444 0 0 0 0 0
0 0 0 0 247 229 231 236 235 283 366 0 0 0 0 0 0 0 0 0 0 2310 0 0 0 0 0 0 0 0 453 460 467 468 467 467 468 468 472 471 472 471 472 471 478 474 478 476 475 480 474 485 482 477 476 485 478 479 480 481 480 479 482 484 483 486 479 484 482 478 475 483 482 487 477 479 478 472 476 466 484 465 489 488 477 481 485 498 473 481 484 483 465 489 482 472 467 464 493 500 477 495 469 455 455 480 440 461 494 450 447 462 447 421 0 0 0 0 0 0
0 0 0 262 221 228 224 224 233 234 341 0 0 0 0 0 0 0 0 0 0 0 0 0 0 0 0 0 0 0 0 464 468 467 467 467 471 470 469 470 471 467 468 472 471 474 472 476 476 474 477 474 480 474 476 477 482 476 480 479 478 482 482 482 477 474 481 473 479 483 477 495 478 488 483 479 476 484 485 492 492 472 485 466 483 490 484 483 481 478 473 474 506 496 502 481 487 489 472 487 486 495 489 469 457 445 467 482 483 467 468 481 475 474 482 0 0 0 0 0
234 262 217 240 268 245 277 226 235 227 300 0 412 404 404 412 407 431 409 428 453 449 425 431 428 426 436 456 436 450 442 462 464 466 462 464 460 461 462 471 463 461 472 467 480 467 471 473 475 472 472 474 476 476 478 475 471 476 479 476 474 477 470 479 483 473 473 481 479 475 472 470 468 474 482 471 468 471 471 475 476 463 472 481 473 458 480 469 474 471 492 470 495 464 467 475 461 474 461 477 473 483 462 470 463 460 463 473 470 470 451 467 434 458 444 0 0 0 0 0
190 210 243 221 218 253 258 229 229 264 409 420 403 408 393 400 400 410 398 416 393 428 414 426 427 424 422 439 442 447 457 456 457 453 456 453 461 461 460 457 460 466 460 466 462 465 467 469 473 469 469 472 471 466 471 468 470 474 468 476 473 469 476 471 471 471 473 474 467 461 463 466 470 471 452 457 455 453 461 464 455 462 455 454 461 449 453 461 468 456 453 450 458 443 458 468 452 453 449 468 441 444 450 471 454 430 457 444 454 433 442 464 436 449 425 487 432 438 0 0
182 192 208 220 226 240 223 228 224 311 392 366 366 361 358 382 382 379 373 394 375 380 377 405 404 426 419 415 431 425 440 443 442 441 445 444 443 451 445 441 441 450 445 445 447 454 451 453 449 456 455 455 455 452 455 449 453 454 466 464 461 461 455 456 460 458 459 460 459 450 453 447 454 444 447 436 425 437 422 423 437 440 432 432 423 434 429 424 422 428 435 424 434 439 417 427 425 431 428 429 424 419 427 438 426 419 396 429 421 400 430 429 417 447 418 413 430 444 486 354
279 275 247 222 230 222 231 233 253 316 314 325 333 347 335 352 337 328 350 341 333 348 360 375 379 388 388 397 412 412 423 422 424 429 429 432 429 434 427 434 430 431 428 435 434 431 433 434 432 437 437 430 438 439 440 444 442 439 436 439 452 442 443 444 427 447 435 437 436 430 431 430 425 422 417 413 401 406 406 392 399 388 397 390 397 397 392 398 390 387 403 395 403 398 387 397 402 403 394 400 404 393 383 380 388 384 387 384 375 394 384 370 400 402 380 377 371 390 395 393
295 297 276 256 240 235 227 247 308 299 308 315 309 308 314 325 310 303 309 320 329 328 338 348 355 374 377 377 386 394 399 405 402 410 411 410 411 414 410 412 414 416 418 411 414 414 411 421 419 413 415 414 419 422 423 422 420 424 421 422 422 419 408 417 417 418 428 421 423 417 419 411 401 402 400 392 374 368 364 365 363 353 359 363 369 349 366 373 366 369 368 370 361 363 373 362 357 374 354 365 360 352 372 367 368 358 353 357 340 358 356 357 371 366 373 366 362 374 373 373
279 268 276 264 251 259 249 268 279 272 274 284 266 285 295 285 287 302 286 288 280 312 305 311 328 347 365 360 365 379 387 388 394 386 386 394 387 390 392 389 395 393 391 394 382 399 399 392 392 395 389 397 396 401 397 394 393 399 397 395 392 401 398 389 391 389 392 400 396 393 387 390 388 382 377 360 354 346 346 341 338 325 320 332 325 317 334 320 334 320 321 337 325 341 341 323 339 324 335 337 327 323 327 322 335 334 326 337 325 335 321 333 342 349 308 315 352 324 333 338
247 243 246 255 252 241 248 261 254 254 253 259 252 256 261 254 262 258 272 262 271 280 288 298 309 317 327 334 345 355 354 363 363 352 360 366 363 365 368 366 370 369 370 372 377 363 371 364 364 372 376 373 368 374 387 376 375 378 370 370 373 375 377 369 364 374 374 373 371 371 367 365 361 357 344 336 326 323 312 306 310 299 307 297 308 304 300 298 289 285 297 299 308 308 303 292 307 301 296 296 300 302 300 312 308 304 311 289 291 303 301 302 318 298 283 256 297 321 300 246
229 227 231 232 229 238 246 234 251 239 242 243 250 254 243 248 240 237 249 250 256 266 279 279 291 306 316 329 333 333 335 334 339 343 341 346 345 339 344 337 348 346 347 344 343 337 344 354 342 340 342 349 353 353 348 353 352 351 355 346 357 351 344 342 345 353 345 349 354 340 342 340 345 334 325 320 312 297 286 283 276 280 282 274 287 277 281 282 282 278 279 282 274 280 275 268 272 276 279 280 273 288 283 272 275 270 287 283 285 280 269 281 283 302 276 295 287 280 268 277
212 212 227 224 228 221 216 217 222 232 236 226 220 233 223 218 232 236 227 234 233 245 258 261 271 279 291 294 296 309 304 316 319 317 315 313 318 319 322 329 322 316 314 320 320 317 330 320 322 322 324 331 328 324 332 322 326 319 327 322 325 330 324 328 327 325 326 325 324 322 324 319 315 304 307 301 280 275 272 271 256 262 259 261 265 262 262 257 250 253 255 263 264 251 259 251 256 252 254 258 265 259 265 259 256 257 261 253 265 276 264 253 262 256 269 271 238 247 268 250
202 204 207 204 217 210 218 213 219 213 207 215 208 196 211 218 221 218 225 226 232 230 243 250 255 263 268 276 284 285 293 289 294 293 298 299 298 303 305 302 300 295 297 304 301 298 300 300 306 306 306 302 298 299 298 302 306 305 309 301 304 303 304 307 302 302 300 308 303 298 294 295 302 293 289 276 267 264 261 245 245 247 243 244 247 250 240 239 239 247 243 240 241 251 241 244 238 244 245 238 239 240 252 246 244 234 244 241 240 248 242 260 258 269 250 258 269 243 230 252
178 200 203 202 200 202 206 207 200 207 188 198 204 186 202 191 203 193 212 212 224 223 229 231 239 249 251 260 261 269 267 268 270 271 273 281 280 277 283 283 276 282 288 285 283 281 283 285 285 285 282 282 280 283 281 284 286 284 290 287 282 288 285 286 281 288 282 285 283 284 286 282 277 279 266 260 250 250 238 230 229 230 234 233 231 226 229 219 226 225 226 229 229 232 228 220 225 222 225 223 225 232 223 236 226 223 236 226 234 233 235 229 241 233 237 257 234 213 239 232
177 179 177 176 182 181 178 186 189 179 177 185 178 184 179 177 182 181 185 204 209 208 214 216 223 228 239 243 248 245 255 255 256 253 258 256 259 257 268 263 262 264 266 263 260 260 265 264 258 264 266 265 263 267 264 268 265 267 261 268 266 265 262 269 266 268 270 264 270 267 262 253 257 252 251 239 239 230 224 221 223 215 215 216 215 217 214 213 213 217 216 218 218 209 213 215 207 207 209 213 216 215 215 209 209 205 214 209 211 224 219 221 234 220 230 214 223 222 218 220
174 174 167 175 178 179 174 173 182 182 182 177 182 180 184 177 179 187 176 182 181 191 205 213 216 217 224 223 230 230 236 239 245 242 240 242 237 245 246 250 246 244 246 247 250 251 246 249 245 248 245 250 248 248 244 250 249 253 247 250 248 242 252 250 244 248 252 250 249 251 243 244 244 239 236 227 223 219 196 198 197 192 184 189 200 187 196 201 197 188 193 189 192 187 182 188 183 205 190 193 188 194 191 184 194 195 202 180 184 210 209 196 210 204 210 197 206 229 212 211
164 170 175 173 171 175 170 169 172 178 176 176 173 173 172 178 179 181 178 184 184 185 184 189 192 207 210 215 215 221 224 223 227 225 229 223 226 233 229 228 226 233 231 231 233 234 229 229 233 232 236 234 235 233 232 233 233 239 235 235 231 234 235 233 233 231 233 231 228 234 234 231 227 218 220 213 210 196 194 196 192 193 195 194 186 194 184 188 193 190 191 191 186 191 188 183 184 188 187 180 186 187 184 183 183 175 184 177 184 178 180 181 193 179 202 197 210 198 201 193
163 161 171 170 171 166 166 168 170 166 172 167 168 169 171 175 168 173 175 182 181 184 176 190 182 183 186 191 206 191 211 212 209 212 214 211 216 213 210 212 214 221 215 215 217 219 218 219 220 220 217 220 220 218 220 220 220 219 219 225 219 223 221 221 219 216 218 215 219 220 220 215 214 194 196 193 186 194 188 189 186 182 184 183 182 180 187 185 184 183 185 180 178 179 181 182 178 183 180 183 182 179 184 181 180 178 178 176 175 176 181 173 176 175 178 171 181 175 170 186
157 157 157 162 163 164 159 166 164 167 160 160 158 161 164 162 161 166 163 172 173 177 177 180 181 183 187 183 193 186 180 188 185 185 185 193 189 184 186 193 195 191 192 193 199 200 194 195 189 192 192 197 196 196 196 193 194 194 194 197 203 198 199 190 195 192 195 193 195 196 201 197 198 191 190 194 196 189 186 181 176 172 173 174 175 174 175 179 174 174 173 174 172 170 175 171 172 166 169 172 169 172 171 171 176 172 173 161 165 168 165 170 177 176 174 170 164 164 174 173
147 145 150 152 155 156 156 154 154 160 157 155 155 154 160 152 160 160 157 163 163 168 176 174 177 181 177 181 177 185 188 184 190 187 189 187 189 194 191 190 194 190 190 197 193 196 195 196 195 190 193 198 193 196 196 194 194 198 196 198 196 197 196 198 195 195 192 195 198 194 196 195 194 189 189 182 185 181 178 175 172 170 168 163 164 169 171 166 169 169 166 168 168 166 168 163 164 163 160 167 164 165 168 163 165 160 158 163 163 159 165 166 167 177 163 164 166 171 170 142
148 143 148 148 148 149 147 149 151 150 150 153 150 153 150 150 157 152 157 158 161 165 163 172 172 172 170 172 174 176 177 177 181 182 176 177 182 178 182 182 183 181 187 184 178 182 185 182 186 185 185 188 187 186 187 187 188 189 0 189 187 183 187 187 188 186 191 186 183 187 185 182 184 179 174 175 173 170 171 164 160 159 164 160 161 159 165 157 166 162 160 163 159 160 160 163 156 160 163 163 161 161 161 155 159 158 155 160 157 160 158 165 163 156 166 164 158 159 171 172
133 141 139 142 139 149 147 146 143 145 142 145 142 146 141 145 144 148 149 148 160 159 160 164 168 168 170 171 167 172 170 170 178 174 171 173 178 175 175 175 176 182 176 173 175 176 175 177 175 179 178 179 176 180 182 182 181 0 0 177 177 176 177 181 180 178 176 178 179 174 176 175 173 174 172 170 172 164 163 157 159 154 153 154 157 156 157 153 155 154 150 155 156 157 153 152 154 157 156 153 153 158 151 155 152 149 146 146 163 152 159 155 149 151 150 153 155 150 159 167
136 132 134 135 141 141 148 140 139 143 139 142 144 144 143 140 143 146 150 141 149 152 155 156 157 159 157 162 163 163 164 163 168 166 165 167 164 167 166 169 170 0 173 169 170 171 171 168 171 167 173 171 174 175 176 0 174 170 0 174 174 0 174 173 170 168 171 167 173 170 169 165 170 167 165 162 162 157 156 151 148 154 148 150 151 146 150 146 150 152 145 149 150 154 145 147 151 143 154 149 152 142 145 151 145 143 142 138 148 148 147 147 139 155 143 151 146 155 153 175
129 125 128 126 134 132 143 138 133 122 131 133 131 124 138 133 138 134 137 136 140 141 147 151 149 156 155 157 156 161 160 155 156 161 159 155 162 161 0 0 0 0 0 0 0 0 164 167 164 166 165 163 168 165 0 0 168 167 168 164 0 0 0 0 165 166 167 0 162 164 163 163 157 159 154 155 150 157 149 148 153 146 147 147 145 149 142 144 142 145 146 145 145 148 140 138 144 146 143 144 136 136 138 140 135 136 136 139 139 142 142 144 145 148 150 147 143 138 138 129
122 125 122 114 116 135 134 131 135 129 123 133 132 127 123 127 119 136 134 136 139 140 144 147 145 148 151 152 152 155 153 152 157 157 154 152 158 0 0 0 0 0 0 0 0 0 158 0 157 160 164 163 0 0 0 0 0 0 0 0 0 0 0 0 0 160 0 0 0 0 0 156 161 152 152 148 150 153 147 143 141 131 143 140 142 138 141 138 144 138 124 138 139 139 130 137 144 139 134 137 136 134 136 135 131 128 132 130 138 140 136 143 140 132 132 140 136 128 128 169
115 107 118 122 128 126 128 129 130 128 131 120 122 116 119 128 124 132 133 135 126 124 132 143 141 140 143 143 145 147 152 147 151 150 150 147 0 0 0 0 0 0 0 0 0 0 0 0 149 152 158 0 0 0 0 0 0 0 0 0 0 0 0 0 0 0 0 0 0 0 0 0 150 151 150 147 144 144 143 144 138 140 128 128 137 128 137 138 137 129 140 139 130 127 119 129 138 136 132 135 136 133 134 123 132 134 128 125 137 134 139 139 138 142 141 133 139 131 112 143
101 107 112 111 109 112 125 119 115 119 116 111 119 116 125 123 124 120 127 115 121 123 125 123 136 139 139 141 144 144 145 143 140 142 144 142 0 0 0 0 0 0 0 0 0 0 0 0 0 0 0 0 0 0 0 0 0 0 0 0 0 0 0 0 0 0 0 0 0 0 0 0 0 142 142 138 138 132 127 130 125 120 120 121 125 118 126 123 123 126 124 124 118 125 125 126 127 131 122 121 118 129 132 121 129 129 117 117 128 133 127 132 118 132 125 126 120 108 118 129
112 107 116 118 112 115 113 124 120 117 113 116 116 117 114 121 117 127 122 115 112 117 121 115 136 127 135 131 0 133 0 0 134 137 141 0 0 0 0 0 0 0 0 0 0 0 0 0 0 0 0 0 0 0 0 0 0 0 0 0 0 0 0 0 0 0 0 0 0 0 0 0 0 142 122 136 124 123 117 124 119 119 119 124 116 118 115 118 117 115 118 126 119 116 115 119 116 120 118 116 120 122 120 122 116 113 118 122 107 132 116 123 119 121 131 117 110 131 135 129
103 100 110 112 105 105 105 106 98 100 111 102 104 112 108 107 108 113 115 109 114 115 108 118 120 117 125 123 123 126 0 0 0 0 127 0 0 0 0 0 0 0 0 0 0 0 0 0 0 0 0 0 0 0 0 0 0 0 0 0 0 0 0 0 0 0 0 0 0 0 0 0 128 0 0 125 119 119 120 111 114 117 107 117 114 113 111 110 108 112 115 116 110 109 110 109 112 114 117 111 114 108 112 113 109 117 105 107 121 104 105 114 101 115 110 101 107 143 119 139
97 101 91 94 99 101 104 100 101 105 102 100 102 104 109 104 106 111 115 108 108 109 108 112 116 110 115 117 122 119 0 126 0 0 0 0 0 0 0 0 0 0 0 0 0 0 0 0 0 0 0 0 0 0 0 0 0 0 0 0 0 0 0 0 0 0 0 0 0 0 0 0 0 121 0 115 116 117 112 108 111 110 104 105 114 106 109 114 105 107 114 111 111 114 107 114 103 107 99 116 111 104 114 101 104 117 110 107 108 110 107 100 119 99 103 124 109 113 112 133
96 100 99 102 95 96 103 93 95 98 100 97 102 93 103 96 104 103 111 115 111 104 99 109 111 108 110 112 113 121 120 114 121 0 0 0 0 0 0 0 0 0 0 0 0 0 0 0 0 0 0 0 0 0 0 0 0 0 0 0 0 0 0 0 0 0 0 0 0 0 0 0 123 121 107 119 114 114 118 112 106 110 102 118 107 105 103 101 103 106 105 109 109 89 97 98 106 99 110 104 104 108 108 103 107 110 109 89 106 96 99 103 104 92 106 102 131 138 124 118
87 84 84 84 80 83 83 95 91 84 90 90 96 97 91 88 77 97 91 87 91 86 100 108 102 100 115 106 0 115 103 108 116 0 0 0 0 0 112 0 0 0 0 0 0 0 0 0 0 0 0 0 0 0 0 0 0 0 0 0 0 0 0 0 0 0 0 0 0 0 0 115 112 106 104 111 107 103 103 102 101 102 96 95 99 96 88 100 105 100 95 96 103 84 83 97 92 102 90 95 93 96 93 93 85 92 95 95 91 86 89 84 83 94 96 94 97 94 109 127
92 82 90 88 97 92 95 107 89 94 94 95 93 90 96 96 96 93 101 95 98 102 105 101 99 104 111 106 0 108 112 109 116 112 117 108 0 0 111 0 0 118 0 0 0 0 0 0 0 0 0 0 0 0 0 0 0 0 0 0 113 0 0 0 110 0 0 0 109 0 106 107 114 110 115 107 106 112 101 99 109 102 105 90 98 101 103 106 101 104 107 106 105 98 100 103 98 94 98 105 103 95 97 100 96 102 98 86 89 81 85 91 90 95 94 102 108 109 133 99
86 93 91 87 96 96 92 91 84 98 83 92 88 93 86 85 92 98 95 92 98 94 96 112 90 100 107 101 103 106 94 0 105 97 100 100 0 114 111 0 110 0 0 0 0 0 0 0 0 0 0 0 0 0 0 0 0 108 0 0 0 107 105 107 111 112 104 101 112 107 107 101 101 101 113 106 98 90 104 96 94 96 101 88 90 92 92 101 105 95 98 104 108 87 95 80 90 89 94 88 95 81 93 93 91 84 102 95 94 88 93 92 83 87 95 82 125 109 111 119
85 87 80 89 91 91 102 87 89 83 89 88 84 91 88 88 89 88 88 87 79 93 95 85 85 95 91 89 104 90 95 98 99 93 95 111 98 101 100 99 102 97 99 109 103 92 0 0 96 0 0 105 104 91 100 106 106 102 110 101 101 104 108 99 100 108 104 95 96 107 99 105 107 102 101 91 92 97 100 90 95 89 93 97 95 91 87 89 94 94 100 86 95 95 88 90 84 93 91 80 87 88 88 89 87 81 92 87 85 98 87 103 90 94 85 100 105 102 101 92
85 80 82 84 84 82 95 102 86 83 86 82 82 87 85 92 90 94 91 97 83 98 94 92 90 96 93 88 95 100 94 83 93 93 95 97 99 100 93 105 101 95 98 105 101 95 104 0 105 99 99 105 97 99 103 99 100 104 98 108 102 94 94 105 104 98 95 100 95 105 96 100 100 92 101 85 93 96 94 95 98 96 95 90 93 95 87 87 93 86 84 97 87 89 84 80 94 93 98 84 82 97 83 91 90 100 91 94 88 88 86 92 91 88 85 115 132 100 99 94
81 76 69 68 79 86 88 85 87 79 86 83 87 79 90 84 89 86 87 85 92 83 91 88 85 86 90 89 86 94 91 94 82 95 90 96 94 84 91 97 91 89 83 91 86 91 92 100 92 90 94 85 97 90 88 84 100 87 98 95 98 81 80 77 94 81 94 92 97 83 94 89 96 91 83 96 94 94 96 85 86 93 83 88 85 92 91 88 82 86 94 80 91 82 83 86 83 78 77 91 81 85 81 68 83 78 89 84 81 78 88 87 76 97 100 97 142 122 73 80
72 74 83 85 70 87 88 85 82 79 87 86 79 82 82 86 87 89 83 85 82 92 84 91 87 93 94 83 93 92 83 98 92 97 95 92 85 91 96 93 95 96 95 89 89 100 89 97 101 92 90 85 87 87 106 94 88 84 90 95 98 96 92 89 89 95 90 95 107 91 97 95 87 85 92 95 94 96 94 95 89 90 87 89 79 86 86 78 89 94 76 87 79 79 93 83 92 88 79 82 86 81 83 79 79 83 79 87 87 89 96 88 85 113 82 86 109 98 98 204
