0 0 0 0 0 0 0 0 0 0 0 0 0 0 0 0 0 0 0 0 0 0 0 0 0 0 0 0 0 0 0 0 0 0 0 0 0 0 0 0 0 0 0 0 0 0 0 0 0 0 0 0 0 0 0 0 0 0 0 0 0 0 0 0 0 0 0 0 0 0 0 0 0 0 0 0 0 0 0 0 0 0 0 0 0 0 0 0 0 0 0 0 0 0 0 0 0 0 0 0 0 0 0 0 0 0 0 0 0 0 0 0 0 0 0 0 0 0 0 0
0 0 0 0 0 0 0 0 0 0 0 0 0 0 0 0 0 0 0 0 0 0 0 0 0 0 0 0 0 0 0 0 0 0 0 0 0 0 0 0 0 0 0 0 0 0 0 0 0 0 0 0 0 0 0 0 0 0 0 0 0 0 0 0 0 0 0 0 0 0 0 0 0 0 0 0 0 0 0 0 0 0 0 0 0 0 0 0 0 0 0 0 0 0 0 0 0 0 0 0 0 0 0 0 0 0 0 0 0 0 0 0 0 0 0 0 0 0 0 0
0 0 0 0 0 0 0 0 0 0 0 0 0 0 0 0 0 0 0 0 0 0 0 0 0 0 0 0 0 0 0 0 0 0 0 0 0 0 0 0 0 0 0 0 0 0 0 0 0 0 0 0 0 0 0 0 0 0 0 0 0 0 0 0 0 0 0 0 0 0 0 0 0 0 0 0 0 0 0 0 0 0 0 0 0 0 0 0 0 0 0 0 0 0 0 0 0 0 0 0 0 0 0 0 0 0 0 0 0 0 0 0 0 0 0 0 0 0 0 0
0 0 0 0 0 0 0 0 0 0 0 0 0 0 0 0 0 0 0 0 0 0 0 0 0 0 0 0 0 0 0 0 0 0 0 0 0 0 0 0 0 0 0 0 0 0 0 0 0 0 0 0 0 0 0 0 0 0 0 0 0 0 0 0 0 0 0 0 0 0 0 0 0 0 0 0 0 0 0 0 0 0 0 0 0 0 0 0 0 0 0 0 0 0 0 0 0 0 0 0 0 0 0 0 0 0 0 0 0 0 0 0 0 0 0 0 0 0 0 0
0 0 0 0 0 0 0 0 0 0 0 0 0 0 0 0 0 0 0 0 0 0 0 0 0 0 0 0 0 0 0 0 0 0 0 0 0 0 0 0 0 0 0 0 0 0 0 0 0 0 0 0 0 0 0 0 0 0 0 0 0 0 0 0 0 0 0 0 0 0 0 0 0 0 0 0 0 0 0 0 0 0 0 0 0 0 0 0 0 0 0 0 0 0 0 0 0 0 0 0 0 0 0 0 0 0 0 0 0 0 0 0 0 0 0 0 0 0 0 0
0 0 0 0 0 0 0 0 0 0 0 0 0 0 0 0 0 0 0 0 0 0 0 0 0 0 0 0 0 0 0 0 0 0 0 0 0 0 0 490 492 502 474 478 504 501 497 508 497 520 485 488 489 505 510 0 0 0 0 0 0 0 0 0 0 0 0 0 0 0 0 0 0 0 0 0 0 0 0 0 0 0 0 0 0 0 0 0 0 0 0 0 0 0 0 0 0 0 0 0 0 0 0 0 0 0 0 0 0 0 0 0 0 0 0 0 0 0 0 0
0 0 0 0 0 0 0 0 0 0 0 0 0 0 0 0 0 0 0 0 0 0 0 0 0 0 0 0 0 0 0 0 0 0 0 0 0 502 508 502 496 491 502 519 498 510 515 517 500 523 501 506 501 506 518 529 516 507 524 497 0 0 0 0 0 0 0 0 0 0 0 0 0 0 0 0 0 0 0 0 0 0 0 0 0 0 0 0 0 0 0 0 0 0 0 0 0 0 0 0 0 0 0 0 0 0 0 0 0 0 0 0 0 0 0 0 0 0 0 0
0 0 0 0 0 0 0 0 0 0 0 0 0 0 0 0 0 0 0 0 0 0 0 0 0 0 0 0 0 0 0 0 0 0 0 517 514 511 499 502 503 512 492 502 484 506 502 517 520 503 526 510 498 507 528 512 527 500 535 516 501 517 538 521 500 0 0 0 0 0 0 0 0 0 0 0 0 0 0 0 0 0 0 0 0 0 0 0 0 0 0 0 0 0 0 0 0 0 0 0 0 0 0 0 0 0 0 0 0 0 0 0 0 0 0 0 0 0 0 0
0 0 0 0 0 0 0 0 0 0 0 0 0 0 0 0 0 0 0 0 0 0 0 0 0 0 0 0 0 0 0 0 0 478 516 501 502 508 500 498 491 504 500 501 494 502 500 498 501 514 508 494 511 505 493 520 516 501 513 505 490 509 493 510 508 512 515 523 558 562 552 578 539 0 546 600 553 522 0 574 0 0 0 0 0 0 0 0 0 0 0 0 0 0 0 0 0 0 0 0 0 0 0 0 0 0 0 0 0 0 0 0 0 0 0 0 0 0 0 0
0 0 0 0 0 0 0 0 0 0 0 0 0 0 0 0 0 0 0 0 0 0 0 0 0 0 0 0 0 0 0 501 503 508 493 499 491 508 507 503 503 504 503 506 502 508 505 513 512 513 511 502 514 505 510 498 510 522 500 513 509 510 516 522 499 504 522 540 534 575 598 600 551 574 554 604 599 615 614 574 599 598 585 629 565 601 561 610 596 568 597 562 610 579 603 603 602 650 607 577 600 601 579 573 0 626 0 0 0 0 0 0 0 0 0 0 0 0 0 0
0 0 0 0 0 0 0 0 0 0 0 0 0 0 0 0 0 0 0 0 0 0 0 0 0 0 0 0 0 0 525 490 499 498 496 495 502 497 502 507 498 495 498 498 509 502 502 506 501 500 506 504 504 510 508 513 505 500 498 509 514 504 509 509 503 518 521 521 509 499 515 539 506 576 573 584 558 544 563 569 550 594 563 563 614 599 544 582 543 573 570 568 524 589 566 575 612 552 548 560 597 577 567 563 599 558 601 0 0 0 0 0 0 0 0 0 0 0 0 0
0 0 0 0 0 0 0 0 0 0 0 0 0 0 0 0 0 0 0 0 0 0 0 0 0 0 0 0 488 496 501 494 493 502 513 489 501 497 506 499 511 511 496 505 507 511 509 498 494 493 501 506 513 494 503 504 508 508 497 503 510 503 509 510 506 508 510 506 497 514 512 532 546 523 526 575 565 565 558 525 530 575 553 543 506 536 541 520 560 561 565 530 543 570 530 557 555 529 534 517 535 549 553 556 536 501 570 548 542 0 0 0 0 0 0 0 0 0 0 0
0 0 0 0 0 0 0 0 0 0 0 0 0 0 0 0 0 0 0 0 0 0 0 0 0 0 0 505 507 493 508 508 505 506 492 498 504 504 505 507 501 499 506 509 503 502 499 523 518 509 506 512 514 504 507 503 514 512 504 520 514 512 515 517 516 506 509 512 514 515 521 532 551 560 544 580 551 548 588 581 591 558 506 575 587 563 541 576 601 572 569 545 608 567 590 559 560 579 575 537 588 554 549 553 569 559 612 616 0 0 0 0 0 0 0 0 0 0 0 0
0 0 0 0 0 0 0 0 0 0 0 0 0 0 0 0 0 0 0 0 0 0 0 0 0 0 513 484 497 497 512 500 492 503 496 499 486 499 496 492 495 504 504 504 503 507 504 497 503 498 506 505 510 501 508 504 507 507 512 501 506 508 503 502 517 500 512 506 508 508 511 515 522 527 537 562 534 558 557 529 549 565 560 564 502 538 526 540 549 531 550 606 507 549 576 555 529 546 539 585 537 549 574 524 545 534 508 585 604 0 0 0 0 0 0 0 0 0 0 0
0 0 0 0 0 0 0 0 0 0 0 0 0 0 0 0 0 0 0 0 0 0 0 0 0 494 515 500 497 495 499 500 502 492 498 495 507 489 506 498 504 495 498 509 508 512 508 511 508 509 502 501 511 502 507 506 501 505 506 507 509 507 507 510 508 503 505 503 517 510 507 503 499 533 538 573 547 564 554 579 573 558 509 544 539 566 557 559 560 579 554 571 556 539 580 569 535 563 555 544 558 577 560 576 551 544 574 596 571 605 576 0 0 0 0 0 0 0 0 0
0 0 0 0 0 0 0 0 0 0 0 0 0 0 0 0 0 0 0 0 0 0 0 0 0 494 493 494 494 496 498 490 500 501 492 491 500 503 503 503 505 493 510 496 501 507 508 506 497 505 500 513 508 497 508 503 510 506 499 515 507 509 509 495 504 509 520 513 504 507 518 510 514 519 523 549 535 544 553 563 557 528 521 588 554 562 561 579 560 575 530 566 552 586 550 572 580 569 597 581 532 563 539 527 549 564 534 557 516 516 0 0 0 593 0 0 0 0 0 0
0 0 0 0 0 0 0 0 0 0 0 0 0 0 0 0 0 0 0 0 0 0 0 0 478 483 491 493 495 483 494 487 501 490 488 498 496 487 497 496 506 497 492 496 502 497 502 501 494 501 504 506 505 506 506 507 500 499 503 501 512 498 511 508 499 513 505 509 507 510 503 505 514 506 526 526 497 558 533 556 544 546 526 539 565 526 556 513 506 515 543 528 539 503 557 529 542 511 501 517 528 584 570 557 516 527 570 507 508 560 518 0 0 0 0 0 0 0 0 0
0 0 0 0 0 0 0 0 0 0 0 0 0 0 0 0 0 0 0 0 0 0 0 0 487 493 498 491 492 499 500 500 502 491 497 506 504 494 494 511 501 497 503 499 500 505 500 503 511 498 504 506 501 505 501 500 505 509 510 509 509 506 508 508 505 515 509 506 506 506 510 515 505 514 502 528 528 533 530 543 542 550 562 530 545 539 531 565 537 557 569 572 549 578 521 540 565 549 536 568 569 545 557 585 552 548 563 536 586 566 571 0 0 0 0 0 0 0 0 0
0 0 0 0 0 0 0 0 0 0 0 0 0 0 0 0 0 0 0 0 0 0 0 476 487 487 484 500 486 482 489 501 492 489 492 490 494 494 495 495 493 497 496 497 501 506 505 511 502 507 498 504 499 511 509 504 497 505 500 498 511 504 507 504 497 503 518 505 501 507 508 508 514 508 510 510 520 515 534 521 521 523 497 522 529 537 579 536 531 549 543 535 551 533 518 512 543 553 521 519 539 525 544 520 568 555 526 543 493 539 507 0 0 0 0 0 0 0 0 0
0 0 0 0 0 0 0 0 0 0 0 0 0 0 0 0 0 0 0 0 0 0 0 494 491 490 486 487 475 492 490 495 486 498 492 490 490 483 491 491 490 499 497 494 501 496 495 499 493 497 497 505 501 492 495 506 498 509 502 493 507 503 499 505 500 502 507 503 504 509 507 505 509 513 505 509 524 519 508 516 514 512 528 544 512 548 526 532 542 536 519 515 502 536 528 525 536 578 534 526 514 560 514 513 519 508 515 528 550 510 500 0 0 0 0 0 0 0 0 0
0 0 0 0 0 0 0 0 0 0 0 0 0 0 0 0 0 0 0 0 0 0 451 484 492 498 500 494 487 489 496 496 498 493 483 498 491 495 490 494 497 499 501 501 496 491 510 501 507 502 498 498 497 492 511 503 506 502 503 502 496 501 503 508 498 505 510 505 495 509 504 512 512 509 503 500 520 549 556 544 536 527 528 536 530 509 537 520 508 546 556 515 545 539 536 576 556 537 538 527 504 525 531 540 546 525 529 516 528 501 562 0 517 0 0 0 0 0 0 0
0 0 0 0 0 0 0 0 0 0 0 0 0 0 0 0 0 0 0 0 0 0 474 486 480 485 487 487 492 498 485 494 485 487 495 495 487 494 490 492 497 499 504 503 492 498 493 500 498 498 495 493 493 503 497 502 505 498 501 510 502 504 500 508 500 512 512 502 510 498 507 506 509 506 511 508 520 511 523 487 473 515 517 511 501 533 517 506 513 512 511 502 521 511 530 532 507 485 530 494 552 522 503 515 514 546 531 492 471 514 474 0 0 0 0 0 0 0 0 0
0 0 0 0 0 0 0 0 0 0 0 0 0 0 0 0 0 0 0 0 0 0 508 482 491 489 488 502 487 485 487 492 490 489 495 490 490 498 498 498 500 501 498 505 497 504 499 501 500 503 497 500 502 502 507 503 507 508 506 496 508 514 506 505 510 504 511 501 513 502 507 500 509 504 507 513 520 543 545 527 523 534 513 516 551 568 525 516 574 551 532 540 538 514 536 546 537 549 549 539 548 523 541 542 504 508 534 564 544 538 523 551 573 596 0 0 0 0 0 0
0 0 0 0 0 0 0 0 0 0 0 0 0 0 0 0 0 0 0 0 0 0 501 493 496 487 492 494 491 488 496 494 495 489 490 485 492 494 498 493 499 499 505 494 498 493 496 508 495 503 508 507 503 498 503 505 506 512 503 502 504 505 505 502 499 502 504 504 508 505 514 508 507 506 510 515 501 522 530 555 524 518 528 526 515 521 541 505 546 547 524 534 535 520 564 511 535 570 547 543 564 531 551 525 518 550 487 540 549 523 533 471 492 0 0 0 0 0 0 0
0 0 0 0 0 0 0 0 0 0 0 0 0 0 0 0 0 0 0 0 0 0 470 489 474 486 484 494 485 492 491 487 489 483 485 489 487 491 484 487 498 489 504 496 496 496 492 491 501 507 496 499 493 497 506 499 497 500 506 498 504 502 505 498 498 501 499 499 502 505 504 506 502 506 505 500 505 506 512 492 526 508 490 511 516 499 492 499 477 498 524 503 477 481 460 497 479 503 487 498 509 517 454 487 553 510 529 473 509 457 442 475 464 0 0 0 0 0 0 0
0 0 0 0 0 0 0 0 0 0 0 0 0 0 0 0 0 0 0 0 0 0 493 472 482 485 488 489 482 490 497 482 479 486 497 486 485 498 499 497 491 491 492 494 495 493 496 499 496 504 500 497 499 505 496 498 502 503 502 497 501 500 499 502 511 501 504 507 498 500 497 503 504 511 509 506 503 513 524 514 524 533 524 531 512 529 545 548 516 556 525 530 529 529 537 568 527 528 513 526 526 525 510 525 524 554 533 590 540 552 542 508 568 0 0 0 0 0 0 0
0 0 0 0 0 0 0 0 0 0 0 0 0 0 0 0 0 0 0 0 0 466 477 495 480 488 485 489 489 483 481 489 484 486 487 478 493 491 486 494 492 499 496 494 489 494 496 497 497 496 496 495 493 502 498 496 499 501 503 498 504 497 496 500 502 499 496 503 498 504 496 500 501 506 512 512 507 523 504 494 515 515 516 487 518 514 513 498 513 502 494 489 520 493 479 474 504 511 519 476 531 503 517 528 509 535 468 515 470 505 485 533 0 0 0 0 0 0 0 0
0 0 0 0 0 0 0 0 0 0 0 0 0 0 0 0 0 0 0 0 0 451 491 482 493 478 487 480 482 483 483 482 485 485 493 491 488 488 490 488 494 495 489 489 495 493 493 495 498 496 496 500 499 499 496 499 499 499 503 497 504 498 505 497 503 501 507 501 502 506 504 498 498 510 507 504 508 506 509 516 495 500 523 512 497 502 513 502 513 512 501 515 513 486 504 493 520 499 492 520 489 505 492 498 505 497 524 510 509 506 519 512 512 0 0 0 0 0 0 0
0 0 0 0 0 0 0 0 0 0 0 0 0 0 0 0 0 0 0 0 0 473 481 480 479 487 486 487 482 485 493 488 490 490 485 489 486 489 488 491 492 488 494 496 488 494 495 504 497 494 496 497 500 501 494 504 494 500 502 500 503 500 505 503 505 508 510 506 504 501 507 504 503 511 502 500 501 510 493 526 535 548 507 517 508 536 526 537 537 530 542 527 503 505 531 514 536 533 525 511 535 528 527 552 521 548 540 525 512 545 509 537 512 0 523 0 0 0 0 0
0 0 0 0 0 0 0 0 0 0 0 0 0 0 0 0 0 0 0 0 0 453 474 477 487 479 487 480 483 490 476 483 484 489 480 485 484 487 485 489 497 491 489 496 494 493 490 496 493 495 492 500 500 501 498 502 497 498 501 498 497 500 496 496 505 497 500 507 497 501 498 499 504 498 502 502 500 504 499 487 508 496 493 505 493 515 485 504 522 505 517 490 486 512 505 507 526 493 499 522 508 523 498 502 503 508 533 513 468 489 481 505 474 0 0 0 0 0 0 0
0 0 0 0 0 0 0 0 0 0 0 0 0 0 0 0 0 0 0 0 0 462 484 478 483 483 479 484 485 481 483 483 479 484 489 487 486 487 487 490 493 493 491 495 493 487 492 491 494 494 493 498 496 497 498 498 502 503 502 498 498 505 505 502 500 497 500 502 499 509 506 502 498 508 499 497 502 511 503 506 503 526 504 503 537 509 501 522 512 505 524 505 511 501 509 523 505 486 510 493 525 514 489 547 502 506 515 512 491 538 534 508 486 0 0 0 0 0 0 0
0 0 0 0 0 0 0 0 0 0 0 0 0 0 0 0 0 0 0 0 0 464 484 483 476 480 481 482 484 481 484 482 487 483 485 481 485 487 491 489 493 491 497 493 501 497 490 497 497 493 495 497 493 496 495 499 496 494 503 501 498 501 497 502 498 508 507 503 497 505 509 500 501 504 503 499 499 505 517 519 503 498 521 531 517 526 509 502 527 507 534 519 525 521 513 533 517 532 529 521 530 554 497 545 507 531 536 507 520 562 511 532 593 0 0 0 0 0 0 0
0 0 0 0 0 0 0 0 0 0 0 0 0 0 0 0 0 0 0 0 0 453 475 486 476 478 477 477 482 481 483 476 488 485 481 490 483 489 487 492 496 493 490 494 493 487 486 490 493 497 498 495 492 496 497 500 498 498 499 494 501 499 499 500 502 498 496 496 501 501 501 496 505 497 497 498 497 512 504 487 509 495 498 494 498 507 490 493 501 493 492 480 501 476 485 506 512 468 532 525 474 489 481 501 523 475 505 497 495 463 487 503 486 0 0 0 0 0 0 0
0 0 0 0 0 0 0 0 0 0 0 0 0 0 0 0 0 0 0 0 0 453 480 478 479 476 486 477 472 478 481 486 482 483 482 487 486 488 494 496 495 485 489 488 493 495 490 499 495 492 491 498 495 491 500 502 498 501 494 496 499 495 502 500 504 506 501 502 501 499 499 496 499 502 500 505 503 501 511 506 502 535 507 526 493 516 498 507 515 509 507 508 496 506 508 498 522 486 516 535 512 549 508 514 498 514 540 524 567 504 497 544 540 0 0 0 0 0 0 0
0 0 0 0 0 0 0 0 0 0 0 0 0 0 0 0 0 0 0 0 0 431 472 473 479 478 475 475 479 476 482 483 478 484 483 483 484 482 487 488 489 485 486 487 490 495 495 495 496 491 493 499 493 495 496 491 498 498 495 497 493 497 496 500 501 498 498 498 500 501 496 499 499 495 501 502 499 499 499 514 489 501 503 512 519 500 521 490 510 502 494 498 503 492 480 507 488 486 499 500 499 467 479 514 528 494 485 503 482 520 494 482 505 460 0 0 0 0 0 0
0 0 0 0 0 0 0 0 0 0 0 0 0 0 0 0 0 0 0 0 0 432 471 469 473 474 478 476 481 478 475 484 482 486 483 482 482 484 482 484 486 492 485 489 486 491 490 491 489 496 489 497 493 492 502 498 491 498 497 493 495 494 495 497 499 498 497 500 495 499 498 493 494 503 502 497 500 500 500 491 477 511 489 490 485 508 491 470 486 483 471 485 496 492 490 478 483 486 501 508 504 485 477 517 470 498 466 475 453 473 480 461 532 437 0 0 0 0 0 0
0 0 0 0 0 0 0 0 0 0 0 0 0 0 0 0 0 0 0 0 0 495 475 472 484 475 481 476 479 476 482 489 481 482 485 488 483 483 483 487 489 491 489 490 487 488 492 493 494 494 495 495 495 496 494 496 491 494 491 493 500 504 498 506 496 497 499 500 499 493 500 498 499 498 496 499 493 494 494 493 496 487 495 498 487 511 501 487 501 488 494 503 482 511 513 509 504 515 502 508 528 501 509 505 496 488 489 506 539 517 520 485 502 529 0 0 0 0 0 0
0 0 0 0 0 0 0 0 0 0 0 0 0 0 0 0 0 0 0 0 0 0 474 478 475 476 472 477 477 480 473 482 486 480 480 484 488 484 481 484 487 484 487 489 487 489 491 496 500 490 493 498 490 494 499 494 491 497 494 490 498 497 495 494 499 501 500 499 494 495 494 495 496 498 501 498 493 491 497 488 480 488 497 492 490 489 517 501 501 508 508 490 490 477 505 488 518 509 504 502 486 485 472 519 475 483 466 476 503 477 464 469 504 452 0 0 0 0 0 0
0 0 0 0 0 0 0 0 0 0 0 0 0 0 0 0 0 0 0 0 0 0 494 475 470 482 479 476 475 482 480 484 479 480 483 484 479 492 487 487 487 486 485 482 489 494 487 487 494 489 490 496 498 498 492 493 499 492 491 494 496 498 492 494 500 499 496 500 498 496 501 496 496 498 494 493 496 506 509 503 486 509 515 504 528 535 522 487 514 504 537 523 515 522 542 520 526 490 507 511 492 484 507 500 531 508 545 518 519 524 509 516 521 514 0 0 0 0 0 0
0 0 0 0 0 0 0 0 0 0 0 0 0 0 0 0 0 0 0 0 0 0 535 477 468 475 481 476 483 476 482 478 482 486 481 478 483 489 479 488 485 483 489 487 491 490 490 487 495 493 496 494 489 497 494 499 499 497 499 493 493 496 494 494 496 500 501 498 495 496 497 494 497 498 498 497 494 504 517 498 509 516 497 512 529 521 527 503 503 516 537 506 531 524 515 521 550 517 506 496 516 526 491 537 522 484 550 517 519 529 553 481 531 509 488 529 0 0 0 0
0 0 0 0 0 0 0 0 0 0 0 0 0 0 0 0 0 0 0 0 0 0 578 469 473 471 481 472 477 480 478 477 474 480 484 483 483 481 478 484 487 490 487 488 488 488 488 485 494 492 489 491 492 492 498 499 493 493 492 492 497 492 497 497 496 498 495 503 494 492 492 496 493 501 494 491 493 492 490 500 504 504 520 491 511 487 502 486 513 489 494 492 495 511 532 486 499 504 494 462 497 489 481 500 469 460 485 491 482 441 452 485 463 458 450 413 0 0 0 0
0 0 0 0 0 0 0 0 0 0 0 0 0 0 0 0 0 0 0 0 0 0 0 477 467 472 476 477 474 476 475 481 477 485 479 478 483 479 484 483 488 486 490 485 493 484 486 490 488 489 488 491 496 495 491 493 489 492 495 496 494 496 493 497 497 494 496 502 499 492 500 493 495 498 495 492 490 493 498 519 501 502 486 501 501 493 501 492 516 494 491 518 506 504 493 507 478 497 506 529 509 516 509 504 495 496 519 497 487 486 500 479 499 0 0 0 0 0 0 0
0 0 0 0 0 0 0 0 0 0 0 0 0 0 0 0 0 0 0 0 0 0 0 497 473 478 475 473 474 477 479 477 480 474 485 479 477 479 485 482 483 484 488 489 485 488 487 490 492 487 493 487 490 492 496 490 497 492 494 491 490 493 495 490 490 498 495 497 495 494 499 493 493 489 492 492 489 479 472 493 486 504 480 493 500 508 494 506 503 503 479 500 478 496 484 509 498 476 474 499 528 481 474 498 468 474 490 487 468 478 501 471 478 435 0 0 0 0 0 0
0 0 0 0 0 0 0 0 0 0 0 0 0 0 0 0 0 0 0 0 0 0 0 497 470 474 470 474 476 470 477 468 478 484 476 483 480 484 478 479 482 480 485 485 486 489 490 482 494 488 489 490 489 480 493 489 495 490 489 490 499 496 489 497 494 495 494 497 496 492 496 494 495 496 494 486 493 504 495 489 503 494 487 490 497 492 488 512 507 495 498 498 500 502 520 473 486 490 504 490 488 501 495 484 478 445 504 461 466 504 483 473 453 461 0 0 0 0 0 0
0 0 0 0 0 0 0 0 0 0 0 0 0 0 0 0 0 0 0 0 0 0 0 0 480 467 466 470 472 474 473 474 473 478 475 473 476 482 475 484 484 478 484 481 488 484 484 493 491 493 490 493 493 495 488 493 495 489 489 493 495 495 495 492 495 494 498 493 499 494 500 497 486 495 491 491 488 494 503 487 496 510 504 506 502 513 509 486 489 499 519 514 516 509 516 488 493 511 495 515 495 509 494 522 514 480 473 510 464 490 516 458 519 467 529 513 0 0 0 0
0 0 0 0 0 0 0 0 0 0 0 0 0 0 0 0 0 0 0 0 0 0 0 0 481 464 466 472 469 469 470 470 474 472 477 477 479 477 482 477 483 484 481 488 482 482 486 486 486 488 492 488 490 489 487 492 492 493 496 494 494 488 492 494 494 493 495 495 494 492 495 495 491 491 491 491 491 488 487 496 488 494 478 496 499 487 475 488 480 485 523 473 504 531 524 479 491 516 501 483 530 488 503 494 498 457 457 477 447 475 463 482 483 445 454 515 0 0 0 0
0 0 0 0 0 0 0 0 0 0 0 0 0 0 0 0 0 0 0 0 0 0 0 0 0 482 464 468 476 474 469 473 476 476 473 477 474 477 481 478 478 485 483 485 486 487 485 488 482 487 495 484 490 489 489 488 493 488 484 496 494 495 496 490 494 493 492 495 496 489 494 493 491 490 495 491 486 484 502 499 488 501 494 505 498 499 493 498 505 499 503 512 506 495 525 538 511 516 491 485 517 506 511 514 505 534 493 492 480 539 487 461 489 488 580 0 0 0 0 0
0 0 0 0 0 0 0 0 0 0 0 0 0 0 0 0 0 0 0 0 0 0 0 0 0 525 476 471 467 477 472 472 477 473 475 479 479 475 478 477 482 480 484 480 483 482 484 484 487 482 488 487 485 489 494 489 488 491 492 493 488 493 495 490 494 491 497 492 491 492 492 490 495 495 489 494 479 484 490 497 492 486 511 494 491 504 493 495 487 480 499 500 493 506 496 525 489 503 519 505 522 509 523 516 523 483 496 464 494 463 511 533 505 452 0 0 0 0 0 0
0 0 0 0 0 0 0 0 0 0 0 0 0 0 0 0 0 0 0 0 0 0 0 0 0 0 487 471 463 470 466 474 472 472 470 474 475 472 478 474 474 477 480 480 483 484 481 485 481 485 489 486 492 485 484 489 489 487 489 490 485 492 489 485 494 491 489 485 491 491 495 495 490 492 487 491 492 482 485 500 490 486 484 483 489 477 478 476 473 496 488 495 490 483 470 481 481 476 491 517 486 493 493 466 454 458 493 486 475 470 444 446 457 417 0 0 0 0 0 0
0 0 0 0 0 0 0 0 0 0 0 0 0 0 0 0 0 0 0 0 0 0 0 0 0 0 0 472 473 465 470 475 474 474 474 474 474 480 476 475 476 482 475 477 478 479 482 480 485 483 484 484 483 488 482 486 488 490 483 493 489 486 490 487 486 492 488 489 487 489 492 489 487 492 484 484 488 487 501 492 506 495 489 488 484 484 499 485 480 487 488 495 507 488 476 510 496 521 501 505 521 487 507 478 477 494 491 514 520 488 490 496 502 479 0 0 0 0 0 0
0 0 0 0 0 0 0 0 0 0 0 0 0 0 0 0 0 0 0 0 0 0 0 0 0 0 0 480 468 466 466 469 472 467 472 473 474 470 476 483 478 479 477 478 477 478 479 485 483 482 479 483 485 484 480 484 490 479 488 486 490 487 484 488 488 488 491 486 490 484 484 487 485 478 484 490 485 475 475 495 486 495 487 498 489 480 489 497 496 476 488 475 470 484 475 473 479 481 499 500 490 473 482 465 486 478 500 478 459 468 479 443 474 470 0 0 0 0 0 0
0 0 0 0 0 0 0 0 0 0 0 0 0 0 0 0 0 0 0 0 0 0 0 0 0 0 0 0 493 467 462 467 467 465 469 469 473 468 474 476 476 479 479 477 476 484 476 477 477 483 484 481 488 484 480 481 481 481 484 485 494 484 485 488 485 484 488 487 488 485 481 489 480 486 483 481 479 480 476 483 479 474 475 493 483 479 497 481 483 481 497 480 484 479 471 472 469 481 482 478 491 469 470 488 493 500 448 457 448 430 439 439 445 392 464 0 0 0 0 0
0 0 0 0 0 271 235 259 329 0 0 0 0 0 0 0 0 0 0 0 0 0 0 0 0 0 0 0 0 496 459 470 465 469 464 472 468 472 472 471 471 479 474 476 477 475 477 486 480 479 483 482 479 486 481 479 482 486 485 486 483 484 484 489 487 487 484 482 476 482 479 491 483 483 480 490 484 481 487 491 489 487 502 494 491 504 500 495 496 491 489 495 522 501 501 498 497 495 489 481 507 492 480 468 509 487 507 474 485 462 460 534 462 518 470 0 0 0 0 0
0 0 0 0 236 229 236 227 230 294 342 0 0 0 0 0 0 0 0 0 0 0 0 0 0 0 0 0 0 0 454 463 467 469 469 469 471 468 472 466 473 479 473 476 479 476 479 477 484 477 475 484 480 478 481 483 475 481 485 481 484 480 482 488 482 486 476 483 481 477 476 469 475 482 483 486 480 477 465 471 478 475 482 479 485 474 488 484 487 478 486 475 461 475 465 462 484 473 467 482 470 491 480 463 443 477 473 467 469 466 457 429 442 0 0 0 0 0 0 0
0 0 0 251 226 227 234 224 239 249 352 0 0 0 0 0 0 0 0 0 0 0 0 0 0 0 0 0 0 0 0 476 461 470 462 468 466 467 466 468 468 473 467 466 478 474 476 479 478 477 475 477 483 479 481 480 482 479 481 483 481 482 478 482 479 476 485 475 486 481 482 482 477 481 480 483 490 475 479 477 482 486 492 480 485 488 491 484 486 496 485 483 496 472 490 479 480 496 502 526 500 498 485 505 481 509 483 478 474 462 482 509 479 479 482 0 0 0 0 0
217 260 233 239 279 311 274 226 231 236 322 0 446 420 424 411 437 433 442 448 473 444 436 433 455 452 451 455 458 459 453 463 462 467 465 468 464 464 472 461 471 470 480 470 472 472 474 473 479 481 473 477 473 483 480 480 478 479 479 483 472 483 478 471 482 480 482 477 484 480 484 475 478 482 478 476 488 480 471 477 474 467 498 472 482 480 476 477 500 478 475 479 481 484 483 478 467 481 486 496 480 474 506 463 467 490 473 460 468 480 457 454 519 432 435 558 0 0 0 0
213 216 196 219 248 228 233 233 227 262 373 415 385 398 384 403 399 407 399 406 404 414 410 414 421 415 428 428 440 446 463 451 461 455 450 461 454 464 458 452 465 461 461 458 462 462 466 469 475 467 471 469 469 473 475 471 471 478 476 470 475 472 473 465 472 469 477 472 467 469 463 469 468 451 464 452 455 457 458 458 465 451 453 458 452 453 438 444 454 457 450 453 463 447 432 437 451 444 453 433 449 428 444 443 443 463 438 435 434 438 443 428 432 449 419 458 431 401 0 0
212 198 226 219 231 237 238 225 228 330 388 375 373 373 376 375 377 371 383 395 379 394 393 409 413 407 421 421 429 441 446 448 444 448 437 443 441 442 447 450 448 448 454 449 449 455 450 462 455 461 460 461 452 458 457 461 458 451 459 460 460 462 463 464 464 460 468 464 455 452 460 457 446 446 441 443 436 435 438 439 439 436 419 437 433 432 429 425 419 451 426 440 443 436 430 434 421 437 437 422 428 437 440 424 437 420 425 425 435 420 421 441 398 424 452 457 445 413 415 409
248 265 248 224 230 227 228 228 248 341 320 336 332 327 322 328 354 345 334 336 340 350 366 381 376 385 386 403 406 414 420 423 416 428 431 430 432 429 426 429 424 432 423 429 438 434 441 439 442 434 449 437 438 444 436 440 444 443 441 437 447 439 441 448 439 442 437 436 433 431 427 435 425 424 422 408 402 403 400 397 396 393 386 401 391 399 388 384 383 394 389 375 396 383 393 399 373 398 393 390 381 389 383 395 383 388 377 382 378 400 376 390 399 372 364 377 331 322 366 0
280 278 285 241 233 234 234 246 290 296 301 315 307 317 297 317 311 297 318 309 320 327 334 344 353 364 374 388 397 393 396 403 402 406 408 413 409 412 414 413 411 415 410 411 418 417 423 421 419 412 420 411 423 421 423 419 415 419 417 425 418 422 419 420 414 415 424 413 417 416 412 411 400 397 396 387 376 368 362 370 356 360 352 360 360 355 363 363 358 365 347 349 348 353 369 361 368 363 352 367 366 355 362 374 364 353 369 361 349 365 347 369 372 341 355 339 353 348 337 390
298 291 286 265 259 263 269 279 280 280 282 280 279 295 285 284 293 286 291 296 296 301 318 316 331 344 362 368 376 382 387 398 393 386 388 384 394 398 395 395 395 393 394 390 394 396 398 399 398 395 392 402 396 395 404 394 403 397 401 399 402 399 399 399 389 393 395 398 386 391 396 397 385 381 387 372 362 347 344 334 343 328 328 330 335 331 340 334 329 320 327 342 337 335 346 337 331 329 333 336 328 318 328 343 345 344 345 339 339 328 322 354 346 352 358 339 322 346 334 344
248 242 245 247 246 244 247 255 255 262 255 253 259 258 249 255 256 264 267 273 266 276 292 299 310 314 333 332 347 358 365 365 361 365 358 363 367 363 370 371 363 365 365 378 366 368 367 371 367 371 380 376 376 375 380 380 374 381 371 374 374 376 381 369 367 370 368 373 370 369 365 367 358 359 337 339 328 322 312 301 304 297 302 301 307 316 304 302 300 292 298 296 302 295 299 306 288 287 301 313 310 296 304 304 308 298 304 299 301 301 306 289 315 311 303 284 288 283 277 312
229 229 233 229 243 247 240 237 242 240 241 247 249 257 243 238 246 245 248 251 253 271 282 282 294 302 317 331 331 325 333 340 342 342 339 336 336 344 337 350 343 346 348 349 351 351 347 354 349 345 344 351 349 353 354 358 355 357 356 348 353 350 347 347 353 346 351 349 353 346 347 347 347 340 329 323 308 298 290 287 284 281 276 282 286 283 278 282 282 275 280 274 282 271 272 278 272 277 289 280 277 278 273 274 278 284 286 281 282 290 276 287 267 278 293 275 275 300 307 281
209 214 224 232 236 226 224 215 232 227 229 234 219 225 222 229 228 236 236 241 244 249 258 268 269 281 299 293 302 309 310 320 320 322 321 318 322 325 323 322 323 325 321 320 325 331 322 328 325 325 323 325 327 329 325 326 326 320 332 331 327 327 330 334 328 327 331 329 323 323 324 320 319 317 309 298 288 281 272 269 266 268 260 266 267 261 265 256 258 255 258 261 265 265 260 258 259 256 264 260 260 258 261 268 258 259 268 255 258 267 266 280 264 265 272 274 252 284 290 285
205 212 211 211 216 217 222 213 209 216 206 206 206 218 209 211 214 216 217 225 224 228 247 253 252 262 270 270 279 288 292 291 294 298 297 298 295 300 296 300 300 295 300 298 301 299 302 299 306 304 303 303 297 301 299 302 305 300 306 298 310 304 305 312 308 303 305 307 303 297 299 300 300 289 285 277 265 259 261 249 244 244 242 245 246 248 250 240 242 246 244 247 242 243 241 237 235 237 238 243 247 248 245 239 237 240 244 236 245 249 242 244 258 256 247 234 249 239 239 254
200 196 203 200 203 204 206 213 180 204 204 184 209 202 204 193 206 206 210 214 216 227 234 234 238 249 248 261 268 268 271 264 272 271 278 279 282 276 282 287 279 287 288 286 280 280 286 284 283 286 279 281 279 283 271 286 290 289 283 290 284 282 286 288 283 288 284 283 281 288 284 282 277 272 267 260 252 247 243 235 227 228 231 234 236 230 229 224 228 234 228 230 225 231 231 226 231 220 225 222 222 235 228 223 225 223 229 228 229 230 244 229 241 238 254 246 239 223 241 239
175 172 190 191 184 181 183 200 178 180 176 187 178 187 188 187 183 188 185 206 210 212 220 223 226 231 233 242 250 249 255 255 254 255 264 257 258 257 266 267 267 264 264 267 262 267 269 272 266 267 268 263 267 260 266 268 262 272 262 269 267 268 263 276 264 272 269 269 267 264 266 258 254 254 257 238 239 230 228 221 219 221 224 215 214 220 201 219 219 216 216 216 211 211 216 219 212 196 209 213 221 214 212 209 212 204 214 214 220 210 208 226 221 229 224 204 217 230 220 206
169 178 170 176 177 178 180 174 178 177 180 180 180 181 182 188 184 186 180 189 184 187 209 212 217 221 220 222 226 231 231 237 243 244 239 243 242 242 244 248 244 244 250 245 255 253 248 248 245 250 245 253 244 248 241 247 249 249 250 251 247 246 250 247 242 253 251 249 247 248 243 244 245 242 237 227 223 222 214 199 199 191 186 190 193 194 190 195 197 191 187 189 188 187 191 188 185 190 192 193 188 205 188 186 193 184 188 203 185 210 206 207 208 199 200 207 209 202 196 226
171 171 178 177 173 179 175 174 174 173 179 176 177 170 176 181 173 182 185 184 187 187 186 193 208 193 214 214 216 223 228 228 223 226 229 227 229 231 234 230 227 230 236 231 236 238 231 228 238 238 236 236 235 234 233 235 237 236 236 235 241 238 237 235 235 239 233 234 233 230 233 235 230 227 219 219 210 199 188 188 194 194 195 191 194 195 185 192 192 191 193 181 187 188 180 182 183 182 190 181 188 181 180 182 190 183 179 181 176 188 176 183 181 203 201 206 209 200 197 203
163 164 169 165 168 170 169 170 167 166 167 164 165 168 173 172 173 175 171 181 177 178 190 182 187 188 189 187 193 211 211 199 210 208 213 215 216 199 213 212 217 221 217 218 216 222 221 219 222 223 218 221 222 217 222 218 223 222 220 222 219 218 220 216 219 217 218 216 220 219 219 218 217 210 194 193 187 197 194 191 187 182 188 184 184 184 185 182 183 180 183 180 184 185 184 183 178 177 183 183 183 177 184 181 184 178 179 179 179 176 181 182 181 177 203 172 179 174 174 180
150 150 164 159 158 161 157 165 161 164 160 161 163 164 161 162 166 174 171 175 171 177 183 186 183 188 185 187 193 188 185 189 187 184 185 190 187 190 188 190 193 191 194 192 196 198 192 194 194 195 195 197 199 197 194 193 197 191 195 194 202 199 199 188 191 195 192 200 193 191 198 198 197 188 190 197 198 190 186 180 175 177 176 178 173 176 178 177 178 176 176 177 171 172 178 175 171 171 169 169 171 171 177 175 174 169 172 168 170 175 167 175 176 171 170 174 185 167 170 172
143 151 153 153 155 157 152 157 156 159 158 154 155 155 156 156 156 158 155 162 165 168 178 178 177 180 179 183 183 187 189 189 190 192 190 188 191 193 190 191 195 193 194 198 194 195 196 199 196 195 197 198 199 195 198 197 199 199 196 199 197 200 199 200 194 197 193 188 190 195 198 194 194 193 188 185 189 183 178 174 170 172 170 162 168 169 172 168 167 169 168 168 173 168 171 164 165 165 165 171 167 166 169 167 169 164 165 169 170 169 167 169 171 169 175 164 159 172 170 177
142 143 145 143 148 148 146 150 149 153 146 152 148 152 150 150 152 151 156 160 161 163 168 173 168 170 174 175 176 178 178 176 184 182 177 179 185 181 182 184 183 183 186 188 183 186 183 183 188 187 185 187 187 184 190 184 188 189 0 188 183 189 185 186 189 188 191 186 186 187 186 185 183 181 176 175 174 170 174 165 160 157 161 158 158 162 163 162 164 157 160 156 163 159 163 164 158 158 161 159 159 157 161 156 156 163 156 156 161 155 151 159 155 157 155 167 158 161 159 157
134 140 136 138 143 148 150 150 146 146 142 145 144 147 141 148 145 149 151 153 157 161 164 164 172 167 168 169 172 171 171 174 175 173 170 172 174 174 173 176 178 179 177 174 176 179 176 178 178 177 177 179 178 181 181 182 181 0 0 180 180 176 182 183 182 180 179 179 177 172 176 175 175 176 175 169 168 166 163 158 162 156 155 154 159 157 157 156 155 152 151 150 156 157 151 153 150 155 153 157 158 154 150 155 148 149 149 152 156 157 158 157 150 155 155 154 149 156 160 158
139 133 132 137 144 145 150 140 139 138 140 140 143 143 143 142 142 149 145 147 153 152 155 156 161 160 161 160 166 166 164 165 167 167 162 165 165 171 166 168 172 0 171 167 172 173 172 170 171 172 174 171 172 175 175 0 173 170 0 0 174 0 175 174 171 170 173 167 172 173 170 168 168 167 166 164 165 157 160 152 150 155 151 147 154 150 148 150 150 153 146 156 151 151 147 148 152 152 155 147 146 148 147 147 145 144 140 140 148 145 151 143 143 156 143 148 136 152 145 162
128 123 127 115 132 135 142 135 133 123 136 132 127 132 136 135 135 135 134 140 138 148 150 151 148 160 155 156 156 162 161 153 158 160 157 158 161 160 0 0 0 0 0 0 0 0 0 163 166 166 166 164 170 165 0 0 169 166 0 0 0 0 0 0 167 168 166 0 162 163 162 161 161 161 153 157 151 159 149 150 148 148 144 147 143 149 143 145 145 145 144 145 143 144 139 139 142 148 143 141 142 143 141 136 136 132 135 139 135 142 139 145 142 151 147 141 147 140 144 136
124 120 126 124 127 133 134 129 138 132 127 132 132 132 125 125 122 136 138 135 142 144 149 144 149 150 154 153 154 155 152 156 157 160 153 156 156 0 0 0 0 0 0 0 0 0 0 0 0 160 162 160 0 0 0 0 0 0 0 0 0 0 0 0 162 162 0 0 0 0 0 157 161 156 153 149 150 151 151 142 142 140 144 143 141 140 143 140 149 141 137 139 135 138 139 138 143 142 140 141 140 137 139 139 131 136 137 133 138 140 139 144 144 138 141 136 149 134 133 172
110 107 113 123 127 116 130 128 130 126 124 125 121 116 118 130 134 124 131 135 127 124 134 142 140 141 144 144 145 151 154 148 152 150 151 147 0 0 0 0 0 0 0 0 0 0 0 0 152 157 155 0 0 0 0 0 0 0 0 0 0 0 0 0 0 0 0 0 0 0 0 0 150 152 148 145 149 142 144 144 129 139 138 130 126 125 139 138 136 138 138 130 132 125 118 136 139 138 135 135 129 135 135 131 135 137 133 124 136 134 137 139 136 138 137 138 131 127 116 130
104 107 114 112 106 110 119 120 113 122 117 114 121 114 130 123 121 122 127 120 134 125 127 123 137 136 140 141 142 143 142 143 142 142 145 143 0 0 0 0 0 0 0 0 0 0 0 0 146 0 0 0 0 0 0 0 0 0 0 0 0 0 0 0 0 0 0 0 0 0 0 0 0 141 139 139 141 139 127 130 126 124 121 125 128 121 124 125 121 125 124 122 117 126 126 129 126 134 122 118 119 130 134 119 130 132 118 122 133 131 128 137 116 134 123 129 117 114 130 139
111 107 115 115 115 117 114 126 118 117 117 118 113 113 118 125 120 128 123 116 119 113 124 116 138 137 137 137 0 140 0 0 0 139 144 0 0 0 0 0 0 0 0 0 0 0 0 0 0 0 0 0 0 0 0 0 0 0 0 0 0 0 0 0 0 0 0 0 0 0 0 0 0 144 136 127 122 121 124 123 122 116 122 124 115 122 119 126 116 119 118 124 119 115 114 123 120 121 120 119 118 123 131 125 118 118 116 122 126 133 127 108 133 119 133 115 114 130 142 129
102 97 107 114 104 104 107 105 101 102 111 103 104 104 105 111 113 113 116 110 111 116 110 115 119 121 126 117 119 126 0 0 0 0 126 0 0 0 0 0 0 0 0 0 0 0 0 0 0 0 0 0 0 0 0 0 0 0 0 0 0 0 0 0 0 0 0 0 0 0 0 0 129 0 0 125 119 118 120 114 117 116 109 116 110 117 110 116 110 114 114 114 110 112 111 106 111 111 111 111 116 113 107 111 112 116 106 108 122 100 111 108 99 121 114 98 109 127 114 137
97 100 92 95 101 102 101 100 103 103 101 101 105 108 110 105 107 108 115 108 113 111 104 111 116 112 115 117 121 119 0 126 0 0 0 0 0 0 0 0 0 0 0 0 0 0 0 0 0 0 0 0 0 0 0 0 0 0 0 0 0 0 0 0 0 0 0 0 0 0 0 0 0 122 0 116 119 114 116 110 111 112 109 102 111 110 111 117 101 111 111 113 113 110 108 114 108 108 100 118 111 108 113 104 110 116 110 111 118 106 103 103 110 100 106 111 129 109 130 132
96 104 99 102 98 100 105 93 95 98 97 97 102 95 99 98 106 101 111 114 112 107 98 108 114 107 109 111 115 119 120 117 123 0 0 0 0 0 0 0 0 0 0 0 0 0 0 0 0 0 0 0 0 0 0 0 0 0 0 0 0 0 0 0 0 0 0 0 0 0 0 0 121 121 111 123 113 118 116 118 106 110 100 119 108 107 103 104 105 105 106 107 111 95 99 98 108 103 114 101 103 109 106 108 103 107 104 88 106 110 99 105 105 98 102 94 126 113 128 116
86 85 83 84 82 82 82 93 92 87 88 95 95 96 92 88 81 92 90 89 91 85 98 105 101 100 113 106 0 114 105 106 115 0 111 0 0 0 0 0 0 0 0 0 0 0 0 0 0 0 0 0 0 0 0 0 0 0 0 0 0 0 0 0 0 0 0 0 0 0 0 116 110 108 104 112 107 106 105 103 102 101 98 93 101 91 88 102 103 103 91 94 106 84 81 96 91 105 83 97 87 93 97 88 83 90 96 92 91 95 87 90 77 93 95 91 82 82 113 126
93 90 92 89 98 98 98 105 92 95 96 97 94 92 96 97 97 87 101 99 95 107 107 105 107 104 112 109 0 103 113 108 117 109 122 109 0 0 0 0 0 116 0 0 0 0 0 0 0 0 0 0 0 0 0 0 0 0 0 0 115 0 0 114 114 0 0 0 113 0 111 110 114 113 116 108 109 109 100 97 110 102 107 88 100 103 103 104 103 102 106 107 111 100 101 103 98 93 103 112 99 98 95 102 99 97 100 88 92 81 90 93 85 94 96 112 127 123 130 113
86 91 90 92 94 96 89 92 85 97 85 88 87 91 92 85 94 100 96 93 98 92 98 111 89 104 102 100 105 107 94 102 104 101 96 101 0 116 118 0 107 0 0 0 0 0 0 0 0 0 0 0 0 0 109 0 0 110 0 0 108 106 103 112 112 113 106 101 113 110 106 104 104 100 110 106 101 93 106 97 94 93 99 86 97 91 90 104 103 94 97 105 106 88 83 85 86 91 95 88 88 85 92 98 89 89 98 98 94 89 87 90 85 87 87 86 114 87 95 111
85 86 83 88 93 93 101 90 90 81 88 88 85 93 88 91 91 87 91 91 78 93 96 87 85 90 96 91 102 89 93 99 99 99 97 108 97 102 102 104 105 99 100 108 106 89 0 0 97 0 0 108 104 96 100 106 109 103 107 108 101 106 113 103 99 109 105 101 102 108 98 106 104 103 104 93 96 96 95 92 94 91 93 94 97 93 89 95 96 94 101 88 96 95 93 91 88 84 91 83 88 87 91 90 85 82 94 87 81 99 85 102 98 102 89 88 109 93 125 112
85 82 86 84 83 90 98 101 91 83 87 86 85 90 86 91 93 95 91 100 86 99 95 93 91 95 91 89 98 101 98 84 97 96 98 96 101 100 94 108 101 97 97 109 101 95 105 0 105 103 98 108 99 100 101 103 101 109 100 106 105 94 95 105 103 101 97 103 95 107 99 106 102 94 108 88 94 97 96 85 98 99 95 93 95 99 88 89 98 93 86 96 89 93 93 81 95 92 97 94 81 99 82 92 84 103 88 98 93 88 90 95 105 102 100 128 127 96 142 124
82 74 72 70 79 83 88 86 86 82 84 81 86 80 87 86 86 89 87 85 85 88 93 88 88 88 93 95 84 95 91 94 80 97 93 95 97 86 90 96 92 89 83 91 97 92 93 104 95 89 91 98 97 86 89 82 103 90 98 95 94 83 82 97 97 98 97 91 97 98 95 89 90 94 83 93 92 96 97 95 88 94 83 90 86 93 89 88 86 88 80 81 86 81 86 89 84 76 80 93 77 89 80 70 81 84 85 83 86 76 83 85 84 88 101 88 110 67 100 61
73 74 83 86 73 84 81 88 84 81 86 90 79 83 86 90 86 88 82 86 87 94 86 86 88 95 95 85 94 88 85 97 91 96 88 92 95 95 90 94 95 97 92 90 87 100 89 91 101 90 94 96 97 85 102 98 92 85 91 97 98 85 92 97 91 96 91 96 107 94 96 97 88 83 96 97 95 87 84 93 92 90 91 89 79 87 88 84 93 94 79 91 80 82 93 82 92 88 77 84 88 82 80 79 79 85 85 91 91 90 80 93 88 104 144 115 112 101 84 203
