0 0 0 0 0 0 0 0 0 0 0 0 0 0 0 0 0 0 0 0 0 0 0 0 0 0 0 0 0 0 0 0 0 0 0 0 0 0 0 0 0 0 0 0 0 0 0 0 0 0 0 0 0 0 0 0 0 0 0 0 0 0 0 0 0 0 0 0 0 0 0 0 0 0 0 0 0 0 0 0 0 0 0 0 0 0 0 0 0 0 0 0 0 0 0 0 0 0 0 0 0 0 0 0 0 0 0 0 0 0 0 0 0 0 0 0 0 0 0 0
0 0 0 0 0 0 0 0 0 0 0 0 0 0 0 0 0 0 0 0 0 0 0 0 0 0 0 0 0 0 0 0 0 0 0 0 0 0 0 0 0 0 0 0 0 0 0 0 0 0 0 0 0 0 0 0 0 0 0 0 0 0 0 0 0 0 0 0 0 0 0 0 0 0 0 0 0 0 0 0 0 0 0 0 0 0 0 0 0 0 0 0 0 0 0 0 0 0 0 0 0 0 0 0 0 0 0 0 0 0 0 0 0 0 0 0 0 0 0 0
0 0 0 0 0 0 0 0 0 0 0 0 0 0 0 0 0 0 0 0 0 0 0 0 0 0 0 0 0 0 0 0 0 0 0 0 0 0 0 0 0 0 0 0 0 0 0 0 0 0 0 0 0 0 0 0 0 0 0 0 0 0 0 0 0 0 0 0 0 0 0 0 0 0 0 0 0 0 0 0 0 0 0 0 0 0 0 0 0 0 0 0 0 0 0 0 0 0 0 0 0 0 0 0 0 0 0 0 0 0 0 0 0 0 0 0 0 0 0 0
0 0 0 0 0 0 0 0 0 0 0 0 0 0 0 0 0 0 0 0 0 0 0 0 0 0 0 0 0 0 0 0 0 0 0 0 0 0 0 0 0 0 0 0 0 0 0 0 0 0 0 0 0 0 0 0 0 0 0 0 0 0 0 0 0 0 0 0 0 0 0 0 0 0 0 0 0 0 0 0 0 0 0 0 0 0 0 0 0 0 0 0 0 0 0 0 0 0 0 0 0 0 0 0 0 0 0 0 0 0 0 0 0 0 0 0 0 0 0 0
0 0 0 0 0 0 0 0 0 0 0 0 0 0 0 0 0 0 0 0 0 0 0 0 0 0 0 0 0 0 0 0 0 0 0 0 0 0 0 0 0 0 0 0 0 0 0 0 0 0 0 0 0 0 0 0 0 0 0 0 0 0 0 0 0 0 0 0 0 0 0 0 0 0 0 0 0 0 0 0 0 0 0 0 0 0 0 0 0 0 0 0 0 0 0 0 0 0 0 0 0 0 0 0 0 0 0 0 0 0 0 0 0 0 0 0 0 0 0 0
0 0 0 0 0 0 0 0 0 0 0 0 0 0 0 0 0 0 0 0 0 0 0 0 0 0 0 0 0 0 0 0 0 0 0 0 0 0 0 531 525 512 508 510 502 517 511 550 501 499 508 521 539 505 508 542 0 0 0 0 0 0 0 0 0 0 0 0 0 0 0 0 0 0 0 0 0 0 0 0 0 0 0 0 0 0 0 0 0 0 0 0 0 0 0 0 0 0 0 0 0 0 0 0 0 0 0 0 0 0 0 0 0 0 0 0 0 0 0 0
0 0 0 0 0 0 0 0 0 0 0 0 0 0 0 0 0 0 0 0 0 0 0 0 0 0 0 0 0 0 0 0 0 0 0 0 0 522 519 507 492 502 503 510 496 524 520 516 512 515 512 517 507 519 511 510 524 521 524 522 0 0 0 0 0 0 0 0 0 0 0 0 0 0 0 0 0 0 0 0 0 0 0 0 0 0 0 0 0 0 0 0 0 0 0 0 0 0 0 0 0 0 0 0 0 0 0 0 0 0 0 0 0 0 0 0 0 0 0 0
0 0 0 0 0 0 0 0 0 0 0 0 0 0 0 0 0 0 0 0 0 0 0 0 0 0 0 0 0 0 0 0 0 0 0 516 506 505 497 509 493 500 507 502 497 505 497 497 513 502 498 499 509 500 513 509 507 499 493 518 488 528 523 529 543 0 0 0 0 0 0 0 0 0 0 0 0 0 0 0 0 0 0 0 0 0 0 0 0 0 0 0 0 0 0 0 0 0 0 0 0 0 0 0 0 0 0 0 0 0 0 0 0 0 0 0 0 0 0 0
0 0 0 0 0 0 0 0 0 0 0 0 0 0 0 0 0 0 0 0 0 0 0 0 0 0 0 0 0 0 0 0 0 531 494 504 508 515 514 504 504 511 512 523 513 515 510 517 512 517 518 505 520 500 512 519 511 512 517 508 511 527 524 509 538 520 551 557 586 611 593 603 672 616 682 658 639 613 648 619 0 0 0 0 0 0 0 0 0 0 0 0 0 0 0 0 0 0 0 0 0 0 0 0 0 0 0 0 0 0 0 0 0 0 0 0 0 0 0 0
0 0 0 0 0 0 0 0 0 0 0 0 0 0 0 0 0 0 0 0 0 0 0 0 0 0 0 0 0 0 0 508 499 507 494 503 495 496 504 496 507 493 497 499 487 504 508 505 501 497 511 510 504 498 503 499 505 505 500 514 514 502 510 516 503 509 513 513 500 517 568 561 559 559 512 544 564 538 555 565 566 626 581 554 524 541 517 573 569 528 575 513 521 581 582 559 551 559 580 531 585 575 570 554 0 0 0 0 0 0 0 0 0 0 0 0 0 0 0 0
0 0 0 0 0 0 0 0 0 0 0 0 0 0 0 0 0 0 0 0 0 0 0 0 0 0 0 0 0 0 512 499 507 502 504 483 500 502 491 520 504 507 511 511 501 508 501 497 509 500 499 500 504 510 515 508 508 494 498 509 506 505 501 508 503 513 502 510 512 513 534 550 569 538 570 531 570 514 536 567 542 549 544 500 572 527 561 581 525 559 553 546 575 566 582 562 518 569 548 564 554 522 549 526 569 516 558 514 530 0 0 0 0 0 0 0 0 0 0 0
0 0 0 0 0 0 0 0 0 0 0 0 0 0 0 0 0 0 0 0 0 0 0 0 0 0 0 0 518 499 506 507 506 509 507 497 497 500 502 504 492 510 510 497 508 513 503 504 506 512 507 511 499 507 494 511 516 500 504 517 502 498 510 516 515 510 511 509 504 510 518 534 528 556 573 541 576 595 532 533 545 565 603 576 585 591 561 551 587 552 583 556 570 555 581 549 574 587 594 576 551 578 557 538 582 565 566 571 542 0 0 0 0 0 0 0 0 0 0 0
0 0 0 0 0 0 0 0 0 0 0 0 0 0 0 0 0 0 0 0 0 0 0 0 0 0 0 452 483 504 495 490 488 490 498 490 493 498 496 499 500 495 496 501 506 497 493 506 499 495 500 496 500 500 500 498 505 501 501 506 505 504 503 512 507 505 507 516 498 515 516 506 493 518 547 517 524 517 549 524 532 548 542 550 579 481 504 503 527 521 497 540 505 533 554 508 506 529 504 531 535 537 516 526 523 502 491 506 0 0 0 0 0 0 0 0 0 0 0 0
0 0 0 0 0 0 0 0 0 0 0 0 0 0 0 0 0 0 0 0 0 0 0 0 0 0 464 491 496 511 503 504 498 487 491 504 500 488 502 499 496 505 504 497 497 505 501 502 512 500 511 506 506 504 504 503 500 505 510 518 505 513 519 517 502 511 512 496 507 496 504 513 534 539 532 540 552 575 573 578 552 558 579 536 550 513 525 571 570 531 563 558 541 562 560 540 558 545 566 538 553 547 573 576 523 541 553 525 563 0 0 0 0 0 0 0 0 0 0 0
0 0 0 0 0 0 0 0 0 0 0 0 0 0 0 0 0 0 0 0 0 0 0 0 0 499 506 484 511 502 498 496 506 490 500 499 504 501 509 496 503 501 502 503 505 507 506 499 498 509 502 509 507 506 512 517 499 511 511 517 517 513 519 512 511 509 507 506 517 512 519 507 522 554 568 535 554 563 552 578 597 590 588 555 613 589 593 572 590 560 574 595 584 567 568 579 599 578 593 590 582 613 610 557 587 543 603 597 603 601 654 0 0 0 0 0 0 0 0 0
0 0 0 0 0 0 0 0 0 0 0 0 0 0 0 0 0 0 0 0 0 0 0 0 0 479 493 504 494 498 490 499 499 496 489 494 497 503 496 500 501 492 503 493 499 506 512 501 492 498 501 496 507 508 498 494 504 495 506 508 498 499 505 514 508 505 515 514 503 502 513 505 513 517 547 532 521 537 530 559 538 543 544 508 463 570 532 556 505 526 539 542 530 537 540 545 551 511 504 541 552 521 491 538 518 526 561 537 534 491 0 0 481 542 0 0 0 0 0 0
0 0 0 0 0 0 0 0 0 0 0 0 0 0 0 0 0 0 0 0 0 0 0 0 515 490 494 509 495 501 501 500 490 496 499 510 500 503 507 501 499 507 495 509 503 508 503 507 499 509 511 511 510 510 508 505 509 514 506 512 507 502 516 503 498 510 512 517 505 519 512 514 522 517 534 549 567 575 577 576 562 552 557 592 569 545 594 572 554 561 589 582 586 596 593 569 584 569 568 575 568 580 576 577 540 561 592 567 633 620 576 0 0 0 0 0 0 0 0 0
0 0 0 0 0 0 0 0 0 0 0 0 0 0 0 0 0 0 0 0 0 0 0 0 489 497 488 489 499 493 494 496 490 480 492 498 499 492 496 498 494 491 494 501 487 504 497 484 507 494 509 505 502 501 503 503 506 505 503 507 508 505 511 506 504 506 505 506 505 507 502 515 510 514 499 513 530 546 516 531 545 528 526 523 534 527 547 558 524 551 553 574 549 537 537 506 552 564 530 521 555 580 550 561 557 541 550 521 527 465 515 0 0 0 0 0 0 0 0 0
0 0 0 0 0 0 0 0 0 0 0 0 0 0 0 0 0 0 0 0 0 0 0 462 485 503 485 490 497 487 493 502 499 495 496 493 494 497 494 492 497 500 493 501 503 501 496 506 506 504 504 505 499 505 502 498 512 509 507 506 507 498 502 510 500 499 511 509 508 507 500 506 510 503 508 520 497 508 547 525 541 546 487 522 542 541 549 533 524 503 539 548 530 509 542 502 507 544 529 511 543 535 519 512 588 488 509 496 483 519 504 0 0 0 0 0 0 0 0 0
0 0 0 0 0 0 0 0 0 0 0 0 0 0 0 0 0 0 0 0 0 0 0 506 500 487 490 488 488 488 494 492 500 499 488 495 491 489 488 495 503 501 497 501 502 499 505 500 497 509 495 509 500 506 496 512 500 505 506 510 507 506 507 514 501 503 502 501 507 511 505 500 508 506 506 504 527 534 522 517 550 502 538 563 533 542 552 549 539 535 556 553 548 519 529 555 547 536 563 523 547 535 539 531 550 523 552 539 541 509 582 0 0 0 0 0 0 0 0 0
0 0 0 0 0 0 0 0 0 0 0 0 0 0 0 0 0 0 0 0 0 0 378 483 485 487 493 493 485 491 490 493 498 491 485 496 490 499 492 489 501 497 494 495 496 502 499 499 494 496 495 502 496 502 505 503 504 500 506 503 508 504 504 504 504 500 512 502 497 502 507 503 512 498 508 501 494 501 509 496 529 509 484 512 519 483 477 515 511 472 522 522 522 525 494 513 493 502 496 502 505 524 533 501 501 535 498 512 455 480 478 532 467 0 0 0 0 0 0 0
0 0 0 0 0 0 0 0 0 0 0 0 0 0 0 0 0 0 0 0 0 0 470 491 491 476 497 498 498 493 495 486 493 484 499 496 491 493 504 497 497 494 497 499 503 501 501 499 502 499 503 499 495 505 502 508 503 508 503 510 508 506 499 510 506 512 508 513 508 507 508 503 512 505 508 501 523 524 546 525 482 533 535 544 516 516 540 545 548 542 519 540 508 532 538 565 570 527 530 545 538 534 543 551 534 549 554 524 538 542 536 581 0 0 0 0 0 0 0 0
0 0 0 0 0 0 0 0 0 0 0 0 0 0 0 0 0 0 0 0 0 0 502 480 493 483 488 499 495 492 490 488 497 486 493 486 494 497 490 504 503 497 511 493 497 502 494 500 498 502 503 504 511 499 505 502 508 508 511 509 508 508 509 503 513 514 504 507 511 503 512 512 515 504 516 507 516 525 534 532 555 530 548 509 545 517 550 524 567 504 563 558 574 554 525 549 564 568 557 550 551 538 574 548 565 561 575 563 542 577 565 533 563 0 0 0 0 0 0 0
0 0 0 0 0 0 0 0 0 0 0 0 0 0 0 0 0 0 0 0 0 0 496 485 483 482 486 492 485 492 490 487 483 494 492 494 487 494 495 491 503 498 495 499 500 499 498 495 496 504 499 498 507 500 504 497 506 501 503 501 498 506 498 503 502 497 504 499 502 498 510 505 500 509 500 514 511 507 514 517 512 520 492 515 492 548 531 509 525 519 545 520 494 475 514 527 526 535 560 515 496 538 543 492 525 506 536 479 520 491 504 537 502 0 0 0 0 0 0 0
0 0 0 0 0 0 0 0 0 0 0 0 0 0 0 0 0 0 0 0 0 0 507 482 482 493 492 491 491 498 499 488 501 496 492 499 487 490 497 494 499 496 500 501 499 506 495 501 503 503 506 504 500 500 508 511 509 507 499 495 511 506 501 510 508 507 501 508 509 504 508 512 509 507 512 513 519 541 542 558 530 537 534 527 557 536 532 529 588 538 574 557 579 511 553 519 536 545 555 554 526 550 566 573 539 553 572 549 586 533 568 565 609 0 0 0 0 0 0 0
0 0 0 0 0 0 0 0 0 0 0 0 0 0 0 0 0 0 0 0 0 0 479 485 482 485 486 489 488 485 497 486 488 491 492 479 482 484 497 498 498 495 491 492 497 490 495 495 499 496 500 495 503 503 497 502 501 506 502 501 502 503 506 501 506 508 504 506 498 501 493 503 499 500 509 500 508 505 485 518 534 526 510 511 507 543 525 490 522 506 475 525 532 520 521 538 497 536 500 534 534 495 516 518 552 535 476 460 530 0 509 531 577 0 0 0 0 0 0 0
0 0 0 0 0 0 0 0 0 0 0 0 0 0 0 0 0 0 0 0 0 439 479 490 485 478 490 486 493 483 478 486 488 496 490 485 493 490 491 494 488 496 492 495 497 494 495 499 499 504 504 498 494 502 500 499 497 503 501 501 512 504 508 501 499 501 504 506 499 495 497 500 503 506 504 508 502 506 487 494 504 495 500 485 502 513 507 496 511 512 504 500 487 472 512 486 519 499 497 495 496 522 507 516 505 506 491 487 467 489 495 508 0 0 0 0 0 0 0 0
0 0 0 0 0 0 0 0 0 0 0 0 0 0 0 0 0 0 0 0 0 466 475 477 486 483 490 494 483 485 485 484 488 494 494 488 495 491 495 496 497 496 497 488 499 497 488 492 502 501 498 496 501 500 502 504 501 502 498 503 508 500 502 496 498 505 502 500 504 500 505 500 500 511 516 506 503 498 513 540 525 541 515 525 537 518 542 531 533 528 528 528 506 552 535 523 521 533 558 524 519 519 530 563 516 507 519 483 571 492 542 517 545 0 0 0 0 0 0 0
0 0 0 0 0 0 0 0 0 0 0 0 0 0 0 0 0 0 0 0 0 431 474 472 479 476 486 479 480 479 483 482 476 492 485 489 484 488 486 490 487 488 494 492 491 490 497 496 494 499 494 490 495 499 495 501 495 497 499 493 507 500 503 500 501 496 501 499 507 504 498 498 495 506 502 498 499 501 485 494 491 522 488 492 496 492 486 502 509 491 487 481 489 469 475 497 483 493 491 532 486 503 503 462 461 473 466 461 486 483 472 438 480 0 0 0 0 0 0 0
0 0 0 0 0 0 0 0 0 0 0 0 0 0 0 0 0 0 0 0 0 472 483 481 480 476 488 480 493 493 483 487 489 490 489 486 488 485 484 490 492 492 493 493 495 494 490 499 500 495 490 497 498 498 503 496 500 499 502 501 501 503 504 501 503 502 505 507 497 503 506 504 501 505 503 511 501 505 507 487 532 505 504 509 503 500 499 515 498 496 522 495 515 521 518 522 514 504 519 515 513 526 526 558 538 506 512 504 510 542 481 514 503 474 0 0 0 0 0 0
0 0 0 0 0 0 0 0 0 0 0 0 0 0 0 0 0 0 0 0 0 485 485 484 479 484 483 479 483 477 486 485 492 490 487 493 490 485 485 491 489 494 491 493 497 492 499 498 493 494 502 500 495 501 501 496 493 494 499 496 500 501 504 500 501 505 501 503 502 505 501 505 503 504 501 503 498 502 519 527 504 516 536 520 528 503 517 531 536 504 530 524 518 504 519 512 517 529 546 530 510 554 523 512 496 547 526 512 550 563 520 522 0 0 0 0 0 0 0 0
0 0 0 0 0 0 0 0 0 0 0 0 0 0 0 0 0 0 0 0 0 454 473 478 479 479 473 474 479 482 481 480 487 482 491 483 485 493 487 496 491 493 489 490 495 497 495 497 495 493 492 495 497 499 495 499 495 497 501 501 497 498 501 501 498 499 504 496 497 500 504 501 502 504 501 496 499 498 499 497 521 519 493 536 508 491 513 490 507 507 498 503 527 521 497 531 489 518 526 509 500 505 485 514 551 526 469 501 514 516 535 524 554 530 0 0 0 0 0 0
0 0 0 0 0 0 0 0 0 0 0 0 0 0 0 0 0 0 0 0 0 462 480 489 478 480 492 484 485 484 489 484 488 478 484 490 484 497 490 497 496 493 486 496 494 491 495 494 494 495 495 496 498 500 497 502 496 499 500 497 501 497 501 501 508 503 500 503 504 508 507 501 506 499 503 502 503 504 515 517 520 516 529 536 522 523 550 520 520 539 538 528 537 535 516 541 527 511 536 565 574 563 541 568 545 525 529 527 522 504 545 519 526 510 0 0 0 0 0 0
0 0 0 0 0 0 0 0 0 0 0 0 0 0 0 0 0 0 0 0 0 451 476 478 470 476 480 470 472 479 481 485 480 483 485 481 487 485 485 486 487 484 487 496 493 494 486 488 496 491 491 496 494 490 496 494 494 497 493 497 495 503 497 499 493 503 496 498 499 501 499 494 494 497 497 495 501 500 499 488 505 512 486 493 513 509 508 506 525 506 488 496 510 494 502 516 510 504 500 516 503 511 498 500 522 502 504 522 498 499 452 453 512 0 0 0 0 0 0 0
0 0 0 0 0 0 0 0 0 0 0 0 0 0 0 0 0 0 0 0 0 444 478 474 475 481 476 477 479 481 481 486 481 482 483 486 482 488 489 489 488 488 487 486 493 490 487 491 497 494 496 490 492 498 494 499 498 501 501 494 497 498 496 500 503 496 500 497 501 500 503 498 498 500 496 503 499 495 496 518 491 497 495 499 489 503 480 511 495 476 503 478 503 506 481 499 474 489 474 483 511 475 489 480 502 522 475 501 500 484 492 494 469 477 0 0 0 0 0 0
0 0 0 0 0 0 0 0 0 0 0 0 0 0 0 0 0 0 0 0 0 454 477 474 477 476 474 472 475 485 474 481 479 484 483 483 490 489 484 486 484 488 488 489 491 485 488 489 489 497 500 490 496 495 496 492 492 496 491 496 497 496 496 499 494 506 500 500 495 496 493 495 496 500 493 494 497 501 505 506 494 497 514 508 501 489 496 518 501 510 499 533 507 519 516 492 501 539 478 495 501 494 513 512 516 521 513 535 505 531 530 496 558 453 0 0 0 0 0 0
0 0 0 0 0 0 0 0 0 0 0 0 0 0 0 0 0 0 0 0 0 464 473 476 479 471 485 475 475 478 479 482 478 485 483 487 487 485 483 485 483 484 489 488 488 493 490 494 494 491 487 493 486 494 494 493 491 492 494 494 497 501 501 499 494 498 497 495 497 495 495 496 494 495 496 495 494 489 491 495 501 485 484 481 482 485 482 470 494 470 483 479 496 498 481 479 457 481 506 472 484 500 485 480 442 485 462 487 478 493 431 498 464 0 0 0 0 0 0 0
0 0 0 0 0 0 0 0 0 0 0 0 0 0 0 0 0 0 0 0 0 0 477 477 476 476 481 480 482 485 475 485 486 481 481 481 484 486 489 488 485 486 491 487 485 487 489 492 493 493 494 497 496 494 499 498 491 492 499 491 502 501 500 498 501 500 495 504 502 493 497 505 498 503 500 498 493 487 494 493 495 495 509 493 506 507 514 522 511 506 513 491 504 504 505 490 480 513 518 513 517 497 512 501 521 497 481 499 517 493 530 499 503 514 513 0 0 0 0 0
0 0 0 0 0 0 0 0 0 0 0 0 0 0 0 0 0 0 0 0 0 0 505 477 473 478 482 477 482 480 481 481 480 487 484 483 481 484 490 482 486 486 487 487 486 490 489 491 493 496 494 497 494 497 490 498 490 498 497 496 499 500 498 500 501 503 502 502 502 496 502 493 498 499 497 495 496 510 521 529 493 530 506 499 522 524 539 527 519 507 553 519 529 540 530 509 495 507 503 507 486 546 515 528 492 486 498 491 517 501 506 516 524 0 0 0 0 0 0 0
0 0 0 0 0 0 0 0 0 0 0 0 0 0 0 0 0 0 0 0 0 0 523 476 475 480 480 479 478 477 476 479 481 484 477 482 481 483 479 487 486 487 487 487 489 491 490 487 488 494 490 489 490 495 492 496 492 488 499 491 496 493 498 495 494 497 495 499 498 494 495 490 497 497 493 495 499 502 504 494 491 498 494 498 519 501 515 518 506 516 507 507 481 520 514 496 529 483 519 501 497 486 491 481 465 517 495 512 485 492 508 481 516 492 504 533 0 0 0 0
0 0 0 0 0 0 0 0 0 0 0 0 0 0 0 0 0 0 0 0 0 0 616 479 480 479 482 479 477 478 480 481 482 481 483 486 484 485 486 486 490 491 486 489 490 488 491 487 496 495 490 494 494 499 496 498 496 498 498 499 500 496 506 501 499 500 498 498 503 499 498 499 495 502 497 501 498 490 497 529 509 545 500 535 527 531 515 521 530 523 559 566 540 554 558 542 559 567 521 528 557 543 546 517 533 531 504 538 550 549 530 525 460 518 510 519 0 0 0 0
0 0 0 0 0 0 0 0 0 0 0 0 0 0 0 0 0 0 0 0 0 0 0 483 472 474 474 474 476 473 473 483 475 481 480 476 478 480 480 484 486 487 486 489 488 484 488 489 487 493 494 494 494 494 493 494 494 498 493 493 495 496 495 491 497 493 496 497 495 496 498 497 497 493 496 495 488 492 494 496 498 495 486 495 511 495 506 496 491 493 495 496 499 496 509 501 493 496 507 543 515 525 511 499 477 482 485 479 492 500 510 424 516 0 0 471 0 0 0 0
0 0 0 0 0 0 0 0 0 0 0 0 0 0 0 0 0 0 0 0 0 0 0 481 468 473 475 476 474 477 478 478 475 479 476 476 478 476 484 472 481 487 493 489 488 489 486 493 493 491 488 491 491 489 492 494 497 493 496 489 490 490 494 496 494 496 501 499 498 492 495 493 494 488 493 495 489 491 498 495 496 487 485 485 484 507 500 493 496 483 497 504 499 491 506 505 469 520 492 496 511 485 501 486 464 504 463 473 495 489 494 441 462 470 481 0 0 0 0 0
0 0 0 0 0 0 0 0 0 0 0 0 0 0 0 0 0 0 0 0 0 0 0 517 468 469 474 473 471 476 479 472 478 477 475 481 478 482 479 484 478 484 488 486 487 490 490 490 490 489 492 494 490 488 498 489 493 494 488 493 499 499 491 497 496 498 494 496 496 492 490 497 493 500 495 488 489 493 495 498 493 499 488 507 523 500 484 519 500 502 506 505 496 504 514 516 507 497 478 475 497 493 527 505 473 461 485 460 494 504 489 503 494 464 0 0 0 0 0 0
0 0 0 0 0 0 0 0 0 0 0 0 0 0 0 0 0 0 0 0 0 0 0 0 475 467 469 471 471 467 473 473 479 478 476 479 475 480 485 483 479 481 485 484 486 488 483 487 496 486 490 492 494 489 487 489 491 488 489 493 494 490 495 495 495 496 499 493 499 494 498 495 493 492 489 485 502 485 484 494 476 484 484 480 491 491 488 496 485 496 481 496 483 475 497 507 488 503 484 492 468 519 502 482 493 474 487 465 474 451 483 464 495 447 524 0 0 0 0 0
0 0 0 0 0 0 0 0 0 0 0 0 0 0 0 0 0 0 0 0 0 0 0 0 510 472 473 475 467 474 481 473 474 475 481 480 483 479 481 485 485 485 478 489 484 488 488 487 485 493 493 490 492 488 484 490 492 488 491 495 492 493 497 493 485 493 492 493 498 490 494 496 497 495 496 496 492 502 502 479 497 500 502 507 507 535 488 520 504 508 522 528 504 529 526 524 505 507 500 502 503 510 534 497 488 511 493 475 493 474 482 468 488 478 534 477 0 0 0 0
0 0 0 0 0 0 0 0 0 0 0 0 0 0 0 0 0 0 0 0 0 0 0 0 0 473 474 469 469 468 465 476 478 474 475 480 480 474 480 482 478 482 473 483 482 488 489 481 489 484 490 491 488 489 484 486 486 486 485 493 491 492 495 494 497 494 493 494 489 497 490 492 489 490 494 496 492 483 491 493 499 499 489 487 489 506 500 487 502 494 505 505 507 505 526 528 508 493 490 506 531 503 485 511 479 476 488 492 505 525 521 500 511 531 0 0 0 0 0 0
0 0 0 0 0 0 0 0 0 0 0 0 0 0 0 0 0 0 0 0 0 0 0 0 0 486 470 468 469 477 469 467 477 472 480 476 478 479 475 471 480 481 482 479 481 480 482 485 484 487 485 483 484 482 493 487 490 487 492 491 491 492 492 490 492 490 495 492 490 489 487 486 491 495 490 484 490 478 494 479 502 495 476 489 484 482 503 490 486 485 485 471 497 503 482 498 479 476 488 505 495 485 464 473 479 466 471 490 459 453 471 431 505 472 443 0 0 0 0 0
0 0 0 0 0 0 0 0 0 0 0 0 0 0 0 0 0 0 0 0 0 0 0 0 0 0 497 472 470 471 466 477 473 477 474 478 477 480 483 477 475 478 482 480 483 486 479 486 487 485 490 489 489 491 490 490 487 493 491 487 489 494 488 488 491 494 496 489 495 489 498 491 488 495 487 489 492 508 498 512 500 505 489 492 492 500 523 491 493 504 485 517 509 512 520 501 522 514 506 495 530 509 543 507 538 489 490 507 504 503 467 531 524 515 501 0 0 0 0 0
0 0 0 0 0 0 0 0 0 0 0 0 0 0 0 0 0 0 0 0 0 0 0 0 0 0 0 474 465 468 468 469 470 474 468 474 476 474 477 477 478 474 478 477 480 481 482 480 486 482 484 483 483 481 483 479 480 487 481 489 486 485 488 491 487 489 485 490 491 486 490 487 489 482 484 479 481 486 497 489 491 485 501 472 491 474 494 486 474 472 475 479 485 482 479 491 478 501 500 490 485 481 494 469 465 469 471 486 470 439 518 464 448 490 0 0 0 0 0 0
0 0 0 0 0 0 0 0 0 0 0 0 0 0 0 0 0 0 0 0 0 0 0 0 0 0 0 484 470 467 466 472 475 472 473 474 476 474 473 473 473 476 483 481 477 477 485 482 478 486 482 482 485 484 481 485 487 483 485 487 485 486 486 485 487 488 490 486 489 488 486 483 477 482 479 474 482 481 484 483 479 485 488 495 495 484 482 477 491 473 488 487 488 484 488 487 478 506 483 508 486 475 482 464 474 458 473 461 441 439 458 466 424 480 479 0 0 0 0 0
0 0 0 0 0 0 0 0 0 0 0 0 0 0 0 0 0 0 0 0 0 0 0 0 0 0 0 0 520 465 465 465 470 470 474 470 473 475 476 478 477 481 475 478 478 484 478 480 481 489 483 483 486 484 485 478 484 485 486 487 486 486 493 488 484 486 489 482 483 488 489 493 474 487 475 494 476 500 494 494 486 471 483 484 484 490 491 490 498 504 482 493 486 511 474 481 482 489 499 500 502 485 496 477 469 464 484 499 490 513 486 493 478 462 509 0 0 0 0 0
0 0 0 0 0 230 219 243 281 0 0 0 0 0 0 0 0 0 0 0 0 2390 0 0 0 0 0 0 0 480 455 461 469 469 465 469 474 467 469 472 477 477 475 475 477 472 480 478 475 479 477 483 480 481 481 478 483 484 486 479 482 480 481 480 483 481 479 484 478 483 472 475 478 473 478 488 479 468 479 468 473 487 481 474 481 489 471 490 467 474 466 469 501 475 462 468 462 458 487 505 467 474 470 440 447 458 460 463 458 474 452 442 466 409 448 0 0 0 0 0
0 0 0 0 238 233 240 236 234 297 361 0 0 0 0 0 0 0 0 0 0 0 0 0 0 0 0 0 0 0 464 467 467 471 472 472 473 473 475 468 474 476 476 472 475 474 479 474 478 481 480 487 480 479 482 483 480 482 485 479 484 486 488 487 487 480 481 481 484 487 481 480 478 484 482 485 474 483 490 493 483 471 479 487 489 488 484 487 507 497 481 481 477 469 480 487 473 468 491 501 486 499 493 461 485 470 469 485 497 467 477 456 472 0 0 0 0 0 0 0
0 0 0 236 213 229 222 221 237 240 338 0 0 0 0 0 0 0 0 0 0 0 0 0 0 0 0 0 0 0 0 484 463 469 468 470 471 468 468 471 470 468 472 470 477 472 472 478 480 474 479 478 479 479 478 483 482 480 481 480 480 484 482 480 482 481 487 476 482 476 481 489 479 480 490 480 477 479 480 478 494 478 491 472 493 486 489 498 491 481 484 508 507 479 512 491 496 464 509 524 497 517 500 489 514 462 490 463 486 488 508 482 492 479 524 0 0 0 0 0
248 243 253 260 280 308 253 233 239 237 312 0 413 423 424 442 407 398 398 426 460 475 438 442 455 435 452 439 449 460 448 465 461 468 463 461 463 466 463 472 469 480 473 474 466 471 472 478 477 480 476 476 480 477 480 480 480 479 477 478 472 487 480 479 484 480 475 477 479 479 482 477 465 475 467 470 469 468 469 481 473 475 479 470 481 467 475 494 468 475 474 484 484 476 475 483 463 475 485 480 470 481 472 491 480 466 465 473 457 475 440 449 493 443 440 0 0 0 0 0
263 250 238 233 254 265 272 232 234 261 417 409 405 419 414 403 414 420 418 441 418 422 431 434 431 446 432 435 453 453 456 460 461 459 456 457 460 462 466 464 465 462 464 469 465 470 472 467 475 478 472 472 468 474 475 475 469 471 470 472 476 472 473 475 476 478 478 475 473 475 481 460 476 478 471 471 467 460 463 474 466 460 468 469 468 457 466 464 456 471 472 474 453 453 468 464 456 465 459 463 461 455 476 468 477 459 468 461 463 427 460 472 468 504 471 485 444 438 0 0
175 193 185 217 216 241 228 228 224 321 361 374 370 351 340 370 384 356 353 392 380 384 387 389 391 407 407 424 424 429 440 441 442 433 438 442 435 446 447 445 444 450 441 451 446 448 443 464 454 456 454 454 454 449 454 451 457 449 460 461 461 468 452 458 461 454 452 453 458 455 451 447 449 445 438 430 433 430 420 432 428 431 416 409 427 427 420 427 423 433 407 433 429 426 424 426 422 420 423 427 421 413 417 426 436 403 405 396 411 414 403 400 402 433 406 385 410 397 392 0
260 270 239 227 236 229 228 235 259 297 315 338 326 318 328 323 343 344 338 346 344 348 365 380 375 391 390 398 409 417 408 422 420 433 434 426 432 432 429 428 432 431 427 430 432 428 428 438 440 440 445 435 440 440 439 442 442 435 438 442 444 444 444 443 434 439 435 441 441 433 431 430 425 422 411 413 408 404 395 404 395 404 394 388 395 391 393 388 399 387 397 393 393 393 391 394 387 394 392 383 396 386 385 402 400 363 370 379 373 396 369 395 382 383 379 380 372 368 389 389
303 279 281 242 234 234 234 250 291 306 316 316 297 319 302 313 313 296 314 314 329 331 331 348 359 375 383 388 393 393 397 408 406 409 416 407 413 411 411 420 416 416 415 416 418 414 417 428 422 424 416 419 421 422 420 422 427 431 421 425 422 422 419 423 421 422 417 421 422 412 414 415 409 404 405 386 392 368 371 373 364 375 355 362 363 370 370 368 360 368 368 364 366 363 373 352 369 368 357 371 362 358 374 357 375 379 355 373 363 365 364 373 354 360 375 380 368 373 348 350
269 253 259 255 270 247 252 277 274 285 261 280 267 283 275 275 281 268 285 282 301 309 305 318 318 345 353 365 360 367 373 389 396 379 378 387 391 396 392 393 388 389 390 391 390 390 391 386 392 390 382 398 393 395 388 390 389 393 400 397 392 396 400 396 388 387 394 390 390 394 382 386 389 378 366 363 353 346 344 323 328 319 322 335 325 321 324 324 326 321 314 326 327 322 329 332 330 316 318 320 326 313 321 346 322 320 315 318 314 318 314 331 321 327 340 317 323 302 298 306
245 243 252 246 248 247 250 252 269 256 260 262 262 261 265 261 262 264 267 268 271 282 291 291 316 315 332 347 352 356 352 366 361 365 363 368 368 369 375 367 367 369 366 377 377 372 379 375 367 377 377 378 377 378 381 376 370 381 373 375 379 373 376 375 373 371 374 372 372 369 373 363 368 359 345 339 328 317 318 316 314 305 314 300 301 305 304 303 300 290 300 311 303 315 303 296 302 297 306 296 304 305 317 293 307 300 316 304 304 327 323 289 334 324 315 298 319 324 315 290
231 219 222 235 233 235 245 239 249 233 248 248 247 246 246 238 239 245 249 246 256 275 273 279 297 301 318 330 328 334 332 333 345 339 340 343 349 338 344 352 353 341 346 351 352 347 349 351 349 349 348 353 344 354 348 350 352 352 359 347 353 349 351 342 355 350 353 352 352 341 350 337 348 339 330 326 313 293 294 288 285 271 283 279 279 272 276 276 272 274 278 289 290 280 270 277 276 272 275 281 285 291 286 285 273 267 271 274 286 283 271 281 281 299 289 287 287 274 280 282
202 221 233 220 232 216 221 218 228 221 230 228 226 233 225 222 228 237 230 236 240 238 256 262 268 281 295 293 297 309 315 311 323 320 318 320 315 320 328 328 316 320 321 319 324 323 326 327 319 323 320 324 329 323 328 323 325 321 330 331 328 332 323 325 321 327 327 327 324 322 320 323 319 305 302 299 287 282 274 270 261 271 256 270 262 259 258 256 257 252 248 258 259 256 261 250 256 253 254 258 259 255 250 263 252 252 262 254 259 265 264 260 259 266 275 266 253 256 264 262
204 202 210 230 219 214 222 224 215 213 216 213 210 225 217 221 220 224 223 223 230 236 254 250 253 269 272 279 284 287 292 295 295 291 302 295 297 300 309 306 299 296 301 298 306 302 305 303 307 309 313 304 301 307 301 304 308 304 306 311 309 309 309 312 311 307 303 296 305 306 304 302 302 295 287 282 269 265 256 254 243 248 247 243 250 256 248 246 244 253 246 243 251 247 248 244 245 239 240 239 243 249 252 246 248 239 243 248 247 268 248 256 258 256 255 273 264 249 260 277
196 198 201 206 201 206 209 209 180 191 205 202 205 187 200 190 193 193 209 213 214 221 238 227 239 249 253 256 266 267 271 267 270 276 279 283 281 278 282 283 278 282 293 287 284 278 282 280 286 285 284 281 278 285 279 283 286 281 284 286 282 285 286 290 287 287 284 287 285 280 284 280 273 277 267 263 252 249 243 238 226 233 230 230 233 231 229 223 226 229 226 231 226 227 224 225 225 217 219 223 228 232 218 237 231 222 225 229 231 229 235 238 238 237 249 243 233 239 232 253
168 177 178 191 182 180 186 189 184 184 181 179 181 178 184 188 182 185 185 186 209 212 214 226 228 229 241 241 245 250 257 254 258 253 260 258 260 258 264 268 267 259 264 267 267 264 266 271 268 262 263 264 266 264 267 268 266 267 266 274 263 269 265 273 262 271 272 267 266 269 266 259 259 254 251 241 238 231 224 221 219 217 222 216 213 220 219 212 217 220 217 221 223 212 215 217 217 211 212 219 218 212 213 215 212 212 212 209 218 218 209 214 219 225 222 210 220 207 206 219
173 177 167 180 173 177 172 177 180 180 182 184 183 182 178 176 181 189 182 187 182 190 192 216 216 219 225 225 226 234 234 241 242 240 243 241 241 245 247 244 246 246 247 252 254 250 251 248 245 252 250 250 246 251 245 251 252 251 250 255 253 244 253 252 244 251 248 250 246 246 246 245 240 240 238 229 223 219 199 201 200 198 187 190 194 186 195 200 194 193 194 189 191 193 188 184 189 185 187 209 192 206 207 194 190 207 183 201 186 200 204 211 213 205 215 207 212 208 217 227
167 164 175 170 171 173 171 170 178 176 177 172 179 174 179 179 174 181 183 183 186 186 180 190 207 206 212 215 217 224 225 222 225 225 228 226 231 227 230 227 225 229 236 231 234 234 226 228 236 231 234 233 234 234 234 227 235 240 240 237 236 239 238 230 233 235 232 231 231 233 234 231 225 227 219 216 212 193 188 195 195 193 193 188 190 194 195 191 190 191 191 192 185 188 186 186 184 186 187 179 189 181 182 178 191 179 179 178 179 183 183 179 178 181 194 192 179 196 171 172
168 162 172 173 178 166 171 168 168 171 167 163 170 172 174 173 176 177 176 180 179 188 189 182 182 182 189 189 212 210 211 213 213 214 215 214 214 219 213 213 217 221 222 215 220 219 219 217 221 225 218 223 220 218 219 223 224 224 219 227 222 225 221 220 219 216 216 217 223 220 223 219 216 215 194 189 188 195 188 186 187 185 189 185 186 183 185 182 185 184 184 181 184 184 183 182 180 175 185 184 187 184 182 184 175 178 185 179 180 180 171 182 183 171 199 171 178 172 198 224
149 152 162 158 163 163 161 166 163 166 161 162 164 159 161 164 160 170 170 173 174 176 179 181 187 185 183 184 193 185 181 184 182 195 187 191 186 187 185 191 194 190 190 195 200 199 196 193 195 194 197 192 195 200 199 192 196 197 198 197 204 201 200 192 193 191 193 194 194 194 194 197 194 190 188 195 197 189 186 178 180 179 173 176 176 176 179 177 179 179 173 176 171 170 173 175 172 170 169 171 168 174 170 174 170 170 173 168 167 175 167 170 174 176 172 178 174 165 173 174
143 154 152 154 160 155 154 156 157 157 157 157 155 156 156 153 158 165 157 168 167 171 175 177 179 179 178 183 184 187 191 188 189 188 189 186 192 194 191 193 193 196 192 196 191 196 195 195 196 193 195 198 193 199 199 196 198 200 196 199 200 198 194 191 193 195 195 196 199 196 195 194 192 191 189 187 185 186 180 174 173 170 171 163 166 170 176 168 171 172 169 167 171 166 172 166 163 166 165 171 165 169 170 167 168 163 159 163 168 170 164 168 171 175 177 177 166 165 170 165
148 145 150 149 148 149 153 151 151 151 151 148 153 157 151 150 153 150 159 158 163 169 166 172 171 174 174 179 177 178 179 178 184 184 177 183 184 181 183 185 184 186 188 185 183 188 187 186 186 187 187 188 187 186 192 186 188 191 0 190 190 189 187 191 190 188 188 191 185 186 188 184 184 178 177 178 176 177 171 164 163 161 159 159 162 162 166 164 165 161 162 163 158 163 162 164 159 161 162 162 161 165 161 159 160 161 161 159 162 164 160 167 162 167 166 178 168 177 174 163
130 140 137 142 140 149 148 144 142 145 142 145 144 145 147 147 143 147 149 152 156 160 162 160 164 170 169 167 171 172 168 173 175 175 169 171 175 172 175 178 176 178 178 176 174 178 177 181 175 177 179 178 180 181 180 180 182 0 0 181 180 181 181 184 177 177 180 177 180 175 174 175 174 175 172 171 168 167 163 160 162 157 154 154 155 157 157 153 153 153 151 150 160 156 152 152 153 156 156 154 155 149 156 153 150 147 149 149 162 157 151 150 150 152 151 155 161 151 148 143
142 131 133 136 143 141 150 141 142 139 140 141 145 145 146 141 144 148 147 145 149 152 157 157 163 160 163 162 165 167 162 165 167 166 163 168 166 171 167 171 173 0 174 0 171 172 175 173 171 175 175 172 175 174 176 0 174 175 0 174 177 0 177 173 171 172 172 166 174 173 169 167 170 170 166 167 165 162 156 152 154 155 152 150 153 152 151 148 151 155 146 150 153 151 148 146 150 148 158 149 148 145 145 145 148 147 143 148 147 149 148 157 151 163 147 145 146 148 148 168
127 124 129 125 135 135 144 138 133 118 134 133 133 132 139 136 136 136 137 138 139 148 149 151 148 156 158 157 159 162 162 158 158 162 159 156 162 164 0 0 0 0 0 0 0 0 164 165 166 168 167 166 168 167 0 0 172 169 0 0 0 0 0 0 165 168 165 0 161 163 164 158 162 161 157 156 154 158 149 150 151 146 149 147 140 149 142 146 145 144 145 143 143 149 142 139 144 147 142 143 139 140 142 137 135 140 135 139 135 142 144 142 153 153 148 141 139 143 138 153
115 126 125 111 127 133 134 132 134 123 128 136 124 128 125 128 122 138 134 136 142 142 147 148 150 148 154 153 152 155 151 154 157 158 154 153 154 0 0 0 0 0 0 0 0 0 0 0 0 161 162 160 0 0 0 0 0 0 0 0 0 0 0 0 0 158 0 0 0 0 0 158 159 153 156 151 151 153 146 143 140 131 145 132 137 141 145 139 146 129 136 139 138 139 139 137 143 141 127 137 136 133 138 131 132 128 132 133 139 138 140 148 133 136 133 138 139 114 125 155
114 107 119 127 130 116 131 129 130 128 130 125 121 120 119 130 136 131 131 138 135 126 137 144 141 139 145 145 144 151 149 148 153 151 150 148 0 0 0 0 0 0 0 0 0 0 0 0 153 156 159 0 0 0 0 0 0 0 0 0 0 0 0 0 0 0 0 0 0 0 0 0 150 153 149 146 149 141 144 145 130 140 128 130 128 139 138 131 138 137 139 129 131 139 119 128 141 137 134 137 131 139 136 123 128 132 129 126 140 134 134 134 137 136 149 133 137 129 118 131
106 108 112 111 110 112 122 120 116 119 115 116 115 117 127 121 123 120 116 119 131 125 127 123 138 140 141 139 145 143 140 143 143 146 145 143 0 0 0 0 0 0 0 0 0 0 0 0 146 0 0 0 0 0 0 0 0 0 0 0 0 0 0 0 0 0 0 0 0 0 0 0 144 141 141 138 138 127 128 129 128 120 122 122 136 120 121 123 123 130 123 124 116 126 125 126 125 133 121 116 120 132 131 121 120 121 114 133 132 132 128 135 106 130 116 125 114 109 121 135
108 112 114 114 115 112 119 118 119 117 113 117 116 119 117 124 117 130 122 116 116 114 120 116 136 128 134 131 0 140 0 0 0 140 140 0 0 0 0 0 0 0 0 0 0 0 0 0 0 0 0 0 0 0 0 0 0 0 0 0 0 0 0 0 0 0 0 0 0 0 0 0 0 143 137 137 126 126 121 129 121 119 120 127 118 121 116 119 121 115 118 123 116 116 115 124 118 122 118 121 121 125 130 124 120 113 128 120 112 132 128 124 128 120 132 123 106 135 132 158
103 100 109 113 108 101 108 108 104 108 111 107 108 105 107 109 109 115 118 112 116 115 109 118 120 123 130 120 123 127 0 0 0 0 128 0 0 0 0 0 0 0 0 0 0 0 0 0 0 0 0 0 0 0 0 0 0 0 0 0 0 0 0 0 0 0 0 0 0 0 0 0 129 0 0 127 119 120 122 117 117 117 111 119 115 117 113 114 111 114 118 118 113 115 110 110 115 115 111 110 117 114 113 117 113 120 114 125 110 111 111 119 106 118 124 103 108 140 128 156
99 102 93 96 100 103 103 101 103 102 102 100 110 108 105 101 109 111 117 109 109 109 108 105 117 110 113 119 124 122 0 128 0 0 0 0 0 0 0 0 0 0 0 0 0 0 0 0 0 0 0 0 0 0 0 0 0 0 0 0 0 0 0 0 0 0 0 0 0 0 0 0 0 122 0 117 121 115 114 114 116 109 103 104 111 107 109 116 108 110 115 113 112 113 109 114 107 107 104 117 113 104 110 105 105 114 106 107 114 112 100 102 117 92 107 134 124 109 102 141
98 102 99 105 99 99 103 88 95 101 97 96 103 96 101 94 107 106 114 115 111 106 99 110 112 108 116 115 115 123 119 116 125 0 0 0 0 0 0 0 0 0 0 0 0 0 0 0 0 0 0 0 0 0 0 0 0 0 0 0 0 0 0 0 0 0 0 0 0 0 0 0 124 124 108 118 117 119 119 119 105 111 102 119 108 106 104 103 106 105 105 110 112 92 98 101 106 103 114 104 106 114 109 105 105 114 104 96 104 97 106 107 108 102 121 122 134 130 115 116
89 82 79 85 80 84 84 95 93 88 92 95 96 96 94 89 77 96 92 90 91 88 98 106 102 103 113 106 0 115 108 106 118 0 0 0 0 0 0 0 0 0 0 0 0 0 0 0 0 0 0 0 0 0 0 0 0 0 0 0 0 0 0 0 0 0 0 0 0 0 0 118 112 110 106 112 106 106 102 96 104 101 96 92 101 95 88 98 105 98 93 93 104 84 87 96 93 104 86 98 90 97 94 93 86 94 95 97 91 89 92 77 80 92 96 94 125 86 87 132
95 85 90 91 96 93 96 104 91 94 96 92 91 91 95 96 97 91 103 95 98 107 110 103 102 106 112 106 0 105 111 110 118 110 120 106 111 0 0 0 0 117 0 0 0 0 0 0 0 0 0 0 0 0 0 0 0 0 0 0 115 0 0 0 111 0 0 0 111 0 106 108 115 112 115 108 105 110 101 99 110 104 105 86 96 102 106 100 100 101 105 105 112 97 102 102 100 95 97 108 105 97 97 102 92 101 99 90 86 82 91 91 90 87 100 89 101 83 116 134
86 91 91 91 94 98 91 95 88 96 88 91 90 94 87 87 95 101 100 93 99 94 99 111 93 103 107 103 102 109 95 0 107 101 98 101 0 114 120 0 107 0 0 0 0 0 0 0 0 0 0 0 0 0 0 0 0 111 0 0 0 107 103 112 114 113 104 101 113 104 109 104 104 98 111 109 99 89 106 101 95 94 99 87 94 93 93 104 102 92 97 104 108 88 85 83 90 92 100 91 93 86 88 95 91 88 105 91 98 91 96 93 92 95 98 96 126 132 136 118
86 87 81 87 93 91 101 90 90 82 90 88 84 89 93 87 91 89 93 89 78 92 95 84 86 91 96 91 105 89 97 100 101 97 94 108 99 104 106 103 105 96 98 107 107 93 0 0 95 0 0 109 107 96 102 110 105 105 107 104 101 105 112 104 101 109 103 95 95 108 96 107 106 98 106 91 93 95 100 92 93 93 92 96 94 90 88 96 94 90 99 90 95 93 92 93 85 94 92 83 88 86 92 91 89 82 89 84 79 96 88 91 95 101 93 88 113 105 108 152
84 82 86 84 86 90 98 100 88 85 90 83 82 88 86 92 85 96 87 98 83 101 95 86 91 99 92 90 100 99 94 85 94 97 93 99 98 99 96 111 103 96 101 107 100 93 105 0 104 101 99 104 100 96 103 104 103 107 102 107 103 96 96 105 105 98 98 103 98 106 98 107 104 95 102 86 95 97 97 85 98 93 96 92 99 95 91 86 97 91 84 96 87 92 93 85 90 92 100 85 91 98 84 92 85 103 92 99 91 88 98 102 109 94 106 103 109 115 138 129
82 76 71 68 79 86 87 87 87 80 88 83 83 82 89 84 85 87 87 85 94 86 82 88 86 85 94 95 85 94 95 93 96 97 96 95 99 95 92 85 91 92 97 92 97 95 91 99 96 91 91 98 97 91 91 87 101 89 101 88 99 82 83 97 95 99 98 92 97 98 97 85 98 94 88 97 95 97 93 96 89 93 82 89 84 91 93 90 89 88 93 80 89 83 85 88 86 82 80 92 83 89 79 70 84 83 89 89 83 93 86 97 88 86 120 118 159 118 122 77
73 75 82 86 71 85 90 86 84 81 82 89 83 84 84 87 86 91 83 88 84 91 85 93 89 93 92 86 94 90 94 96 92 98 86 94 86 95 96 95 96 96 92 90 89 100 89 87 101 88 94 96 98 87 104 94 92 85 91 97 98 84 88 98 90 97 90 96 107 93 84 95 89 85 93 98 94 96 95 93 93 87 90 88 78 89 90 82 94 92 77 91 81 81 92 84 91 89 79 84 87 86 80 81 77 81 85 83 80 88 88 88 85 84 100 98 96 93 88 192
