0 0 0 0 0 0 0 0 0 0 0 0 0 0 0 0 0 0 0 0 0 0 0 0 0 0 0 0 0 0 0 0 0 0 0 0 0 0 0 0 0 0 0 0 0 0 0 0 0 0 0 0 0 0 0 0 0 0 0 0 0 0 0 0 0 0 0 0 0 0 0 0 0 0 0 0 0 0 0 0 0 0 0 0 0 0 0 0 0 0 0 0 0 0 0 0 0 0 0 0 0 0 0 0 0 0 0 0 0 0 0 0 0 0 0 0 0 0 0 0
0 0 0 0 0 0 0 0 0 0 0 0 0 0 0 0 0 0 0 0 0 0 0 0 0 0 0 0 0 0 0 0 0 0 0 0 0 0 0 0 0 0 0 0 0 0 0 0 0 0 0 0 0 0 0 0 0 0 0 0 0 0 0 0 0 0 0 0 0 0 0 0 0 0 0 0 0 0 0 0 0 0 0 0 0 0 0 0 0 0 0 0 0 0 0 0 0 0 0 0 0 0 0 0 0 0 0 0 0 0 0 0 0 0 0 0 0 0 0 0
0 0 0 0 0 0 0 0 0 0 0 0 0 0 0 0 0 0 0 0 0 0 0 0 0 0 0 0 0 0 0 0 0 0 0 0 0 0 0 0 0 0 0 0 0 0 0 0 0 0 0 0 0 0 0 0 0 0 0 0 0 0 0 0 0 0 0 0 0 0 0 0 0 0 0 0 0 0 0 0 0 0 0 0 0 0 0 0 0 0 0 0 0 0 0 0 0 0 0 0 0 0 0 0 0 0 0 0 0 0 0 0 0 0 0 0 0 0 0 0
0 0 0 0 0 0 0 0 0 0 0 0 0 0 0 0 0 0 0 0 0 0 0 0 0 0 0 0 0 0 0 0 0 0 0 0 0 0 0 0 0 0 0 0 0 0 0 0 0 0 0 0 0 0 0 0 0 0 0 0 0 0 0 0 0 0 0 0 0 0 0 0 0 0 0 0 0 0 0 0 0 0 0 0 0 0 0 0 0 0 0 0 0 0 0 0 0 0 0 0 0 0 0 0 0 0 0 0 0 0 0 0 0 0 0 0 0 0 0 0
0 0 0 0 0 0 0 0 0 0 0 0 0 0 0 0 0 0 0 0 0 0 0 0 0 0 0 0 0 0 0 0 0 0 0 0 0 0 0 0 0 0 0 0 0 0 0 0 0 0 0 0 0 0 0 0 0 0 0 0 0 0 0 0 0 0 0 0 0 0 0 0 0 0 0 0 0 0 0 0 0 0 0 0 0 0 0 0 0 0 0 0 0 0 0 0 0 0 0 0 0 0 0 0 0 0 0 0 0 0 0 0 0 0 0 0 0 0 0 0
0 0 0 0 0 0 0 0 0 0 0 0 0 0 0 0 0 0 0 0 0 0 0 0 0 0 0 0 0 0 0 0 0 0 0 0 0 0 0 457 525 469 468 495 515 494 500 485 491 504 490 476 481 465 493 0 0 0 0 0 0 0 0 0 0 0 0 0 0 0 0 0 0 0 0 0 0 0 0 0 0 0 0 0 0 0 0 0 0 0 0 0 0 0 0 0 0 0 0 0 0 0 0 0 0 0 0 0 0 0 0 0 0 0 0 0 0 0 0 0
0 0 0 0 0 0 0 0 0 0 0 0 0 0 0 0 0 0 0 0 0 0 0 0 0 0 0 0 0 0 0 0 0 0 0 0 0 461 508 491 495 504 502 481 499 517 511 513 509 517 500 505 503 513 502 512 499 482 494 502 0 0 0 0 0 0 0 0 0 0 0 0 0 0 0 0 0 0 0 0 0 0 0 0 0 0 0 0 0 0 0 0 0 0 0 0 0 0 0 0 0 0 0 0 0 0 0 0 0 0 0 0 0 0 0 0 0 0 0 0
0 0 0 0 0 0 0 0 0 0 0 0 0 0 0 0 0 0 0 0 0 0 0 0 0 0 0 0 0 0 0 0 0 0 0 500 512 515 496 491 502 508 496 509 493 515 505 516 519 516 516 511 510 511 529 518 525 517 512 507 499 523 544 539 520 0 0 0 0 0 0 0 0 0 0 0 0 0 0 0 0 0 0 0 0 0 0 0 0 0 0 0 0 0 0 0 0 0 0 0 0 0 0 0 0 0 0 0 0 0 0 0 0 0 0 0 0 0 0 0
0 0 0 0 0 0 0 0 0 0 0 0 0 0 0 0 0 0 0 0 0 0 0 0 0 0 0 0 0 0 0 0 0 478 482 495 495 480 499 506 510 501 493 497 492 489 492 499 500 513 501 489 506 498 512 514 504 493 506 510 498 510 503 514 499 523 479 547 507 535 549 528 534 0 555 558 549 542 469 563 0 0 0 0 0 0 0 0 0 0 0 0 0 0 0 0 0 0 0 0 0 0 0 0 0 0 0 0 0 0 0 0 0 0 0 0 0 0 0 0
0 0 0 0 0 0 0 0 0 0 0 0 0 0 0 0 0 0 0 0 0 0 0 0 0 0 0 0 0 0 0 575 510 520 508 510 496 508 518 490 510 491 502 503 497 504 509 511 511 508 515 515 508 507 510 506 504 512 509 510 531 509 515 512 507 527 518 518 534 571 575 552 570 579 597 594 616 610 586 612 617 617 589 620 599 598 0 657 598 603 626 619 622 630 607 639 616 634 610 590 562 612 604 622 629 0 0 0 0 0 0 0 0 0 0 0 0 0 0 0
0 0 0 0 0 0 0 0 0 0 0 0 0 0 0 0 0 0 0 0 0 0 0 0 0 0 0 0 0 0 515 513 499 493 496 504 498 496 505 504 513 506 515 505 507 512 506 511 506 516 497 504 514 518 523 515 506 509 495 508 504 502 510 510 525 514 520 517 526 507 555 569 555 599 582 575 572 571 574 611 585 606 605 600 612 584 645 609 560 604 590 540 571 588 600 571 602 629 579 585 588 548 587 641 577 602 558 0 0 0 0 0 0 0 0 0 0 0 0 0
0 0 0 0 0 0 0 0 0 0 0 0 0 0 0 0 0 0 0 0 0 0 0 0 0 0 0 0 464 502 496 485 496 496 506 494 493 498 500 496 502 505 490 482 501 499 501 499 492 516 502 506 502 504 507 490 504 505 491 506 508 493 505 507 517 497 498 496 495 495 517 522 539 541 552 576 559 520 543 541 539 528 506 561 550 557 574 563 543 554 543 539 557 501 550 577 498 579 608 533 495 568 516 522 486 535 555 533 503 0 0 0 0 0 0 0 0 0 0 0
0 0 0 0 0 0 0 0 0 0 0 0 0 0 0 0 0 0 0 0 0 0 0 0 0 0 0 500 505 509 501 504 509 511 499 515 504 505 510 504 512 502 500 503 502 510 506 513 507 509 515 500 507 507 510 506 504 503 514 516 511 509 516 511 515 507 521 516 511 515 516 517 591 580 606 558 588 613 597 604 548 585 586 612 593 549 602 587 608 585 575 540 585 605 570 573 583 590 586 566 577 589 564 566 596 595 567 600 0 0 0 0 0 0 0 0 0 0 0 0
0 0 0 0 0 0 0 0 0 0 0 0 0 0 0 0 0 0 0 0 0 0 0 0 0 0 488 506 498 506 493 494 501 488 499 495 495 496 499 505 505 513 499 504 503 509 495 497 493 492 509 497 504 505 511 498 511 513 508 512 512 508 506 510 509 508 511 503 514 507 505 514 522 544 538 567 533 544 561 546 548 541 561 574 532 557 539 551 537 504 595 537 564 515 583 581 548 569 549 534 547 573 551 513 522 557 513 536 576 0 0 0 0 0 0 0 0 0 0 0
0 0 0 0 0 0 0 0 0 0 0 0 0 0 0 0 0 0 0 0 0 0 0 0 0 445 478 492 509 504 496 502 492 486 489 492 501 497 499 498 499 497 501 497 498 491 498 501 497 501 496 505 496 509 495 503 497 510 496 503 500 496 504 508 516 504 507 507 506 514 510 513 514 516 498 541 523 531 547 498 533 536 525 503 532 535 560 539 533 488 511 506 518 528 529 531 577 526 523 510 543 526 521 520 544 543 529 512 502 573 0 0 0 0 0 0 0 0 0 0
0 0 0 0 0 0 0 0 0 0 0 0 0 0 0 0 0 0 0 0 0 0 0 0 0 513 511 501 494 498 502 503 505 511 496 508 496 493 499 506 502 502 506 496 499 498 508 507 498 505 504 503 509 508 508 506 505 508 505 510 502 507 516 507 516 509 514 514 505 511 508 512 516 521 575 576 551 515 536 572 581 569 568 596 557 556 569 547 545 562 570 578 580 563 572 564 548 594 586 578 592 621 561 571 575 569 557 526 571 627 611 0 542 596 0 0 0 0 0 0
0 0 0 0 0 0 0 0 0 0 0 0 0 0 0 0 0 0 0 0 0 0 0 0 445 486 492 496 489 494 498 483 484 488 488 493 491 491 492 489 497 500 496 498 494 507 505 492 492 498 497 508 502 497 503 512 500 499 504 503 502 496 497 505 497 503 506 497 508 503 502 506 511 504 508 485 490 512 513 486 513 517 519 530 513 511 547 500 513 511 528 540 535 509 509 525 505 488 516 523 504 521 533 510 506 505 493 498 553 547 0 0 0 0 0 0 0 0 0 0
0 0 0 0 0 0 0 0 0 0 0 0 0 0 0 0 0 0 0 0 0 0 0 0 499 484 493 491 496 487 494 499 494 500 497 495 496 503 497 503 499 494 508 501 502 509 513 497 500 498 509 508 506 505 499 505 506 506 509 505 504 504 513 515 507 503 508 503 514 513 511 505 505 519 505 523 548 545 549 540 560 554 537 533 532 544 553 565 551 567 551 544 533 553 521 555 545 540 551 513 564 565 553 530 549 527 610 547 573 539 0 0 0 0 0 0 0 0 0 0
0 0 0 0 0 0 0 0 0 0 0 0 0 0 0 0 0 0 0 0 0 0 0 498 494 489 485 498 487 497 501 499 488 499 498 487 496 494 497 499 496 495 506 500 506 503 501 503 499 499 511 504 502 512 504 503 507 509 497 510 511 497 502 500 503 504 517 510 512 509 506 505 506 506 507 504 532 556 542 535 532 538 560 529 528 538 549 532 535 543 538 554 543 560 560 531 543 547 581 554 547 549 535 567 561 567 529 561 541 547 549 0 0 0 0 0 0 0 0 0
0 0 0 0 0 0 0 0 0 0 0 0 0 0 0 0 0 0 0 0 0 0 0 482 482 487 489 495 483 489 493 495 502 495 489 495 482 491 490 496 495 497 495 497 491 486 498 504 489 504 495 497 503 501 497 504 504 508 504 498 501 502 504 498 496 505 496 506 501 510 505 501 507 510 500 501 521 507 516 524 505 529 492 517 512 525 519 508 521 532 508 495 509 533 502 542 522 520 477 556 556 512 562 539 559 542 512 507 543 550 464 0 0 0 0 0 0 0 0 0
0 0 0 0 0 0 0 0 0 0 0 0 0 0 0 0 0 0 0 0 0 0 513 492 491 490 492 508 488 485 493 490 501 501 482 493 494 494 493 495 500 502 507 498 494 495 501 505 498 507 507 501 496 506 505 510 500 502 506 500 503 500 504 509 500 509 513 506 503 509 501 501 503 509 508 508 529 541 543 541 558 490 536 545 540 533 610 537 547 555 569 556 527 557 575 565 534 522 555 543 507 582 523 534 546 558 555 574 540 517 553 522 574 0 0 0 0 0 0 0
0 0 0 0 0 0 0 0 0 0 0 0 0 0 0 0 0 0 0 0 0 0 502 494 487 481 480 484 494 490 491 482 490 486 492 496 486 493 497 487 488 494 491 504 501 502 503 500 500 493 501 497 493 509 494 499 506 506 501 506 505 504 503 509 507 505 504 512 507 500 503 497 508 510 503 504 508 524 532 500 526 508 521 497 507 484 503 513 501 519 532 533 544 503 519 534 544 497 527 510 516 554 530 535 512 526 506 493 522 508 492 0 0 0 0 0 0 0 0 0
0 0 0 0 0 0 0 0 0 0 0 0 0 0 0 0 0 0 0 0 0 0 507 481 487 486 489 488 489 488 485 480 495 489 483 488 483 498 493 491 497 496 499 494 492 497 497 502 497 497 496 502 497 500 496 491 497 500 506 496 508 503 505 500 500 508 512 503 498 505 498 504 517 503 508 502 514 501 506 526 489 532 526 479 499 507 499 503 506 509 505 519 505 501 522 531 537 543 502 518 487 479 508 547 492 508 521 476 495 515 529 492 536 0 0 0 0 0 0 0
0 0 0 0 0 0 0 0 0 0 0 0 0 0 0 0 0 0 0 0 0 0 497 488 491 488 493 496 483 493 491 497 498 490 489 492 487 492 490 487 493 494 505 492 493 494 498 503 501 500 504 504 501 502 499 497 499 495 499 508 500 507 505 509 502 505 508 501 510 493 513 511 509 505 496 514 516 532 545 556 511 521 550 530 538 508 545 528 512 528 537 529 563 557 562 522 534 549 551 574 546 533 542 533 522 559 516 518 534 531 556 560 624 0 0 0 0 0 0 0
0 0 0 0 0 0 0 0 0 0 0 0 0 0 0 0 0 0 0 0 0 0 488 481 476 486 491 490 488 482 483 484 491 479 489 490 487 493 485 493 491 493 504 498 494 501 488 496 499 495 496 499 499 500 504 497 505 503 502 497 507 505 499 505 500 503 507 506 499 503 505 502 505 507 501 500 513 518 497 522 497 497 504 512 500 533 484 511 479 527 509 491 526 501 478 496 516 478 523 489 512 493 463 521 467 484 536 544 490 507 469 515 475 0 0 0 0 0 0 0
0 0 0 0 0 0 0 0 0 0 0 0 0 0 0 0 0 0 0 0 0 0 487 485 488 486 491 489 486 490 495 495 495 494 500 486 496 493 498 495 495 492 492 498 501 495 494 500 496 501 501 496 498 509 501 501 503 505 502 502 507 502 509 509 504 503 505 501 506 507 501 507 507 508 510 501 516 517 552 517 540 526 545 517 553 544 548 532 560 544 520 549 527 536 562 541 562 557 537 531 533 534 538 546 552 552 550 537 554 0 568 554 601 0 0 0 0 0 0 0
0 0 0 0 0 0 0 0 0 0 0 0 0 0 0 0 0 0 0 0 0 455 482 493 487 497 493 487 492 494 486 496 493 494 489 480 505 488 496 489 486 498 494 488 494 494 494 501 496 495 498 498 496 502 504 497 495 507 510 499 509 502 501 508 500 502 506 506 499 503 502 510 502 505 508 500 503 511 517 531 518 511 535 524 519 507 530 513 511 535 523 510 516 517 540 544 511 537 548 546 565 555 536 550 490 541 538 538 514 532 524 0 0 0 0 0 0 0 0 0
0 0 0 0 0 0 0 0 0 0 0 0 0 0 0 0 0 0 0 0 0 454 486 477 485 477 479 477 482 484 482 481 493 481 488 490 489 484 490 484 493 497 494 495 494 487 493 492 496 490 496 496 499 499 501 502 501 497 500 505 501 498 499 499 511 505 503 501 494 497 498 504 497 501 497 503 507 506 484 481 538 495 503 504 506 484 482 513 513 514 508 484 485 497 498 478 500 504 493 496 483 507 523 533 461 500 487 493 539 534 495 473 425 0 0 0 0 0 0 0
0 0 0 0 0 0 0 0 0 0 0 0 0 0 0 0 0 0 0 0 0 502 489 478 486 478 491 487 479 488 487 485 487 494 482 491 489 490 490 490 494 493 492 501 495 496 494 498 491 494 496 497 499 498 496 504 502 500 501 507 510 500 504 502 504 499 505 505 513 504 500 503 496 508 512 497 511 513 498 529 525 513 505 522 523 521 535 516 544 531 511 544 537 545 537 509 533 566 519 534 521 520 518 504 531 540 537 498 569 527 505 526 555 0 544 0 0 0 0 0
0 0 0 0 0 0 0 0 0 0 0 0 0 0 0 0 0 0 0 0 0 454 476 476 489 480 479 479 482 485 476 485 480 485 483 489 484 483 489 493 491 488 491 491 491 490 492 495 493 496 494 495 497 498 492 498 499 496 503 496 496 502 496 501 496 501 501 498 495 497 501 497 511 500 500 500 498 504 500 502 513 514 500 494 487 494 498 501 506 482 524 505 485 500 479 500 479 494 505 510 487 492 493 518 504 503 474 474 454 464 465 490 499 0 0 0 0 0 0 0
0 0 0 0 0 0 0 0 0 0 0 0 0 0 0 0 0 0 0 0 0 455 483 476 478 482 481 479 485 475 487 484 486 485 485 483 488 489 485 487 491 496 493 499 497 494 495 500 492 496 498 500 500 497 500 495 492 497 496 498 502 501 498 497 500 499 505 506 505 503 496 499 499 501 495 504 504 512 523 510 512 505 497 510 494 490 509 502 493 503 476 500 482 519 498 488 497 512 500 498 494 490 509 517 501 506 496 510 501 474 511 504 481 0 0 0 0 0 0 0
0 0 0 0 0 0 0 0 0 0 0 0 0 0 0 0 0 0 0 0 0 497 476 483 485 493 480 486 482 483 486 489 484 488 487 488 489 481 493 489 486 487 491 489 490 496 497 503 496 496 494 494 499 501 491 498 497 501 497 501 500 503 500 504 498 504 502 503 504 507 515 507 501 502 505 501 504 500 520 514 534 534 522 503 502 520 524 540 519 514 512 512 550 516 508 501 536 505 526 534 541 519 502 524 513 543 552 557 534 526 525 549 560 533 0 0 0 0 0 0
0 0 0 0 0 0 0 0 0 0 0 0 0 0 0 0 0 0 0 0 0 434 473 477 472 478 472 477 483 475 486 477 485 476 480 489 480 488 487 487 492 486 491 488 492 492 486 492 489 494 491 495 491 497 495 496 494 496 502 497 502 495 498 498 501 492 498 497 500 505 506 502 503 501 499 510 498 498 504 489 494 503 494 506 493 480 485 504 506 480 506 477 499 484 478 472 456 486 504 476 502 487 492 498 514 464 476 482 481 476 518 511 504 0 0 0 0 0 0 0
0 0 0 0 0 0 0 0 0 0 0 0 0 0 0 0 0 0 0 0 0 469 476 473 475 477 476 479 474 479 482 487 487 486 486 482 482 487 487 495 489 489 490 495 494 489 492 494 491 490 490 496 501 495 497 496 498 499 498 497 498 494 499 498 499 498 505 496 499 500 499 494 492 500 500 493 501 506 502 498 512 494 507 505 519 515 515 496 503 527 504 520 492 504 503 509 521 505 526 490 490 521 530 516 562 497 514 522 540 506 552 512 532 0 0 0 0 0 0 0
0 0 0 0 0 0 0 0 0 0 0 0 0 0 0 0 0 0 0 0 0 442 483 473 478 476 477 482 489 485 478 488 480 484 483 484 482 486 486 489 487 489 488 494 491 493 491 494 493 491 491 494 494 497 494 491 495 498 496 495 494 504 496 498 503 500 495 498 500 501 502 497 499 501 499 503 500 505 504 518 512 511 535 493 493 504 523 482 500 506 524 522 504 497 521 509 495 507 488 509 498 499 512 527 564 526 553 525 520 533 492 523 491 545 0 0 0 0 0 0
0 0 0 0 0 0 0 0 0 0 0 0 0 0 0 0 0 0 0 0 0 441 470 469 470 470 470 474 482 482 481 479 479 477 482 481 484 485 483 484 484 489 485 491 489 483 487 492 489 494 490 492 491 497 494 494 492 498 495 490 496 500 497 494 497 502 498 497 500 497 495 496 493 502 498 497 496 494 505 489 490 507 492 500 488 485 511 488 497 459 474 483 482 507 457 470 503 489 473 477 489 500 498 488 493 515 493 479 488 481 468 492 437 492 0 0 0 0 0 0
0 0 0 0 0 0 0 0 0 0 0 0 0 0 0 0 0 0 0 0 0 476 478 477 479 477 484 480 482 477 475 482 483 482 486 485 486 478 478 491 487 486 491 488 487 489 491 493 488 491 494 496 489 494 492 493 495 491 495 491 495 498 495 503 501 502 498 502 499 498 496 494 500 497 493 496 492 494 499 505 512 507 502 508 496 484 527 497 487 484 491 500 484 481 505 511 498 511 491 520 509 515 512 495 532 510 505 528 551 514 485 489 496 541 0 0 0 0 0 0
0 0 0 0 0 0 0 0 0 0 0 0 0 0 0 0 0 0 0 0 0 0 462 472 476 478 472 473 484 475 477 480 483 475 483 475 481 487 485 484 483 479 489 486 491 487 490 487 490 495 493 497 492 495 493 499 491 490 492 494 495 498 499 500 497 495 495 495 495 493 499 501 496 498 497 494 493 486 495 485 505 507 491 497 498 491 490 480 499 486 498 498 489 493 524 474 489 475 501 464 491 462 470 490 483 473 457 486 491 446 492 466 469 438 0 0 0 0 0 0
0 0 0 0 0 0 0 0 0 0 0 0 0 0 0 0 0 0 0 0 0 0 500 470 469 477 472 473 480 479 478 477 479 480 480 477 477 483 483 478 483 485 485 485 486 488 487 489 489 488 496 490 490 494 490 493 487 490 495 492 493 493 489 496 492 495 500 499 494 493 502 491 496 493 497 492 495 499 491 486 510 483 494 512 506 490 490 485 503 485 519 515 505 513 500 502 505 508 505 501 486 477 480 472 471 484 474 512 501 523 468 455 512 470 0 0 0 0 0 0
0 0 0 0 0 0 0 0 0 0 0 0 0 0 0 0 0 0 0 0 0 0 520 468 468 476 479 482 478 479 478 479 475 483 477 486 484 482 479 486 483 484 487 488 488 488 489 486 488 492 491 492 488 494 492 491 493 493 492 492 496 492 492 496 495 498 495 497 494 498 493 497 495 500 494 496 499 503 500 501 499 505 498 512 526 511 519 502 534 512 516 507 511 510 536 506 516 505 538 508 521 513 507 512 543 548 501 541 507 525 507 520 513 563 494 520 0 0 0 0
0 0 0 0 0 0 0 0 0 0 0 0 0 0 0 0 0 0 0 0 0 0 575 472 475 472 475 475 475 478 476 478 475 476 479 483 484 481 485 483 486 488 485 488 488 485 485 488 490 488 488 489 493 491 491 492 489 494 494 493 491 495 503 500 493 493 495 500 496 492 498 489 493 497 493 491 497 485 495 496 507 499 500 501 505 502 529 489 488 486 515 516 471 511 518 525 519 498 508 486 497 486 490 494 466 469 468 483 473 509 447 482 453 490 474 0 0 0 0 0
0 0 0 0 0 0 0 0 0 0 0 0 0 0 0 0 0 0 0 0 0 0 771 486 472 478 479 474 472 475 476 478 479 482 481 473 479 480 484 484 488 485 491 488 488 490 486 486 488 491 491 490 495 493 494 492 488 495 496 500 491 493 491 496 492 496 493 497 494 497 499 490 495 493 494 494 492 496 506 495 510 507 497 506 503 503 489 517 512 516 493 510 517 505 513 510 523 511 515 537 496 505 507 508 500 496 478 513 520 504 509 513 500 0 501 0 0 0 0 0
0 0 0 0 0 0 0 0 0 0 0 0 0 0 0 0 0 0 0 0 0 0 0 474 475 473 479 473 471 482 478 478 478 478 483 480 483 476 488 477 478 484 487 486 485 485 488 491 486 486 486 485 491 495 498 490 501 491 496 494 494 495 493 493 492 501 492 497 494 493 497 494 494 490 494 490 488 497 484 497 487 492 486 493 488 497 484 505 497 502 512 499 506 514 523 497 506 504 517 518 553 517 496 506 511 483 463 506 486 474 505 465 531 0 0 0 0 0 0 0
0 0 0 0 0 0 0 0 0 0 0 0 0 0 0 0 0 0 0 0 0 0 0 510 468 470 468 468 470 469 476 472 476 477 476 478 477 481 478 484 482 482 483 485 483 485 489 483 486 484 490 490 485 484 492 491 491 499 489 491 493 491 490 495 493 491 492 494 491 490 497 496 493 495 498 489 492 475 495 490 512 504 481 493 503 500 498 488 505 486 499 496 484 500 503 487 488 488 493 473 509 480 488 477 482 461 482 505 465 458 483 447 407 442 0 0 0 0 0 0
0 0 0 0 0 0 0 0 0 0 0 0 0 0 0 0 0 0 0 0 0 0 0 0 479 472 462 467 476 473 475 473 485 478 477 477 479 478 480 480 479 484 485 484 486 488 484 488 489 489 485 491 493 494 491 490 490 490 486 496 494 494 492 495 494 493 493 496 496 491 496 496 495 490 493 484 492 509 512 511 509 512 508 516 517 496 516 507 509 506 512 513 536 496 507 542 501 511 502 508 515 506 520 528 479 536 475 509 542 474 476 505 449 477 508 492 0 0 0 0
0 0 0 0 0 0 0 0 0 0 0 0 0 0 0 0 0 0 0 0 0 0 0 0 504 464 467 471 475 471 473 473 477 479 473 478 479 480 481 484 481 480 485 485 483 486 486 481 486 488 492 487 487 492 492 491 491 489 489 488 489 488 494 492 494 497 494 492 493 496 493 490 490 492 492 490 498 499 484 494 473 488 489 485 503 499 485 514 494 486 482 479 518 488 512 484 527 474 485 494 481 491 470 468 469 486 456 445 471 473 456 462 451 477 427 0 0 0 0 0
0 0 0 0 0 0 0 0 0 0 0 0 0 0 0 0 0 0 0 0 0 0 0 0 0 473 463 467 468 469 467 472 478 475 472 473 476 474 473 477 481 477 483 482 482 482 481 485 483 484 487 480 490 492 488 488 487 483 481 494 491 490 492 494 491 494 493 491 490 494 490 492 487 491 493 488 484 471 486 480 478 481 490 489 488 482 478 496 480 492 486 496 504 491 513 481 498 482 505 483 485 512 489 463 480 459 439 445 484 466 483 442 458 482 0 425 0 0 0 0
0 0 0 0 0 0 0 0 0 0 0 0 0 0 0 0 0 0 0 0 0 0 0 0 0 550 472 466 471 479 469 473 475 476 476 478 478 479 483 480 481 480 483 482 484 482 480 484 484 488 487 485 486 495 493 492 492 487 488 490 492 487 487 489 490 492 494 490 492 489 491 490 494 496 497 491 480 485 495 488 495 486 490 496 496 492 501 502 495 502 508 505 490 505 510 513 506 506 491 507 518 526 542 507 479 501 497 505 482 515 505 502 495 454 0 0 0 0 0 0
0 0 0 0 0 0 0 0 0 0 0 0 0 0 0 0 0 0 0 0 0 0 0 0 0 0 477 469 464 471 469 467 468 471 476 476 481 477 476 477 478 477 481 483 481 484 480 482 485 485 488 487 489 490 486 488 492 488 491 493 489 482 492 490 492 492 492 483 493 488 495 487 493 493 486 483 471 484 487 485 469 478 493 466 480 482 491 467 475 468 482 489 483 495 482 489 486 490 479 499 493 477 470 464 490 488 462 454 456 457 453 460 456 432 0 0 0 0 0 0
0 0 0 0 0 0 0 0 0 0 0 0 0 0 0 0 0 0 0 0 0 0 0 0 0 0 0 479 469 466 472 471 480 469 475 474 476 471 477 476 478 477 483 479 485 481 484 481 486 479 482 484 482 487 490 483 488 489 483 491 482 490 486 492 490 488 491 488 493 488 492 486 489 488 491 464 489 475 492 490 478 487 496 501 487 503 491 490 487 479 482 479 484 504 493 498 504 500 510 521 512 489 481 485 513 485 463 490 506 481 486 463 461 452 471 0 0 0 0 0
0 0 0 0 0 0 0 0 0 0 0 0 0 0 0 0 0 0 0 0 0 0 0 0 0 0 0 517 468 466 466 467 467 477 475 471 478 476 475 475 478 475 480 482 482 476 483 486 483 487 484 484 483 487 485 487 491 481 488 486 489 480 487 492 490 491 486 491 488 490 490 485 482 491 483 499 487 484 486 477 506 487 494 502 486 500 489 488 501 493 509 508 486 473 493 494 498 500 490 497 488 482 504 479 454 471 465 494 451 506 485 470 474 484 0 0 0 0 0 0
0 0 0 0 0 0 0 0 0 0 0 0 0 0 0 0 0 0 0 0 0 0 0 0 0 0 0 0 517 468 460 463 465 467 474 469 468 473 471 474 474 474 476 479 479 482 477 481 481 484 481 486 478 483 487 482 484 485 482 482 484 483 485 485 484 486 487 481 492 485 482 488 477 480 474 483 471 474 471 473 477 479 478 473 502 467 487 478 493 470 482 484 473 499 468 469 504 483 501 478 486 460 469 471 449 460 469 462 440 437 472 442 477 470 421 0 0 0 0 0
0 0 0 0 0 253 237 258 382 0 0 0 0 0 0 0 0 0 0 0 0 0 0 0 0 0 0 0 0 511 462 471 465 476 466 474 475 476 468 469 470 477 478 474 475 479 476 478 482 482 482 485 482 484 484 481 483 483 485 481 484 481 487 486 486 490 483 485 484 487 483 490 487 490 495 485 486 495 490 501 501 498 484 486 500 486 489 507 505 514 486 506 548 500 499 511 498 497 497 507 489 510 515 501 478 485 505 499 470 505 517 504 495 498 516 0 0 0 0 0
0 0 0 0 229 230 229 233 231 266 341 0 0 0 0 0 0 0 0 0 0 0 0 0 0 0 0 0 0 0 448 463 466 462 467 472 469 468 471 468 473 477 472 472 480 476 477 473 476 478 481 484 486 483 481 479 482 482 479 481 481 482 486 490 480 479 479 485 480 481 468 465 469 471 471 480 481 471 462 470 467 472 478 473 479 482 472 471 478 467 474 485 473 462 473 488 481 474 460 465 470 478 445 443 481 450 479 465 468 429 452 431 444 0 0 0 0 0 0 0
0 0 0 238 224 230 228 228 234 242 318 0 0 0 0 0 0 0 0 0 0 0 0 0 0 0 0 0 0 0 0 475 456 464 461 463 463 465 465 466 471 471 472 468 470 471 468 475 476 474 477 477 479 474 476 478 481 480 477 480 478 485 483 483 480 480 484 476 474 473 485 480 478 477 481 483 482 473 484 473 482 482 481 471 478 485 474 480 477 467 475 488 486 471 493 467 471 463 494 480 465 524 478 467 436 475 450 473 453 482 473 451 488 459 479 0 0 0 0 0
234 222 266 251 270 283 254 233 240 242 299 0 402 416 425 430 433 442 436 431 465 458 441 453 456 457 456 453 454 448 449 469 461 469 467 463 462 465 466 466 468 470 472 469 476 478 474 474 474 474 473 479 471 480 484 473 476 479 475 486 477 479 474 476 480 483 468 481 481 477 483 473 466 477 474 464 478 472 470 481 470 474 479 467 479 471 486 492 473 472 490 484 491 480 466 482 475 475 479 488 474 464 459 479 485 481 430 487 515 480 479 480 475 476 493 0 0 0 0 0
197 224 195 207 227 215 246 228 236 250 324 375 394 375 384 411 405 400 393 408 408 418 417 410 418 430 425 427 443 443 451 454 448 457 453 456 459 463 464 456 458 460 460 465 458 467 472 468 473 469 472 471 470 472 471 481 469 471 473 468 470 466 475 472 466 467 476 468 468 466 470 468 462 463 455 460 452 459 454 453 458 459 442 444 450 460 457 453 463 453 453 460 452 447 442 446 467 443 453 436 452 438 460 437 442 428 435 427 457 419 422 415 432 432 450 426 402 0 0 0
210 175 212 223 238 237 242 230 235 306 387 379 380 374 370 360 378 374 378 380 386 377 371 399 411 405 420 425 434 442 439 441 443 445 437 448 443 445 450 447 447 454 449 455 451 452 447 449 461 455 458 458 462 452 457 457 455 458 455 461 463 465 463 464 457 460 458 459 457 455 454 459 447 446 440 444 428 441 427 423 430 440 421 437 421 428 424 441 425 424 441 432 441 422 435 419 416 421 435 438 446 407 421 425 415 422 419 405 414 418 416 420 420 417 406 452 434 456 414 0
275 302 247 227 228 230 234 231 251 323 332 341 334 347 330 326 347 333 345 346 351 363 367 371 360 377 385 398 420 413 416 421 424 428 427 434 432 434 432 426 430 432 431 424 436 439 433 441 436 436 441 437 442 443 441 445 441 436 453 443 445 441 446 446 441 442 444 437 439 439 434 432 434 422 415 410 407 403 399 392 396 386 397 390 390 401 399 395 404 390 409 401 404 400 390 408 391 403 393 408 387 399 399 402 384 399 374 388 391 383 391 382 375 386 399 393 385 363 388 0
292 263 267 233 232 235 230 249 280 298 293 295 301 291 289 328 314 316 299 311 317 313 325 340 349 367 373 382 397 393 403 406 401 411 399 402 409 409 408 417 412 411 416 409 414 414 415 418 418 416 418 415 421 414 419 424 416 420 419 418 418 421 414 418 412 414 418 422 419 418 412 408 406 396 395 385 383 363 367 351 344 357 359 364 356 353 359 358 364 359 353 352 345 369 356 358 352 361 359 358 354 355 362 359 365 368 335 362 349 328 351 357 359 355 334 346 357 365 329 331
288 298 277 277 263 263 271 285 283 290 275 285 283 286 284 287 285 291 293 284 306 314 316 318 329 348 359 373 368 377 389 391 393 389 378 388 390 399 393 399 396 389 401 392 390 393 396 392 392 392 396 397 401 401 403 396 403 403 395 401 396 396 402 402 396 388 400 398 391 389 387 397 394 386 381 362 362 340 347 339 337 336 335 338 329 336 337 341 345 330 334 338 337 336 344 336 336 333 323 331 338 326 336 337 338 361 339 332 338 343 342 351 341 331 356 334 338 329 370 333
245 239 242 244 247 246 245 245 254 261 242 249 257 246 249 252 259 253 265 265 261 281 285 294 298 310 329 334 344 353 352 363 358 364 353 360 359 367 370 366 368 364 369 367 370 375 363 367 366 368 369 376 374 375 378 370 380 378 373 367 373 376 380 374 367 374 373 375 368 368 364 364 360 358 349 336 330 324 310 302 306 299 306 291 297 301 299 297 300 292 299 299 302 303 302 284 296 295 293 300 299 308 298 303 299 284 308 301 293 288 308 284 291 294 285 311 285 299 290 241
219 215 227 228 225 234 241 233 244 238 231 248 229 243 241 245 240 237 244 240 256 265 269 281 292 302 312 320 322 330 324 328 346 341 340 336 346 346 341 338 350 350 347 344 349 343 343 349 343 346 340 353 350 348 355 346 351 355 353 349 346 348 351 341 340 346 349 351 343 351 343 335 339 334 323 325 311 299 292 291 282 277 278 276 281 277 283 290 270 275 281 274 277 273 283 266 275 276 273 281 284 274 280 280 280 270 279 274 275 277 265 282 282 289 257 275 261 274 269 270
215 210 221 230 227 219 232 229 225 230 229 224 223 239 223 220 233 233 233 234 250 248 260 267 276 285 297 296 302 306 307 308 315 318 314 320 320 324 325 324 314 315 317 318 330 324 330 324 325 321 326 327 326 325 330 328 334 327 333 326 330 330 325 328 327 328 328 328 328 328 321 324 316 312 311 301 283 283 271 275 267 270 262 262 256 255 262 261 251 258 258 259 257 257 263 255 257 250 264 268 256 263 262 262 259 259 261 254 279 270 265 272 272 264 267 276 261 276 258 253
200 206 203 213 204 210 217 213 211 210 210 211 210 210 208 219 212 218 221 216 221 228 240 253 249 263 267 275 283 282 290 292 294 291 293 295 295 302 302 303 295 296 298 298 301 303 299 298 304 305 308 298 301 301 301 304 304 301 304 298 300 304 305 305 311 304 306 303 302 302 300 299 298 289 286 280 267 262 257 253 245 245 241 246 240 246 242 233 236 246 249 239 241 239 239 234 233 229 245 235 238 239 247 243 231 241 238 243 244 245 251 255 247 250 241 243 241 237 251 245
181 204 199 205 204 208 210 210 201 207 204 202 191 207 205 191 208 211 208 213 217 227 228 235 239 251 247 259 269 271 269 267 274 270 278 277 280 281 282 283 284 278 283 286 282 284 285 286 286 287 285 283 281 283 280 284 286 285 283 285 282 289 289 287 288 286 282 280 286 284 289 283 275 273 271 263 256 249 241 235 225 232 230 230 231 227 226 228 231 234 230 233 232 230 227 226 223 222 227 232 228 235 227 234 234 223 225 235 237 231 238 241 231 242 255 239 229 224 239 255
175 176 175 178 189 195 181 191 185 183 185 181 182 182 178 176 190 179 189 190 212 210 221 230 225 235 236 245 243 246 260 256 257 257 259 259 259 256 270 264 265 264 266 267 265 262 267 271 262 266 262 269 265 268 267 269 268 272 266 274 272 264 263 271 265 266 272 270 265 265 268 259 256 255 254 243 241 232 227 220 219 222 216 216 217 221 217 211 215 221 217 217 218 211 215 216 208 214 209 213 218 219 219 213 193 209 216 212 220 216 219 227 220 229 221 208 244 223 237 234
174 171 168 175 171 179 179 179 178 177 181 173 184 175 187 182 183 176 186 186 184 188 190 211 213 218 221 225 229 229 229 244 238 243 237 239 238 242 246 245 245 243 246 245 252 251 245 248 242 251 248 248 246 246 246 246 245 249 249 253 249 244 253 248 246 252 249 248 243 245 246 246 242 240 235 226 219 218 197 198 192 186 191 186 190 192 194 191 188 192 185 194 188 181 188 189 181 183 190 186 184 190 192 187 185 185 185 202 184 205 201 206 208 198 206 179 211 209 204 210
171 176 174 175 175 176 172 171 175 177 177 178 178 173 174 182 178 182 188 186 186 179 190 191 205 194 212 221 221 220 228 226 224 230 229 228 234 229 230 230 229 226 231 230 236 232 230 228 235 232 234 233 235 237 236 234 234 238 237 236 234 238 237 235 231 236 236 229 235 235 236 234 230 224 215 218 198 200 193 195 194 196 191 193 191 195 194 194 195 190 184 194 190 191 190 184 184 185 188 181 186 180 187 182 189 187 192 181 179 180 176 179 195 186 197 207 216 200 216 219
165 162 166 171 170 167 168 169 166 161 169 164 164 163 170 167 171 173 178 179 176 179 188 182 182 182 187 186 191 211 195 211 207 212 216 214 199 214 214 198 216 219 218 213 217 224 218 219 219 219 216 221 221 219 221 218 222 222 219 226 218 222 220 220 216 218 217 216 222 221 217 214 216 197 192 189 190 194 190 186 187 183 186 180 184 182 187 183 183 186 185 182 181 179 178 181 177 178 178 180 183 186 181 180 172 179 177 178 182 178 181 181 180 169 173 172 180 173 177 194
152 149 159 162 160 162 159 162 163 163 163 162 158 158 159 164 162 169 166 176 171 173 183 183 182 187 184 184 192 188 193 183 184 196 191 193 191 190 185 194 193 189 189 191 195 194 197 191 192 193 194 197 196 197 191 194 193 195 190 193 204 197 199 191 192 192 196 200 195 193 199 195 196 193 197 196 195 188 186 178 180 180 177 176 174 177 175 176 179 179 175 180 171 173 174 177 172 170 168 173 172 173 177 171 176 174 169 170 173 174 169 173 176 174 179 174 165 176 173 184
145 151 152 151 158 153 153 157 159 157 161 157 155 154 157 154 158 166 156 168 167 168 175 174 180 179 180 182 181 185 188 185 191 191 190 190 194 193 191 193 193 193 191 194 194 197 194 198 198 192 194 200 195 195 198 196 195 198 197 197 199 196 200 199 197 194 195 191 199 199 195 195 192 192 188 185 184 182 178 174 174 170 165 163 163 169 172 169 169 166 169 167 168 167 169 168 161 164 163 171 165 169 172 166 163 162 164 166 167 168 165 169 179 173 171 171 166 171 161 165
140 142 145 144 145 148 145 149 150 149 146 151 150 152 148 149 153 153 157 157 160 163 166 172 173 171 173 176 175 177 174 177 181 180 178 180 181 180 180 183 181 181 187 188 184 184 183 184 186 187 187 186 187 184 187 187 186 189 0 185 189 186 187 187 189 188 191 187 185 186 184 182 182 177 177 175 173 170 169 164 161 158 161 160 157 163 162 160 162 161 159 160 158 159 160 163 152 155 161 160 159 158 160 159 154 160 154 155 160 161 153 160 160 158 156 168 154 162 150 170
136 138 134 145 142 148 147 144 143 144 144 145 141 146 144 146 148 150 147 152 157 157 162 162 168 164 169 169 169 170 171 173 175 172 171 172 175 171 174 177 177 181 177 175 175 179 174 177 177 175 181 179 181 181 181 181 183 0 0 181 177 178 182 180 181 178 181 179 180 175 173 175 174 175 174 172 167 163 162 158 162 154 155 154 158 158 157 156 154 158 148 155 155 154 153 152 153 152 157 155 157 157 150 157 154 144 148 150 157 143 158 150 148 151 150 158 157 161 160 173
138 135 134 136 142 144 149 140 141 138 139 144 145 143 145 140 139 147 147 144 150 151 155 155 162 157 163 163 166 165 163 166 170 164 166 165 165 169 167 169 172 0 171 0 172 170 173 172 170 171 176 172 173 171 176 0 173 173 0 173 173 0 0 178 173 170 173 168 174 169 169 167 168 168 169 162 166 158 156 154 150 154 151 151 151 149 151 146 149 159 146 156 149 147 149 145 151 147 155 152 150 146 152 152 148 143 148 144 148 152 148 148 150 151 149 148 141 163 155 161
130 125 128 123 135 136 142 137 135 122 132 131 126 133 136 136 135 136 135 140 140 146 148 151 147 156 158 155 159 161 160 155 158 156 156 155 161 161 0 0 0 0 0 0 0 0 0 165 167 165 169 162 168 167 0 0 0 164 0 0 0 0 0 0 167 165 167 0 163 162 162 163 159 160 153 156 153 157 149 147 149 145 147 148 143 147 143 143 145 145 145 144 145 144 140 140 145 144 142 141 135 140 142 136 134 134 135 140 137 145 139 143 148 157 150 134 148 146 150 128
123 127 125 125 127 136 136 131 137 123 127 130 126 128 134 134 130 138 136 136 140 141 147 148 148 148 155 157 155 156 156 157 156 158 153 153 155 0 0 0 0 0 0 0 0 0 0 0 0 160 164 163 0 0 0 0 0 0 0 0 0 0 0 0 159 162 0 0 0 0 0 156 160 157 152 149 151 151 148 148 140 138 144 143 139 140 142 143 146 140 137 138 138 140 138 137 144 142 137 136 135 135 139 132 120 138 133 135 139 143 141 146 142 142 144 139 141 138 125 173
114 109 116 125 127 124 126 127 128 130 131 123 115 118 117 129 137 131 121 136 125 125 133 143 140 144 144 145 145 150 151 149 153 150 147 147 0 0 0 0 0 0 0 0 0 0 0 0 152 152 156 0 0 0 0 0 0 0 0 0 0 0 0 0 0 0 0 0 0 0 0 0 148 146 150 148 146 143 143 144 139 140 137 128 137 126 136 138 130 137 137 137 133 123 118 131 140 136 134 126 130 135 134 133 123 134 130 126 133 134 137 138 142 136 138 133 135 114 118 124
104 107 115 112 110 110 126 119 113 121 117 117 115 115 128 123 123 121 118 116 132 123 135 123 133 139 142 139 140 143 143 143 142 142 146 143 0 0 0 0 0 0 0 0 0 0 0 0 0 0 0 0 0 0 0 0 0 0 0 0 0 0 0 0 0 0 0 0 0 0 0 0 144 139 140 141 138 132 130 139 127 122 119 119 125 121 124 125 121 129 124 123 113 129 126 127 125 123 120 118 118 129 134 119 129 122 114 128 135 132 132 134 112 128 125 128 118 111 121 142
112 108 117 115 115 115 117 113 119 116 116 114 114 116 118 123 121 128 122 114 120 116 118 120 136 135 135 138 0 135 0 0 0 139 139 139 0 0 0 0 0 0 0 0 0 0 0 0 0 0 0 0 0 0 0 0 0 0 0 0 0 0 0 0 0 0 0 0 0 0 0 0 0 144 136 137 125 124 120 127 120 117 120 124 115 121 117 120 116 114 115 125 115 116 111 121 120 118 123 123 118 122 131 125 120 113 116 120 109 124 119 114 132 122 129 117 115 133 150 148
102 98 109 111 104 100 105 106 99 102 111 108 105 107 104 114 110 114 115 109 113 114 113 116 121 119 126 122 118 126 0 0 0 0 126 0 0 0 0 0 0 0 0 0 0 0 0 0 0 0 0 0 0 0 0 0 0 0 0 0 0 0 0 0 0 0 0 0 0 0 0 0 129 0 0 126 119 116 119 117 115 112 108 116 113 117 110 113 110 116 115 114 105 112 109 104 109 118 115 109 111 113 108 112 114 118 109 109 110 102 111 112 98 115 112 95 106 131 111 127
98 104 93 97 103 102 100 98 100 104 103 102 105 109 109 105 106 107 116 105 109 109 110 109 115 111 115 123 120 121 0 124 0 0 0 0 0 0 0 0 0 0 0 0 0 0 0 0 0 0 0 0 0 0 0 0 0 0 0 0 0 0 0 0 0 0 0 0 0 0 0 0 0 122 0 116 122 118 114 112 112 112 111 103 112 106 110 116 106 110 112 111 110 113 106 117 105 107 104 115 111 104 110 103 104 111 112 109 114 119 104 105 116 101 103 121 115 107 112 139
97 104 99 102 101 99 102 92 95 95 96 96 105 93 101 91 103 103 113 115 109 107 94 111 109 107 114 114 111 121 117 118 120 0 0 0 0 0 0 0 0 0 0 0 0 0 0 0 0 0 0 0 0 0 0 0 0 0 0 0 0 0 0 0 0 0 0 0 0 0 0 0 121 118 107 123 112 117 117 117 104 109 103 122 103 108 104 102 99 102 104 109 109 94 100 103 105 100 111 103 102 110 108 108 112 105 104 89 105 109 97 103 102 97 103 90 137 126 109 118
87 81 86 83 81 83 83 97 91 83 87 94 100 95 93 89 76 94 91 87 89 86 101 106 98 102 114 108 0 0 105 107 116 0 111 0 0 0 116 0 0 0 0 0 0 0 0 0 0 0 0 0 0 0 0 0 0 0 0 0 0 0 0 0 0 0 0 0 0 0 0 0 111 109 105 113 107 106 104 98 101 102 99 91 99 95 88 97 103 101 88 98 105 84 86 96 94 102 86 96 90 100 92 92 87 90 95 87 91 86 90 85 84 95 96 94 100 79 108 132
93 87 90 91 97 94 95 104 90 96 95 92 93 92 96 95 99 91 101 96 94 103 108 105 103 102 113 107 105 103 108 109 117 112 122 109 111 0 114 0 0 118 0 0 0 0 0 0 0 0 0 0 0 0 0 0 0 0 0 0 118 0 0 0 114 0 0 0 109 0 108 108 112 113 113 108 108 114 102 97 110 108 107 91 97 99 100 103 101 101 105 105 109 101 100 104 99 94 99 110 100 100 92 100 95 105 99 88 89 92 94 98 87 97 109 103 107 128 127 141
84 93 93 92 96 96 91 92 84 96 84 88 86 90 89 84 94 97 97 93 96 93 93 109 88 103 106 97 100 107 94 102 105 104 98 105 0 116 115 0 107 0 0 0 0 0 0 0 0 0 0 0 0 0 109 0 0 109 0 0 0 104 104 111 115 113 102 100 111 102 110 102 104 101 112 107 99 89 101 96 97 93 98 83 93 90 92 107 102 92 98 109 108 88 85 84 91 95 89 86 90 85 87 95 90 86 92 93 94 92 90 90 91 84 90 88 103 95 110 98
85 85 82 88 92 92 103 87 90 82 88 87 84 92 88 90 91 87 92 87 79 88 97 87 87 96 93 91 103 89 96 99 95 97 92 110 100 101 104 102 104 100 97 112 105 91 0 0 96 99 0 107 105 94 101 108 107 104 105 105 101 107 109 102 103 108 97 98 99 109 97 106 107 101 101 92 91 98 96 91 96 89 92 96 94 92 96 90 95 94 98 95 94 94 94 93 85 94 89 83 88 89 90 93 88 92 98 87 82 98 87 97 94 99 80 97 100 95 122 110
84 81 85 83 81 84 100 101 88 89 82 81 82 86 84 89 90 94 91 98 86 98 96 93 90 98 94 91 95 100 98 83 97 96 95 99 96 100 93 106 105 96 99 105 101 95 106 0 105 101 96 105 100 97 103 104 106 104 96 108 104 94 96 104 102 99 97 104 96 106 95 103 100 95 101 86 93 96 98 86 96 92 95 92 97 97 89 85 92 93 86 98 89 92 92 82 90 90 101 94 83 95 82 92 90 102 94 94 90 86 95 93 107 89 86 117 143 95 86 86
79 73 70 67 78 83 84 84 86 79 84 79 86 80 89 82 87 87 86 84 92 83 93 88 87 83 92 94 87 95 90 92 94 90 94 96 96 89 90 97 92 89 97 90 95 92 88 101 91 87 95 98 94 93 91 85 100 90 95 96 93 81 83 95 81 81 96 94 97 98 91 87 93 92 85 96 90 96 96 94 86 93 82 84 82 88 87 86 82 86 94 78 86 80 83 88 81 78 80 90 78 86 78 72 80 79 82 84 76 76 70 84 84 78 91 112 117 78 78 56
76 75 83 85 73 86 81 86 86 83 84 89 80 84 83 89 86 89 83 88 84 93 85 87 87 85 92 85 93 90 87 95 90 96 86 93 96 94 88 94 94 82 97 90 91 97 89 87 97 90 93 85 97 84 101 93 92 96 92 97 97 96 92 92 90 97 88 98 106 96 85 96 87 84 93 84 93 94 83 95 93 87 88 87 81 86 90 80 92 91 76 88 79 82 90 83 92 88 79 84 82 83 80 81 81 85 83 91 70 91 90 85 80 99 107 110 99 88 98 158
