0 0 0 0 0 0 0 0 0 0 0 0 0 0 0 0 0 0 0 0 0 0 0 0 0 0 0 0 0 0 0 0 0 0 0 0 0 0 0 0 0 0 0 0 0 0 0 0 0 0 0 0 0 0 0 0 0 0 0 0 0 0 0 0 0 0 0 0 0 0 0 0 0 0 0 0 0 0 0 0 0 0 0 0 0 0 0 0 0 0 0 0 0 0 0 0 0 0 0 0 0 0 0 0 0 0 0 0 0 0 0 0 0 0 0 0 0 0 0 0
0 0 0 0 0 0 0 0 0 0 0 0 0 0 0 0 0 0 0 0 0 0 0 0 0 0 0 0 0 0 0 0 0 0 0 0 0 0 0 0 0 0 0 0 0 0 0 0 0 0 0 0 0 0 0 0 0 0 0 0 0 0 0 0 0 0 0 0 0 0 0 0 0 0 0 0 0 0 0 0 0 0 0 0 0 0 0 0 0 0 0 0 0 0 0 0 0 0 0 0 0 0 0 0 0 0 0 0 0 0 0 0 0 0 0 0 0 0 0 0
0 0 0 0 0 0 0 0 0 0 0 0 0 0 0 0 0 0 0 0 0 0 0 0 0 0 0 0 0 0 0 0 0 0 0 0 0 0 0 0 0 0 0 0 0 0 0 0 0 0 0 0 0 0 0 0 0 0 0 0 0 0 0 0 0 0 0 0 0 0 0 0 0 0 0 0 0 0 0 0 0 0 0 0 0 0 0 0 0 0 0 0 0 0 0 0 0 0 0 0 0 0 0 0 0 0 0 0 0 0 0 0 0 0 0 0 0 0 0 0
0 0 0 0 0 0 0 0 0 0 0 0 0 0 0 0 0 0 0 0 0 0 0 0 0 0 0 0 0 0 0 0 0 0 0 0 0 0 0 0 0 0 0 0 0 0 0 0 0 0 0 0 0 0 0 0 0 0 0 0 0 0 0 0 0 0 0 0 0 0 0 0 0 0 0 0 0 0 0 0 0 0 0 0 0 0 0 0 0 0 0 0 0 0 0 0 0 0 0 0 0 0 0 0 0 0 0 0 0 0 0 0 0 0 0 0 0 0 0 0
0 0 0 0 0 0 0 0 0 0 0 0 0 0 0 0 0 0 0 0 0 0 0 0 0 0 0 0 0 0 0 0 0 0 0 0 0 0 0 0 0 0 0 0 0 0 0 0 0 0 0 0 0 0 0 0 0 0 0 0 0 0 0 0 0 0 0 0 0 0 0 0 0 0 0 0 0 0 0 0 0 0 0 0 0 0 0 0 0 0 0 0 0 0 0 0 0 0 0 0 0 0 0 0 0 0 0 0 0 0 0 0 0 0 0 0 0 0 0 0
0 0 0 0 0 0 0 0 0 0 0 0 0 0 0 0 0 0 0 0 0 0 0 0 0 0 0 0 0 0 0 0 0 0 0 0 0 0 0 571 533 508 493 508 525 495 511 532 521 533 516 507 540 515 520 0 0 0 0 0 0 0 0 0 0 0 0 0 0 0 0 0 0 0 0 0 0 0 0 0 0 0 0 0 0 0 0 0 0 0 0 0 0 0 0 0 0 0 0 0 0 0 0 0 0 0 0 0 0 0 0 0 0 0 0 0 0 0 0 0
0 0 0 0 0 0 0 0 0 0 0 0 0 0 0 0 0 0 0 0 0 0 0 0 0 0 0 0 0 0 0 0 0 0 0 0 0 529 538 506 509 505 494 509 506 506 517 516 506 525 508 517 524 512 510 518 510 527 520 537 0 0 0 0 0 0 0 0 0 0 0 0 0 0 0 0 0 0 0 0 0 0 0 0 0 0 0 0 0 0 0 0 0 0 0 0 0 0 0 0 0 0 0 0 0 0 0 0 0 0 0 0 0 0 0 0 0 0 0 0
0 0 0 0 0 0 0 0 0 0 0 0 0 0 0 0 0 0 0 0 0 0 0 0 0 0 0 0 0 0 0 0 0 0 0 509 491 511 493 507 497 497 494 504 496 503 504 506 496 491 501 499 516 507 518 519 506 500 500 499 494 505 503 487 485 0 0 0 0 0 0 0 0 0 0 0 0 0 0 0 0 0 0 0 0 0 0 0 0 0 0 0 0 0 0 0 0 0 0 0 0 0 0 0 0 0 0 0 0 0 0 0 0 0 0 0 0 0 0 0
0 0 0 0 0 0 0 0 0 0 0 0 0 0 0 0 0 0 0 0 0 0 0 0 0 0 0 0 0 0 0 0 0 525 517 513 506 518 502 513 509 519 509 510 508 494 507 513 514 522 512 502 511 489 514 521 518 510 507 514 510 496 518 509 512 517 527 560 593 625 580 641 586 620 587 598 563 625 587 616 0 0 0 0 0 0 0 0 0 0 0 0 0 0 0 0 0 0 0 0 0 0 0 0 0 0 0 0 0 0 0 0 0 0 0 0 0 0 0 0
0 0 0 0 0 0 0 0 0 0 0 0 0 0 0 0 0 0 0 0 0 0 0 0 0 0 0 0 0 0 0 499 499 496 492 497 500 503 497 489 507 506 493 519 497 511 503 499 501 504 507 503 510 499 497 511 499 499 500 511 517 500 515 505 496 509 511 521 535 557 544 576 542 606 569 582 548 556 601 586 572 571 604 564 0 577 0 553 569 563 584 575 591 543 537 561 595 567 585 523 0 557 554 565 0 0 0 0 0 0 0 0 0 0 0 0 0 0 0 0
0 0 0 0 0 0 0 0 0 0 0 0 0 0 0 0 0 0 0 0 0 0 0 0 0 0 0 0 0 0 501 505 490 501 492 502 499 504 497 506 512 500 502 495 495 509 501 501 498 509 498 504 506 515 506 514 505 507 498 502 508 494 506 508 497 511 515 508 503 515 559 549 538 526 541 532 558 496 564 555 545 544 532 555 578 509 470 502 557 549 557 528 561 537 558 557 519 537 559 528 536 529 543 558 549 570 529 0 0 0 0 0 0 0 0 0 0 0 0 0
0 0 0 0 0 0 0 0 0 0 0 0 0 0 0 0 0 0 0 0 0 0 0 0 0 0 0 0 494 499 517 510 506 496 503 490 501 508 509 510 513 500 500 504 505 513 506 511 498 517 506 506 502 506 496 512 506 509 500 517 504 511 507 509 510 516 503 513 508 516 533 551 567 587 591 627 575 559 611 579 571 557 616 572 583 560 588 535 573 589 586 580 605 561 618 569 570 555 569 561 611 645 593 586 595 608 634 566 573 0 0 0 0 0 0 0 0 0 0 0
0 0 0 0 0 0 0 0 0 0 0 0 0 0 0 0 0 0 0 0 0 0 0 0 0 0 0 486 494 505 495 494 492 498 497 500 501 494 500 489 502 498 492 491 494 503 497 501 509 513 494 503 513 494 515 510 498 511 508 515 509 503 510 513 517 503 516 503 505 513 512 514 528 538 532 528 556 542 520 516 512 526 548 560 496 571 535 511 546 559 550 518 541 548 555 575 545 503 531 505 535 556 556 549 533 504 519 0 0 0 0 0 0 0 0 0 0 0 0 0
0 0 0 0 0 0 0 0 0 0 0 0 0 0 0 0 0 0 0 0 0 0 0 0 0 0 506 491 495 502 499 499 495 494 499 504 501 500 498 503 501 506 499 503 497 507 501 508 506 499 511 510 505 503 502 503 506 508 506 515 510 509 504 513 512 511 507 505 508 510 514 508 515 550 562 528 556 576 564 541 558 543 560 548 577 528 565 550 558 528 536 509 535 535 553 555 549 574 561 556 570 549 534 515 549 552 519 539 550 484 0 0 0 0 0 0 0 0 0 0
0 0 0 0 0 0 0 0 0 0 0 0 0 0 0 0 0 0 0 0 0 0 0 0 0 509 496 501 500 484 505 498 495 489 494 488 500 502 509 501 502 507 502 504 500 511 505 510 496 506 509 511 505 508 510 507 498 510 512 506 509 518 512 514 509 506 503 508 508 520 515 515 524 558 583 588 533 556 565 572 578 526 558 577 558 576 571 554 581 571 567 563 542 605 566 544 584 568 561 587 552 560 562 546 537 565 541 535 544 561 571 0 0 0 0 0 0 0 0 0
0 0 0 0 0 0 0 0 0 0 0 0 0 0 0 0 0 0 0 0 0 0 0 0 0 485 493 494 485 491 499 490 503 500 486 498 496 503 496 500 496 500 507 498 500 499 507 502 494 495 501 507 506 505 502 497 509 496 508 514 514 506 515 503 502 509 512 510 504 497 511 510 508 507 536 534 531 524 534 531 522 523 541 505 523 525 543 506 535 544 544 556 530 522 582 506 550 550 491 528 504 491 547 539 518 533 519 513 504 0 0 0 472 499 0 0 0 0 0 0
0 0 0 0 0 0 0 0 0 0 0 0 0 0 0 0 0 0 0 0 0 0 0 0 493 496 503 491 505 487 501 490 492 495 501 500 495 502 501 505 503 501 497 512 501 506 511 511 493 509 507 509 505 502 508 511 505 506 502 506 505 504 506 509 507 509 510 511 502 507 504 517 510 507 527 536 549 554 566 526 570 558 569 559 536 570 558 579 606 542 547 557 585 566 532 564 537 553 583 581 516 601 551 594 552 601 557 555 591 620 485 0 0 0 0 0 0 0 0 0
0 0 0 0 0 0 0 0 0 0 0 0 0 0 0 0 0 0 0 0 0 0 0 0 490 479 496 493 498 493 496 494 488 494 490 496 500 501 497 501 494 495 507 504 486 497 498 508 500 501 509 501 507 502 501 501 502 505 501 507 507 505 511 505 502 514 513 503 504 506 499 514 496 515 512 519 537 513 531 510 524 538 517 515 557 500 510 552 526 542 551 523 533 523 528 554 567 559 552 513 571 538 520 543 560 510 527 469 525 507 0 0 0 0 0 0 0 0 0 0
0 0 0 0 0 0 0 0 0 0 0 0 0 0 0 0 0 0 0 0 0 0 0 464 486 499 496 498 489 487 494 496 492 494 500 483 496 491 502 502 500 493 503 498 502 503 502 496 492 510 503 507 504 506 504 505 500 498 501 499 504 497 508 500 505 499 508 506 505 501 509 501 495 501 504 509 506 513 523 544 518 519 505 513 555 550 521 529 513 554 518 533 565 546 536 503 533 498 563 527 523 541 532 515 460 534 530 538 502 502 515 0 0 0 0 0 0 0 0 0
0 0 0 0 0 0 0 0 0 0 0 0 0 0 0 0 0 0 0 0 0 0 0 501 488 500 486 494 499 496 506 496 497 502 487 493 482 496 494 497 491 499 499 500 505 496 505 506 502 506 505 513 506 507 501 506 504 521 504 499 514 499 505 498 503 497 514 506 506 512 508 507 503 514 513 514 546 546 557 545 520 510 533 540 566 563 543 555 558 546 543 565 547 514 557 534 536 533 537 562 536 567 552 558 546 560 570 549 544 577 538 0 0 0 0 0 0 0 0 0
0 0 0 0 0 0 0 0 0 0 0 0 0 0 0 0 0 0 0 0 0 0 468 488 490 484 478 498 489 491 492 498 491 493 490 495 494 495 492 486 501 493 493 500 488 493 501 495 502 498 497 491 495 498 506 500 503 498 505 498 503 504 509 503 506 506 498 505 502 504 505 507 508 500 504 501 506 520 505 499 516 542 510 516 508 502 473 519 482 504 531 550 530 523 532 513 501 537 519 516 539 530 500 485 534 545 538 470 479 502 533 0 515 0 0 0 0 0 0 0
0 0 0 0 0 0 0 0 0 0 0 0 0 0 0 0 0 0 0 0 0 0 486 490 490 485 499 484 498 506 495 490 488 488 493 491 490 493 482 491 506 496 494 494 499 498 500 498 506 496 503 497 501 504 499 505 502 507 505 505 507 498 503 504 504 506 508 511 514 500 506 504 514 505 510 506 520 525 529 554 500 505 516 531 511 536 492 506 524 515 536 500 528 499 513 520 502 504 496 542 541 521 522 508 536 514 498 510 520 518 532 479 0 0 0 0 0 0 0 0
0 0 0 0 0 0 0 0 0 0 0 0 0 0 0 0 0 0 0 0 0 0 501 481 490 480 490 488 497 488 490 486 495 492 485 487 488 501 495 491 495 501 495 495 500 500 501 501 499 503 500 494 502 494 498 498 505 504 507 500 505 506 502 502 504 505 510 502 506 502 508 507 517 498 510 504 513 528 503 537 528 529 546 515 557 564 526 542 536 535 534 539 528 518 565 554 540 545 527 542 560 548 507 540 561 509 542 520 534 538 558 543 551 0 0 0 0 0 0 0
0 0 0 0 0 0 0 0 0 0 0 0 0 0 0 0 0 0 0 0 0 0 480 488 482 487 491 494 482 489 490 485 493 490 485 484 486 490 493 490 500 493 494 493 493 494 492 493 498 501 496 500 501 495 501 501 501 501 496 498 501 503 500 503 496 495 504 500 499 504 508 500 510 500 503 504 508 502 525 482 512 520 505 522 508 519 518 511 533 512 516 498 514 529 497 497 512 525 538 529 513 512 499 519 494 491 527 527 468 482 445 508 497 0 0 0 0 0 0 0
0 0 0 0 0 0 0 0 0 0 0 0 0 0 0 0 0 0 0 0 0 0 502 489 487 493 505 496 499 499 488 493 501 488 493 490 487 497 492 493 495 490 500 505 497 500 495 496 500 496 499 497 506 505 506 508 504 499 503 501 505 505 502 514 512 508 500 501 511 507 509 507 503 508 505 499 505 526 542 551 542 542 535 544 543 532 485 518 527 544 531 544 529 534 517 544 539 535 553 554 521 525 537 528 531 580 562 560 531 549 549 505 557 0 0 0 0 0 0 0
0 0 0 0 0 0 0 0 0 0 0 0 0 0 0 0 0 0 0 0 0 0 482 478 493 486 496 489 487 487 485 485 485 488 497 488 493 495 500 497 489 502 496 499 499 494 498 497 497 497 497 498 495 501 499 502 505 499 498 501 505 501 501 498 500 499 504 507 504 502 493 506 501 504 507 507 509 511 512 530 554 512 516 524 547 517 529 517 530 539 528 514 520 527 498 526 516 476 507 518 532 530 525 533 563 505 499 529 0 574 506 527 480 0 0 0 0 0 0 0
0 0 0 0 0 0 0 0 0 0 0 0 0 0 0 0 0 0 0 0 0 426 481 489 486 480 483 489 495 488 488 482 484 493 493 480 498 488 496 487 490 500 493 493 493 496 496 497 496 495 498 499 491 501 498 502 500 504 506 497 506 510 503 508 502 501 499 501 498 503 497 503 503 508 506 505 503 500 503 491 514 494 494 495 521 511 488 519 507 520 516 521 494 456 489 484 489 502 487 530 471 505 485 511 508 505 464 504 504 495 485 0 0 0 0 0 0 0 0 0
0 0 0 0 0 0 0 0 0 0 0 0 0 0 0 0 0 0 0 0 0 456 484 485 483 486 492 480 489 482 482 483 497 488 490 493 490 498 489 487 501 494 494 498 500 493 495 496 497 499 499 502 497 506 505 502 505 504 498 506 500 503 499 501 501 503 497 502 502 507 501 507 509 501 507 507 505 506 520 521 510 509 529 503 547 528 520 532 503 510 521 514 527 525 548 529 542 520 521 504 505 502 553 520 496 476 539 537 535 549 513 537 520 0 0 0 0 0 0 0
0 0 0 0 0 0 0 0 0 0 0 0 0 0 0 0 0 0 0 0 0 429 476 480 485 477 485 482 481 478 481 485 487 492 479 487 484 489 489 490 491 491 491 495 490 490 494 492 493 500 492 493 496 499 497 495 499 499 497 499 505 498 503 500 501 506 508 502 508 502 493 502 495 503 510 499 503 505 497 503 489 500 496 497 500 507 491 504 506 507 494 517 498 503 498 478 483 485 497 518 494 515 472 488 486 512 485 479 470 490 490 463 509 0 0 0 0 0 0 0
0 0 0 0 0 0 0 0 0 0 0 0 0 0 0 0 0 0 0 0 0 465 477 480 491 483 480 485 487 484 495 483 482 495 486 490 492 486 484 488 499 491 494 492 492 492 495 494 495 497 494 496 499 501 501 503 502 497 502 500 503 501 498 503 502 502 503 509 498 502 506 504 504 504 504 508 504 502 524 502 535 512 519 517 506 523 503 497 525 533 507 510 523 518 519 517 475 505 503 515 485 518 512 548 495 534 521 494 503 483 497 516 500 514 0 0 0 0 0 0
0 0 0 0 0 0 0 0 0 0 0 0 0 0 0 0 0 0 0 0 0 474 490 476 492 482 480 479 482 485 488 487 488 486 491 484 484 492 495 490 493 497 490 493 500 490 491 493 496 493 497 502 496 498 498 495 493 499 496 491 509 506 498 497 501 503 503 508 511 502 504 505 504 501 502 504 498 519 519 508 504 512 518 531 539 508 522 519 499 530 536 520 517 507 511 495 535 547 504 496 547 514 507 524 520 491 523 519 518 531 484 518 513 0 0 0 0 0 0 0
0 0 0 0 0 0 0 0 0 0 0 0 0 0 0 0 0 0 0 0 0 467 484 477 489 479 481 480 481 481 484 480 483 483 493 489 487 492 491 493 491 493 494 496 489 497 491 488 495 498 491 494 496 500 497 496 495 497 504 498 495 495 497 503 499 502 503 498 508 503 504 500 501 506 506 498 498 495 513 491 530 499 502 501 501 516 530 518 527 518 481 509 507 526 511 511 486 509 513 521 531 519 486 528 519 501 524 498 538 519 525 501 540 0 0 0 0 0 0 0
0 0 0 0 0 0 0 0 0 0 0 0 0 0 0 0 0 0 0 0 0 443 484 476 479 482 481 486 477 482 490 485 483 487 488 488 488 489 487 492 492 488 490 494 494 490 490 495 497 501 499 496 495 498 494 499 496 497 500 496 499 498 503 495 498 503 502 495 498 502 503 496 507 500 506 513 500 505 513 506 525 504 491 516 524 502 527 527 534 525 512 510 517 523 491 527 523 528 507 534 533 562 533 564 521 507 488 515 532 515 517 559 520 502 0 0 0 0 0 0
0 0 0 0 0 0 0 0 0 0 0 0 0 0 0 0 0 0 0 0 0 460 474 474 476 477 477 474 476 481 478 483 483 482 484 486 482 485 488 490 489 485 486 496 490 490 491 489 489 491 490 493 492 498 492 496 499 498 495 498 495 497 499 501 498 502 500 497 499 502 495 496 494 499 498 499 501 501 497 496 494 493 494 500 507 496 496 519 507 497 504 476 490 501 500 509 488 514 509 527 490 501 491 529 502 511 515 503 512 457 493 473 475 0 0 0 0 0 0 0
0 0 0 0 0 0 0 0 0 0 0 0 0 0 0 0 0 0 0 0 0 454 468 474 475 475 472 475 483 480 479 484 474 483 485 485 481 488 487 494 487 485 489 492 492 496 491 490 491 487 494 491 491 495 495 493 499 495 493 494 496 501 498 496 500 501 501 498 499 499 500 496 501 504 497 497 506 494 500 494 476 484 489 494 517 484 492 494 489 488 484 478 476 490 507 499 502 475 475 498 501 492 497 469 505 473 489 522 503 520 449 506 492 469 0 0 0 0 0 0
0 0 0 0 0 0 0 0 0 0 0 0 0 0 0 0 0 0 0 0 0 468 465 473 473 485 472 475 476 479 478 482 481 480 481 482 486 486 486 484 489 488 490 493 489 489 495 488 490 496 493 494 499 496 503 495 491 500 498 495 497 498 496 498 499 501 502 501 497 497 495 501 501 503 496 498 500 499 515 515 506 509 511 496 506 509 503 500 517 511 478 500 507 512 530 519 530 501 544 505 517 487 526 503 485 528 521 509 512 514 505 504 503 507 0 0 0 0 0 0
0 0 0 0 0 0 0 0 0 0 0 0 0 0 0 0 0 0 0 0 0 485 468 473 479 473 479 478 474 477 476 484 482 486 485 489 481 482 482 483 482 485 487 488 489 492 486 492 485 490 493 495 489 491 492 493 492 492 487 497 496 503 500 498 495 497 495 495 497 498 495 497 500 492 497 493 493 491 486 488 492 489 490 484 479 485 491 490 480 478 483 481 484 468 495 496 489 478 495 505 485 490 497 447 478 522 469 475 433 441 470 474 485 485 0 0 0 0 0 0
0 0 0 0 0 0 0 0 0 0 0 0 0 0 0 0 0 0 0 0 0 0 474 477 474 480 478 472 480 481 481 479 484 480 484 479 482 489 483 487 483 484 486 493 485 490 490 490 496 494 496 494 489 494 503 495 492 495 498 497 500 499 497 501 501 504 495 499 503 496 495 501 502 503 502 493 491 503 503 501 506 502 495 508 499 491 503 524 516 509 518 506 524 521 497 489 523 506 520 488 526 506 518 525 573 502 518 485 488 543 494 491 517 524 0 0 0 0 0 0
0 0 0 0 0 0 0 0 0 0 0 0 0 0 0 0 0 0 0 0 0 0 501 470 475 472 478 478 475 483 480 477 479 483 481 482 483 485 491 485 487 484 486 490 488 494 490 492 492 488 491 497 496 492 493 494 493 497 496 495 499 495 493 499 497 500 502 503 496 495 497 496 500 498 496 496 504 496 514 523 501 522 520 501 541 519 531 521 498 507 528 517 529 546 521 518 513 476 521 515 526 503 522 511 522 508 531 512 529 512 494 500 469 0 0 0 0 0 0 0
0 0 0 0 0 0 0 0 0 0 0 0 0 0 0 0 0 0 0 0 0 0 511 476 471 478 477 485 475 474 478 476 483 483 483 488 484 487 480 487 485 481 489 483 491 489 488 492 493 495 490 495 491 501 493 498 496 495 490 501 497 499 496 496 497 493 499 496 496 498 496 496 494 499 491 487 497 499 496 502 501 503 494 504 504 497 495 487 497 501 528 507 505 506 509 496 495 510 509 494 498 481 491 459 514 490 474 509 507 489 454 478 484 483 468 492 0 0 0 0
0 0 0 0 0 0 0 0 0 0 0 0 0 0 0 0 0 0 0 0 0 0 612 479 476 475 484 475 477 482 478 484 478 479 483 488 489 484 490 485 483 489 491 489 488 489 492 493 495 488 494 490 492 494 499 496 492 498 494 498 497 497 500 498 495 495 497 502 500 497 497 496 494 497 497 497 504 503 502 506 520 514 529 523 507 527 522 536 523 523 509 501 554 526 532 536 530 552 522 524 523 530 511 520 522 505 504 503 513 534 535 495 501 517 532 504 0 0 0 0
0 0 0 0 0 0 0 0 0 0 0 0 0 0 0 0 0 0 0 0 0 0 0 489 473 474 478 470 478 475 475 479 478 484 473 479 484 482 484 483 484 486 485 487 491 485 485 487 489 495 496 493 497 491 494 490 497 493 492 495 496 496 496 494 493 492 494 503 498 492 493 497 500 500 493 496 494 497 499 505 497 494 482 503 503 501 510 520 487 511 481 514 491 494 485 504 502 542 495 546 473 517 514 468 485 499 493 475 489 479 520 519 478 0 0 0 0 0 0 0
0 0 0 0 0 0 0 0 0 0 0 0 0 0 0 0 0 0 0 0 0 0 0 481 472 471 477 469 479 478 478 475 479 473 478 479 484 482 484 481 485 486 490 492 485 487 491 490 488 497 494 493 488 493 495 495 496 491 494 494 493 497 491 491 494 494 494 496 497 493 496 497 494 493 493 493 491 493 496 491 502 477 488 489 482 496 493 496 492 489 478 494 481 502 493 513 503 510 479 480 504 481 486 491 476 492 468 477 484 471 453 489 431 0 0 0 0 0 0 0
0 0 0 0 0 0 0 0 0 0 0 0 0 0 0 0 0 0 0 0 0 0 0 499 464 469 470 472 469 472 476 480 485 483 478 484 480 482 477 484 485 481 488 487 484 492 490 483 490 488 492 490 488 489 495 489 493 498 489 495 496 494 489 498 499 492 494 494 500 492 497 494 496 498 497 493 494 498 501 514 488 504 500 517 496 522 513 496 534 529 488 516 517 508 519 498 520 511 508 508 499 521 535 492 499 485 462 485 487 511 491 511 536 503 500 0 0 0 0 0
0 0 0 0 0 0 0 0 0 0 0 0 0 0 0 0 0 0 0 0 0 0 0 0 476 469 464 470 473 474 474 478 477 475 474 480 474 478 476 481 478 485 487 485 485 484 482 486 490 489 491 491 492 490 486 487 490 498 489 493 495 494 492 492 498 491 495 492 496 497 499 495 494 491 495 492 486 494 505 489 487 483 487 487 490 484 507 496 486 476 486 491 497 494 508 506 502 497 502 498 475 489 466 468 457 451 453 474 470 456 457 493 454 435 401 455 0 0 0 0
0 0 0 0 0 0 0 0 0 0 0 0 0 0 0 0 0 0 0 0 0 0 0 0 511 473 472 473 469 471 481 469 473 479 476 479 478 482 480 486 486 483 482 484 483 484 485 486 487 487 487 490 491 488 492 491 494 494 491 493 492 492 495 498 490 496 492 496 494 489 495 496 493 496 494 495 496 506 498 510 510 480 493 494 487 506 510 511 528 509 511 512 494 516 517 514 505 502 533 479 490 504 522 480 500 497 491 497 480 473 502 482 511 452 467 488 0 0 0 0
0 0 0 0 0 0 0 0 0 0 0 0 0 0 0 0 0 0 0 0 0 0 0 0 0 483 469 472 470 467 472 465 479 478 475 474 481 477 481 479 483 482 484 482 489 486 487 485 486 486 492 485 488 489 483 490 490 482 486 491 494 495 494 491 491 491 487 495 492 495 493 492 495 494 493 486 487 488 495 493 506 489 491 508 497 478 501 494 496 497 504 490 515 535 516 517 516 500 488 516 502 516 515 508 489 501 517 500 509 499 466 510 482 526 0 0 0 0 0 0
0 0 0 0 0 0 0 0 0 0 0 0 0 0 0 0 0 0 0 0 0 0 0 0 0 479 470 468 470 472 472 469 476 474 478 474 476 476 478 479 483 479 478 483 484 482 481 484 489 486 484 478 486 486 490 486 489 489 489 495 488 492 494 489 494 489 491 489 493 488 494 489 492 492 492 484 481 470 480 484 483 489 487 480 494 494 486 487 487 486 499 483 473 491 507 488 506 506 492 509 520 494 470 495 493 458 475 471 480 466 462 543 437 509 0 0 0 0 0 0
0 0 0 0 0 0 0 0 0 0 0 0 0 0 0 0 0 0 0 0 0 0 0 0 0 0 486 472 468 470 469 474 471 479 472 479 480 479 477 475 476 476 477 481 487 483 481 483 485 486 487 485 487 485 482 488 486 489 489 495 493 491 496 490 495 493 490 488 494 490 495 492 488 494 487 498 490 485 499 519 495 504 489 485 485 501 505 484 500 496 517 521 486 493 499 507 507 505 514 496 484 517 469 507 493 490 478 467 442 498 506 529 538 460 0 0 0 0 0 0
0 0 0 0 0 0 0 0 0 0 0 0 0 0 0 0 0 0 0 0 0 0 0 0 0 0 0 469 471 463 466 471 467 473 471 475 477 477 475 475 477 480 472 481 479 480 482 481 487 481 482 484 479 479 486 482 484 488 481 487 489 486 492 487 490 493 487 489 492 490 495 487 486 486 482 485 476 471 476 479 496 483 482 482 484 477 501 482 483 487 487 492 484 475 471 512 492 494 482 488 514 483 498 473 507 472 490 487 495 434 437 456 447 470 485 0 0 0 0 0
0 0 0 0 0 0 0 0 0 0 0 0 0 0 0 0 0 0 0 0 0 0 0 0 0 0 0 475 471 465 469 466 470 471 470 474 477 473 476 478 469 476 482 478 481 476 481 481 478 486 483 482 485 485 479 481 483 484 485 487 491 482 486 487 489 485 485 491 490 488 486 484 482 482 467 478 481 493 480 478 502 485 490 503 487 470 485 485 495 469 483 486 494 465 463 497 488 488 486 489 476 474 502 452 465 468 451 462 464 437 472 498 441 485 425 0 0 0 0 0
0 0 0 0 0 0 0 0 0 0 0 0 0 0 0 0 0 0 0 0 0 0 0 0 0 0 0 0 532 471 470 468 465 470 473 473 475 475 478 474 476 480 480 476 478 482 476 479 477 488 485 479 487 481 481 486 483 484 485 490 489 486 486 482 485 483 490 486 489 484 488 486 478 487 478 489 480 489 490 500 477 484 479 490 510 494 508 504 496 482 481 493 500 497 489 505 491 482 502 510 485 495 501 492 463 489 495 470 499 455 439 492 494 524 439 0 0 0 0 0
0 0 0 0 0 245 227 246 297 0 0 0 0 0 0 0 0 0 0 0 0 0 0 0 0 0 0 0 0 497 455 466 471 466 464 470 469 466 470 471 474 474 474 473 476 479 476 475 482 480 478 480 480 486 480 482 482 481 488 488 482 485 486 484 482 486 486 484 479 486 477 482 478 477 486 478 483 479 476 475 484 484 486 489 471 483 487 474 473 473 484 492 479 468 453 468 475 504 464 470 467 499 493 460 458 470 442 463 471 448 446 465 439 445 479 0 0 0 0 0
0 0 0 0 244 231 231 235 241 299 377 0 0 0 0 0 0 0 0 0 0 0 0 0 0 0 0 0 0 0 461 465 465 471 467 473 472 471 477 472 475 473 471 471 482 480 475 477 481 480 483 486 479 486 483 486 481 482 480 484 482 483 487 491 487 486 482 480 480 484 477 471 479 480 486 487 495 482 479 479 484 477 478 478 484 490 500 496 493 490 473 509 482 483 496 484 496 494 485 479 481 513 481 479 470 496 467 451 467 474 454 508 446 431 0 0 0 0 0 0
0 0 0 262 219 231 229 223 237 246 341 0 0 0 0 0 0 0 0 0 0 0 0 0 0 0 0 0 0 0 0 483 460 472 467 469 471 467 466 469 472 469 470 473 471 473 476 478 479 476 478 480 483 477 482 480 482 479 483 479 479 485 479 481 481 477 479 482 477 479 485 487 483 489 478 497 484 489 481 492 488 477 486 475 485 490 481 485 486 499 482 490 488 494 498 485 486 488 471 514 506 470 528 521 450 442 488 491 454 473 486 468 511 509 492 0 0 0 0 0
212 232 229 239 259 276 272 231 231 233 297 0 367 413 397 402 392 409 403 414 445 437 438 448 440 416 455 448 448 452 456 457 464 469 462 465 466 466 465 470 462 468 474 472 471 474 468 474 477 473 475 475 480 479 479 479 479 479 473 477 483 483 477 476 480 477 473 479 486 478 477 466 469 460 463 470 462 480 465 471 474 469 468 480 463 469 486 468 473 487 487 476 467 464 483 471 480 473 444 483 471 470 460 461 443 473 430 460 480 454 447 449 460 495 475 0 0 0 0 0
213 231 217 232 259 255 241 238 229 260 387 420 400 413 401 401 409 439 408 414 414 417 414 429 437 429 428 437 447 463 459 462 458 454 452 456 458 461 466 456 460 465 461 466 462 463 473 470 475 477 468 477 473 475 477 475 465 472 475 477 477 478 478 476 471 471 475 474 479 472 469 470 472 472 465 460 462 460 465 463 462 458 463 459 456 460 439 453 463 473 451 463 465 459 451 455 464 446 450 461 445 447 467 485 453 482 430 445 440 471 454 474 458 473 443 451 473 441 0 0
188 176 202 214 222 238 225 224 229 290 346 370 364 364 372 366 363 367 368 380 383 379 370 397 402 405 409 412 429 441 436 445 447 441 443 448 444 444 450 446 445 452 448 451 452 452 455 455 454 453 458 455 456 455 452 457 459 459 452 465 464 461 452 468 465 459 459 458 451 453 460 449 449 439 434 437 436 436 426 439 427 429 416 436 419 431 421 426 423 432 423 407 430 428 431 420 424 429 434 425 422 418 438 425 419 418 405 432 420 424 427 424 400 414 407 416 413 423 455 433
280 299 242 221 233 228 233 232 253 342 311 332 334 334 329 333 340 331 345 341 352 356 352 366 371 386 380 408 413 410 411 424 422 427 428 433 433 432 437 424 430 433 432 430 437 431 435 437 438 438 445 438 442 444 445 445 443 445 438 447 445 441 444 444 439 447 436 434 444 435 432 434 434 426 417 415 406 405 398 400 393 398 392 391 396 404 387 386 410 391 395 392 392 395 395 390 394 387 398 396 381 387 374 383 387 384 386 381 366 387 391 387 368 386 376 376 387 386 366 376
302 301 286 248 239 236 236 249 306 311 319 308 309 312 315 309 301 320 312 331 315 324 343 351 355 365 389 389 393 395 401 399 402 414 408 411 416 414 410 414 422 418 412 415 420 414 421 424 413 417 412 413 421 415 421 422 419 427 422 428 420 429 418 422 415 415 422 418 420 421 417 417 405 400 395 397 384 375 373 367 356 365 350 366 353 364 365 362 364 370 367 365 369 371 380 368 354 361 364 365 377 363 353 377 368 382 356 383 367 370 380 363 356 361 375 388 377 353 355 379
261 265 274 280 258 240 253 281 273 291 270 268 276 287 283 287 289 287 291 276 296 303 321 318 329 353 351 368 364 373 386 386 389 384 379 382 388 400 398 395 390 394 397 389 389 394 393 396 399 387 388 399 394 403 399 397 395 401 397 395 400 397 397 394 392 391 397 398 393 389 391 386 391 384 369 359 354 337 334 324 341 329 336 334 332 325 329 334 333 335 323 328 333 336 333 332 326 318 327 341 324 326 336 342 336 332 339 347 344 325 317 324 329 330 321 326 311 325 311 319
256 252 252 259 254 254 255 268 265 248 262 260 255 263 256 268 270 264 272 270 275 283 303 294 312 312 339 336 357 364 360 370 367 364 362 367 369 375 369 370 365 366 373 369 377 376 369 375 367 368 380 375 373 378 380 375 367 376 378 372 377 376 374 375 369 379 372 376 373 370 363 367 360 358 352 339 332 316 312 323 310 308 305 307 302 305 298 304 292 313 310 305 305 306 310 300 301 297 300 299 309 316 311 312 310 308 316 300 306 318 311 296 319 313 318 310 314 321 329 310
220 227 227 231 236 239 245 238 241 245 241 247 243 243 243 240 252 244 253 248 252 264 275 284 290 301 320 330 326 334 330 340 347 347 341 344 344 341 338 344 348 350 351 351 347 350 349 357 352 345 346 351 349 353 349 351 353 348 355 350 354 355 350 344 350 350 346 351 348 346 345 341 335 343 327 328 308 300 295 284 277 277 278 282 281 281 282 278 278 275 283 285 287 279 275 274 269 277 287 287 282 283 283 280 280 280 270 272 283 280 278 297 276 310 282 290 288 289 293 306
214 212 219 223 228 213 230 226 214 227 226 220 225 235 230 224 231 233 232 239 243 241 256 264 282 287 289 295 301 311 314 319 317 319 322 322 314 321 328 328 320 322 317 319 322 330 326 330 324 323 321 327 331 326 325 326 327 325 333 329 327 326 323 326 327 324 323 325 320 322 320 321 321 309 306 300 281 278 275 269 262 266 265 258 257 256 262 264 255 253 255 257 258 257 254 263 256 253 259 264 258 261 259 273 256 253 253 262 265 271 269 272 264 268 260 271 259 251 265 288
210 215 204 225 210 216 223 220 222 218 210 211 203 216 223 213 220 218 223 221 229 236 249 251 257 265 271 278 286 289 293 294 297 291 295 302 297 304 308 307 303 300 303 304 304 299 304 305 306 308 310 302 303 300 302 304 309 308 306 308 306 309 314 309 309 312 309 303 306 305 301 300 299 293 290 281 268 262 256 256 251 243 249 239 248 248 247 238 241 244 246 243 242 243 249 243 238 242 249 239 248 243 256 248 245 242 245 242 249 255 250 250 253 260 273 264 263 273 280 248
174 201 195 202 195 202 204 205 206 188 185 198 183 191 200 194 209 209 206 214 212 224 227 227 237 247 249 254 266 265 274 272 274 271 279 276 282 276 285 284 278 285 283 286 280 280 280 279 281 287 280 280 277 282 278 283 287 285 285 289 282 290 285 288 293 286 283 289 283 286 286 281 276 271 265 256 253 248 244 235 234 230 229 230 225 230 224 224 226 238 228 231 232 234 221 221 228 223 226 230 215 225 226 229 231 217 226 222 231 229 240 233 232 238 246 252 235 218 243 229
175 174 195 193 185 184 187 204 181 183 184 185 179 180 182 188 183 186 190 206 212 196 221 227 229 237 237 244 242 251 254 253 260 257 259 258 257 258 263 264 266 265 267 267 263 264 267 269 263 266 265 265 263 266 268 268 260 265 271 275 268 268 265 275 269 270 272 270 266 266 267 258 255 255 248 247 239 230 226 220 215 221 220 217 220 223 221 213 215 224 215 215 221 199 215 217 209 210 211 216 221 221 210 211 205 211 219 208 224 214 219 221 228 228 224 224 235 221 224 231
177 174 170 176 177 178 179 174 173 176 181 184 183 177 183 188 185 188 179 186 186 193 204 210 216 221 222 223 227 234 234 243 239 243 241 243 247 246 242 247 245 241 252 244 252 250 246 241 244 253 246 252 254 247 241 248 250 253 247 252 255 247 253 253 241 253 252 250 248 247 245 246 240 242 238 223 223 222 199 214 200 197 190 194 192 191 192 199 196 189 195 186 191 183 188 195 188 187 187 191 206 192 205 189 185 188 187 208 203 208 203 202 207 209 206 219 216 214 198 213
169 175 175 172 174 173 174 174 174 180 177 174 174 173 174 177 178 180 181 182 184 188 186 192 207 207 214 217 219 221 225 225 228 226 227 228 231 231 229 230 228 228 235 231 234 233 228 228 236 232 237 234 235 230 232 234 239 234 234 238 235 237 237 228 238 235 235 229 231 233 228 235 226 222 218 214 211 194 188 196 193 195 191 195 196 195 193 192 184 190 192 182 189 190 191 192 181 186 187 184 186 187 178 178 187 184 179 179 180 180 181 182 175 203 211 174 212 183 197 169
171 161 168 169 168 171 170 172 170 166 168 167 166 167 175 172 174 175 181 182 180 187 179 182 189 184 191 187 193 192 211 211 213 213 216 216 216 215 214 197 217 222 217 216 219 222 221 221 220 226 219 223 222 221 223 220 221 218 218 222 222 221 221 222 218 217 219 221 223 221 221 214 215 196 191 193 187 196 195 187 188 181 187 193 190 179 185 187 182 185 183 184 183 185 181 182 184 180 184 183 186 183 187 180 182 182 175 176 178 183 182 183 180 176 185 174 195 180 195 211
149 156 162 160 157 164 163 164 166 164 156 160 159 160 167 164 168 169 171 174 177 177 177 180 183 189 187 183 194 190 181 188 186 184 186 190 186 190 188 189 196 193 192 193 197 199 194 194 194 193 197 199 196 201 200 194 197 190 195 192 203 200 201 192 195 195 194 195 195 196 200 196 199 191 188 197 194 192 188 184 180 176 180 174 173 175 177 179 179 179 177 175 169 176 176 172 171 172 168 171 171 173 174 172 175 172 174 170 166 174 175 176 178 171 173 178 184 175 172 186
142 151 153 154 157 155 157 160 159 158 159 159 156 151 160 158 157 162 155 164 169 168 178 171 179 180 179 178 185 188 187 186 190 187 187 190 195 195 190 193 196 194 192 195 195 196 196 199 195 197 194 197 198 195 200 197 198 199 197 201 199 197 201 197 194 194 194 196 198 193 196 194 189 191 191 182 186 185 176 171 172 171 166 166 170 169 173 167 169 166 167 169 171 168 174 170 168 164 164 170 163 168 172 167 163 167 162 160 164 166 167 168 170 170 175 161 161 162 170 171
146 142 146 144 148 150 149 149 151 154 149 154 145 154 154 149 153 148 159 159 165 166 170 174 174 170 173 177 174 180 176 178 183 183 179 182 182 179 184 184 185 186 185 187 183 186 184 183 191 189 183 188 189 189 187 188 186 188 0 190 189 189 187 186 188 188 188 188 184 187 185 185 183 183 177 178 175 171 172 166 163 156 164 162 159 159 164 160 162 161 161 163 161 160 161 164 157 159 164 163 159 163 166 157 155 158 160 155 167 161 158 159 163 167 163 168 170 163 170 175
134 139 137 143 140 148 148 144 145 147 145 144 141 145 145 146 143 147 148 153 157 160 161 165 164 167 169 170 171 172 171 171 177 173 170 174 175 173 174 175 175 181 177 174 178 180 175 180 177 178 177 177 180 181 184 177 182 0 0 179 178 177 183 182 178 178 180 180 179 176 174 176 172 174 171 171 168 163 162 161 164 157 155 156 154 157 156 158 157 155 146 154 158 157 156 154 152 156 155 155 158 154 153 155 153 146 147 156 157 158 154 156 149 150 145 152 160 152 158 172
138 136 133 138 143 146 152 142 144 137 141 142 142 143 147 142 143 150 147 147 151 153 157 160 162 162 162 160 167 166 162 170 169 168 165 164 164 173 167 171 173 0 172 171 173 172 169 172 174 171 174 171 174 176 174 0 175 173 0 174 171 0 176 175 172 172 173 166 174 170 169 165 168 169 162 165 163 161 159 153 151 153 154 154 153 148 151 146 149 156 149 153 149 149 147 149 153 151 157 150 148 149 143 147 151 149 141 141 149 156 151 146 150 154 152 152 150 152 152 160
126 124 126 126 136 137 140 137 135 129 136 130 135 125 144 136 136 136 139 139 137 146 148 149 145 155 159 157 159 161 160 155 159 160 158 158 164 162 0 0 0 0 0 0 0 0 0 163 167 168 167 163 169 167 0 0 169 167 0 0 0 0 0 0 167 165 166 0 162 164 161 162 162 158 154 159 152 156 149 150 150 147 145 148 142 150 142 145 144 146 148 145 142 145 141 139 145 149 141 145 138 139 140 138 133 139 138 139 138 148 143 145 145 148 147 143 139 146 146 132
124 128 122 118 130 133 132 132 135 131 124 130 127 127 126 129 122 137 139 135 140 140 147 146 146 147 155 153 153 155 153 154 157 159 155 152 153 0 0 0 0 0 0 0 0 0 159 0 157 162 162 161 0 0 0 0 0 0 0 0 0 0 0 0 0 159 0 0 0 0 0 158 158 156 153 151 151 151 148 146 141 141 145 145 137 142 139 142 146 141 136 143 141 140 131 139 144 142 142 141 136 139 139 135 120 129 134 137 140 143 137 143 146 150 134 144 127 127 108 160
116 108 122 125 127 127 127 131 121 129 132 130 121 117 118 131 132 131 130 136 127 127 133 141 141 142 145 145 145 151 153 148 153 150 150 147 0 0 0 0 0 0 0 0 0 0 0 0 153 156 156 0 0 0 0 0 0 0 0 0 0 0 0 0 0 0 0 0 0 0 0 0 148 150 149 151 145 144 142 146 130 140 129 129 124 127 140 140 130 138 139 139 134 135 119 137 140 138 134 139 129 141 135 131 133 138 130 133 136 138 137 137 143 136 146 132 136 132 118 140
106 109 112 110 110 116 120 120 116 119 115 111 121 116 127 122 122 129 127 119 132 124 127 126 135 139 138 142 142 145 145 142 143 145 145 142 0 0 0 0 0 0 0 0 0 0 0 0 0 0 0 0 0 0 0 0 0 0 0 0 0 0 0 0 0 0 0 0 0 0 0 0 144 139 141 140 138 131 130 130 127 122 120 121 122 117 126 125 124 128 124 122 117 136 125 128 126 133 123 123 116 131 134 118 121 134 117 128 130 132 129 138 128 130 115 131 116 111 127 130
110 104 116 115 115 115 115 117 120 114 115 119 115 113 120 123 118 129 124 116 120 114 123 115 131 127 138 139 0 133 136 0 0 138 141 0 0 0 0 0 0 0 0 0 0 0 0 0 0 0 0 0 0 0 0 0 0 0 0 0 0 0 0 0 0 0 0 0 0 0 0 0 0 143 126 136 125 125 120 126 122 118 124 122 117 118 116 120 118 117 117 128 115 117 113 122 120 120 120 118 119 126 131 122 117 113 113 122 101 120 130 134 132 117 127 110 110 131 133 139
103 100 110 111 105 107 108 107 102 104 110 107 105 108 109 112 108 113 118 110 114 116 111 120 121 121 125 120 0 136 128 0 0 0 130 0 0 0 0 0 0 0 0 0 0 0 0 0 0 0 0 0 0 0 0 0 0 0 0 0 0 0 0 0 0 0 0 0 0 0 0 0 131 0 0 126 121 119 121 114 116 114 110 119 111 119 108 113 113 119 112 116 108 110 111 106 112 114 109 112 116 115 110 114 112 117 114 107 124 104 109 114 110 122 121 104 124 122 136 150
96 99 92 94 99 102 103 102 103 105 102 100 100 105 106 102 106 106 117 107 110 109 108 106 115 110 114 118 118 122 125 127 0 0 0 0 0 0 0 0 0 0 0 0 0 0 0 0 0 0 0 0 0 0 0 0 0 0 0 0 0 0 0 0 0 0 0 0 0 0 0 0 0 120 0 115 120 116 113 109 112 109 105 106 109 109 109 117 105 108 117 108 108 113 106 118 106 110 97 116 110 109 110 101 105 111 108 110 112 116 106 95 112 103 100 127 116 110 88 126
96 102 97 104 99 99 100 94 95 101 100 102 104 97 99 95 108 103 114 113 111 105 98 109 111 107 113 114 115 123 119 119 123 0 0 0 0 0 0 0 0 0 0 0 0 0 0 0 0 0 0 0 0 0 0 0 0 0 0 0 0 0 0 0 0 0 0 0 0 0 0 0 123 123 108 118 113 115 117 117 105 113 102 120 109 107 103 100 103 106 105 104 111 91 103 100 107 98 111 108 105 113 106 105 107 104 108 94 106 99 101 104 99 100 108 106 141 127 105 128
89 85 80 87 81 85 83 95 92 82 89 94 96 95 93 89 79 93 92 90 92 85 100 107 101 101 113 109 0 0 107 109 117 0 0 0 0 0 0 0 0 0 0 0 0 0 0 0 0 0 0 0 0 0 0 0 0 0 0 0 0 0 0 0 0 0 0 0 0 0 0 116 112 110 104 112 106 107 106 101 101 106 97 92 104 98 87 99 106 99 92 95 103 84 85 97 93 104 87 100 89 100 94 95 84 89 94 97 91 84 83 77 80 93 98 94 87 93 114 144
94 84 91 89 98 97 98 106 92 93 96 92 94 94 99 93 97 91 101 95 98 103 105 101 102 104 112 107 0 105 112 108 117 111 119 106 0 0 114 0 0 118 0 0 0 0 0 0 0 0 0 0 0 0 0 0 0 0 0 0 115 0 0 114 115 0 0 0 111 0 108 109 115 111 113 103 108 112 101 94 111 103 103 87 95 97 104 103 101 100 106 105 112 100 99 104 101 94 102 108 100 98 98 99 94 101 99 91 83 85 91 89 94 90 100 99 113 95 100 130
86 92 94 92 94 97 92 92 86 98 86 92 91 91 87 85 97 100 99 95 98 93 96 114 92 102 106 103 106 108 98 0 109 104 100 105 0 113 115 0 111 0 0 0 0 0 0 0 0 0 0 0 0 0 0 0 0 110 0 0 0 105 106 112 112 112 102 100 113 110 110 104 105 103 109 107 101 92 104 99 96 94 103 90 96 90 95 102 106 93 95 106 107 89 95 87 91 92 96 86 96 84 93 98 94 94 102 95 98 89 93 93 84 94 98 95 112 128 121 131
85 87 83 90 91 89 104 88 90 81 90 89 84 91 89 90 89 90 94 90 78 95 96 83 91 94 92 90 104 89 97 100 98 97 94 112 101 101 103 102 104 99 100 109 108 93 0 0 93 0 0 107 105 95 99 106 107 102 110 107 100 105 110 100 102 112 101 96 96 109 98 109 105 100 105 93 93 97 96 90 95 94 90 97 97 97 90 90 96 95 101 90 95 94 92 94 95 86 89 85 88 90 96 89 87 81 96 88 80 98 87 90 101 103 91 93 111 102 101 132
84 83 87 84 88 84 100 96 88 85 88 84 84 91 90 91 89 94 90 96 84 96 94 95 91 95 95 89 97 98 96 87 96 93 97 96 96 102 94 107 103 97 101 106 97 93 105 0 104 100 99 106 98 98 100 101 101 107 98 109 103 94 94 104 103 99 98 103 97 106 97 107 99 98 108 89 93 97 97 98 98 98 97 93 96 96 86 88 96 90 86 102 85 91 95 82 95 95 98 89 93 95 82 91 90 97 95 93 87 86 92 96 95 81 101 119 128 85 132 90
83 73 71 72 81 83 91 88 88 78 87 84 90 81 89 86 86 84 86 85 93 89 92 89 88 87 90 97 86 95 91 93 82 95 93 93 100 86 93 96 94 89 85 91 96 94 89 104 96 87 95 99 98 90 88 85 104 90 101 99 98 99 82 97 82 99 96 92 97 97 97 90 92 94 84 95 93 93 91 96 90 92 85 88 83 92 88 88 87 90 94 76 90 82 87 89 83 79 80 93 79 89 85 72 78 81 86 91 86 95 71 91 77 94 103 87 115 116 125 80
73 75 80 86 74 87 86 88 85 81 84 78 81 82 83 91 87 87 83 86 84 94 84 93 86 85 90 89 92 95 88 95 95 96 88 88 97 94 95 93 95 82 98 89 89 97 90 88 101 89 91 96 95 86 103 91 88 84 91 94 97 86 90 96 90 94 89 98 107 95 84 94 86 98 97 96 97 85 97 96 89 90 90 90 78 86 91 77 92 93 77 93 81 80 94 84 89 85 80 83 87 80 81 78 78 85 82 91 88 89 81 87 86 116 105 92 99 87 107 199
