0 0 0 0 0 0 0 0 0 0 0 0 0 0 0 0 0 0 0 0 0 0 0 0 0 0 0 0 0 0 0 0 0 0 0 0 0 0 0 0 0 0 0 0 0 0 0 0 0 0 0 0 0 0 0 0 0 0 0 0 0 0 0 0 0 0 0 0 0 0 0 0 0 0 0 0 0 0 0 0 0 0 0 0 0 0 0 0 0 0 0 0 0 0 0 0 0 0 0 0 0 0 0 0 0 0 0 0 0 0 0 0 0 0 0 0 0 0 0 0
0 0 0 0 0 0 0 0 0 0 0 0 0 0 0 0 0 0 0 0 0 0 0 0 0 0 0 0 0 0 0 0 0 0 0 0 0 0 0 0 0 0 0 0 0 0 0 0 0 0 0 0 0 0 0 0 0 0 0 0 0 0 0 0 0 0 0 0 0 0 0 0 0 0 0 0 0 0 0 0 0 0 0 0 0 0 0 0 0 0 0 0 0 0 0 0 0 0 0 0 0 0 0 0 0 0 0 0 0 0 0 0 0 0 0 0 0 0 0 0
0 0 0 0 0 0 0 0 0 0 0 0 0 0 0 0 0 1305 0 0 0 0 0 0 0 0 0 0 0 0 0 0 0 0 0 0 0 0 0 0 0 0 0 0 0 0 0 0 0 0 0 0 0 0 0 0 0 0 0 0 0 0 0 0 0 0 0 0 0 0 0 0 0 0 0 0 0 0 0 0 0 0 0 0 0 0 0 0 0 0 0 0 0 0 0 0 0 0 0 0 0 0 0 0 0 0 0 0 0 0 0 0 0 0 0 0 0 0 0 0
0 0 0 0 0 0 0 0 0 0 0 1142 1176 1102 0 0 1318 1301 0 0 0 1290 1258 0 0 0 0 0 0 0 0 0 0 0 0 0 0 0 0 0 0 0 0 0 0 0 0 0 0 0 0 0 0 0 0 0 0 0 0 0 0 0 0 0 0 0 0 0 0 0 0 0 0 0 0 0 0 0 0 0 0 0 0 0 0 0 0 0 0 0 0 0 0 0 0 0 0 0 0 0 0 0 0 0 0 0 0 0 0 0 0 0 0 0 0 0 0 0 0 0
0 0 0 0 0 0 0 0 1110 1117 1158 1106 1166 1172 1164 0 1266 1249 1286 0 1270 1254 1261 0 0 0 0 0 0 0 0 0 0 0 0 0 0 0 0 0 0 0 0 0 0 0 0 0 0 0 0 0 0 0 0 0 0 0 0 0 0 0 0 0 0 0 0 0 0 0 0 0 0 0 0 0 0 0 0 0 0 0 0 0 0 0 0 0 0 0 0 0 0 0 0 0 0 0 0 0 0 0 0 0 0 0 0 0 0 0 0 0 0 0 0 0 0 0 0 0
0 0 0 0 0 0 0 1113 1124 1143 0 0 1154 1168 1154 1230 1275 1298 1288 0 1264 1283 1298 1254 0 0 0 0 0 0 0 0 0 0 0 0 0 0 0 0 0 0 0 0 0 0 0 0 0 0 0 0 0 0 0 0 0 0 0 0 0 0 0 0 0 0 0 0 0 0 0 0 0 0 0 0 0 0 0 0 0 0 0 0 0 0 0 0 0 0 0 0 0 0 0 0 0 0 0 0 0 0 0 0 0 0 0 0 0 0 0 0 0 0 0 0 0 0 0 0
0 0 0 0 0 0 0 0 0 0 0 0 1236 1216 1289 1263 1281 1300 1278 1264 1262 1289 1262 1308 1286 0 0 0 0 0 0 1433 0 0 0 0 0 0 0 0 0 0 0 0 0 0 0 0 0 0 0 0 0 0 0 0 0 0 0 0 0 0 0 0 0 0 0 0 0 0 0 0 0 0 0 0 0 0 0 0 0 0 0 0 0 0 0 0 0 0 0 0 0 0 0 0 0 0 0 0 0 0 0 0 0 0 0 0 0 0 0 0 0 0 0 0 0 0 0 0
0 0 0 0 0 0 0 0 0 0 0 0 1282 1266 1249 1278 1283 1249 1275 1241 1227 1239 1272 1263 0 1302 1329 1371 1310 1350 0 1407 0 0 0 0 0 0 0 0 0 0 0 0 0 0 0 0 0 0 0 0 0 0 0 0 0 0 0 0 0 0 0 0 0 0 0 0 0 0 0 0 0 0 0 0 0 0 0 0 0 0 0 0 0 0 0 0 0 0 0 0 0 0 0 0 0 0 0 0 0 0 0 0 0 0 0 0 0 0 0 0 0 0 0 0 0 0 0 0
0 0 0 0 0 0 0 0 0 0 0 0 1235 1274 1272 1255 1298 1268 1250 1271 1267 1245 1256 1266 0 0 1339 1311 1345 1358 1320 1383 0 0 0 0 0 0 0 0 0 0 0 0 0 0 0 0 0 0 0 0 0 0 0 0 0 0 0 0 0 0 0 0 0 0 0 0 0 0 0 0 0 0 0 0 0 0 0 0 0 0 0 0 0 0 0 0 0 0 0 0 0 0 0 0 0 0 0 0 0 0 0 0 0 0 0 0 0 0 0 0 0 0 0 0 0 0 0 0
0 0 0 0 0 0 0 0 0 0 0 0 0 1269 1311 1290 1276 1256 1246 1251 1273 1259 1256 1239 1241 0 1343 1364 1335 1368 1368 1388 1385 0 0 0 0 0 0 0 0 0 0 0 0 0 0 0 0 0 0 0 0 0 0 0 0 0 0 0 0 0 0 0 0 0 0 0 0 0 0 0 0 0 0 0 0 0 0 0 0 0 0 0 0 0 0 0 0 0 0 0 0 0 0 0 0 0 0 0 0 0 0 0 0 0 0 0 0 0 0 0 0 0 0 0 0 0 0 0
0 0 0 0 0 0 0 0 0 0 0 0 0 0 0 0 0 0 0 0 0 1280 1270 1249 1270 0 0 1336 1331 1337 1356 1402 1379 0 0 0 0 0 0 0 0 0 0 0 0 0 0 0 0 0 0 0 0 0 0 0 0 0 0 0 0 0 0 0 0 0 0 0 0 0 0 0 0 0 0 0 0 0 0 0 0 0 0 0 0 0 0 0 0 0 0 0 0 0 0 0 0 0 0 0 0 0 0 0 0 0 0 0 0 0 0 0 0 0 0 0 0 0 0 0
0 0 0 0 0 0 0 0 0 0 0 0 0 0 0 0 0 0 0 0 0 0 0 1297 1275 0 0 0 1315 1346 1343 1399 1410 0 0 0 0 0 0 0 0 0 0 0 0 0 0 0 0 0 0 0 0 0 0 0 0 0 0 0 0 0 0 0 0 0 0 0 0 0 0 0 0 0 0 0 0 0 0 0 0 0 0 0 0 0 0 0 0 0 0 0 0 0 0 0 0 0 0 0 0 0 0 0 0 0 0 1730 0 0 0 0 0 0 0 0 0 0 0 0
0 0 0 0 0 0 0 0 0 0 0 0 0 0 0 0 0 0 0 0 0 0 0 1384 1416 1306 1259 0 1336 1367 1361 1369 1423 0 0 0 0 0 0 0 0 0 0 0 0 0 0 0 0 0 0 0 0 0 0 0 0 0 0 0 0 0 0 0 0 0 0 0 0 0 0 0 0 0 0 0 0 0 0 0 0 0 0 0 0 0 0 0 0 0 0 0 0 0 0 0 0 0 0 0 0 0 0 0 0 0 1821 0 1740 0 0 0 0 0 0 0 0 0 0 0
0 0 0 0 0 0 0 0 0 0 0 0 0 0 0 0 0 0 0 0 0 0 0 1393 1379 1384 1334 1290 1341 1337 1328 1368 1403 0 0 0 0 0 0 0 0 0 0 0 0 0 0 0 0 0 0 0 0 0 0 0 0 0 0 0 0 0 0 0 0 0 0 0 0 0 0 0 0 0 0 0 0 0 0 0 0 0 0 0 0 0 0 0 0 0 0 0 0 0 0 0 0 0 0 0 0 0 0 0 0 1721 1749 1712 1719 0 0 0 0 0 0 0 0 0 0 0
0 0 0 0 0 0 0 0 0 0 0 0 0 0 0 0 0 0 0 0 0 0 0 1408 1404 1387 1359 1337 1308 1333 1363 1409 1424 0 0 0 0 0 0 0 0 0 0 0 0 0 0 0 0 0 0 0 0 0 0 0 0 0 0 0 0 0 0 0 0 0 0 0 0 0 0 0 0 0 0 0 0 0 0 0 0 0 0 0 0 0 0 0 0 0 0 0 0 0 0 0 0 0 0 0 0 0 0 0 0 1717 1771 0 0 0 0 0 0 0 0 0 0 0 0 0
0 0 0 0 0 0 0 0 0 0 0 0 0 0 0 0 0 0 0 0 0 0 0 1376 1382 1383 1375 1361 1335 1336 1347 1429 1433 0 0 0 0 0 0 0 0 0 0 0 0 0 0 0 0 0 0 0 0 0 0 0 0 0 0 0 0 0 0 0 0 0 0 0 0 0 0 0 0 0 0 0 0 0 0 0 0 0 0 0 0 0 0 0 0 0 0 0 0 0 0 0 0 0 0 0 0 0 0 0 0 0 0 1707 1724 0 0 0 0 0 0 0 0 0 0 0
1247 1256 1247 1273 1286 1325 1286 0 0 0 0 0 0 0 0 0 0 0 0 0 0 0 0 0 1381 1363 1358 1368 1366 1340 1351 1420 1412 0 0 0 0 0 0 0 0 0 0 0 0 0 0 0 0 0 0 0 0 0 0 0 0 0 0 0 0 0 0 0 0 0 0 0 0 0 0 0 0 0 0 0 0 0 0 0 0 0 0 0 0 0 0 0 0 0 0 0 0 0 0 0 0 0 0 0 0 0 0 0 1738 1713 1735 1756 1760 1711 0 0 0 0 0 0 0 0 0 0
1257 1281 1280 1315 1289 1312 1332 1317 1330 1330 1341 0 0 0 0 0 0 0 0 0 0 0 0 1378 1373 1359 1364 1374 1398 1371 1382 1406 1429 0 0 0 0 0 0 0 0 0 0 0 0 0 0 0 0 0 0 0 0 0 0 0 0 0 0 0 0 0 0 0 0 0 0 0 0 0 0 0 0 0 0 0 0 0 0 0 0 0 0 0 0 0 0 0 0 0 0 0 0 0 0 0 0 0 0 0 0 0 0 1754 1785 1739 1740 1704 1685 1712 1693 1686 0 0 0 0 0 0 0 0
1202 1269 1251 1269 1298 1273 1305 1312 1328 1323 1319 1336 1343 1380 1354 1389 0 0 0 0 0 0 0 0 0 1363 0 0 1355 0 0 1403 1428 0 0 0 0 0 0 0 0 0 0 0 0 0 0 0 0 0 0 0 0 0 0 0 0 0 0 0 0 0 0 0 0 0 0 0 0 0 0 0 0 0 0 0 0 0 0 0 0 0 0 0 0 0 0 0 0 0 0 0 0 0 0 0 0 0 0 0 0 0 1807 1784 1750 1718 1722 1698 1682 1671 1697 1648 0 0 0 0 0 0 0 0
0 0 0 0 1277 1283 1318 1297 1324 1319 1329 1337 1359 1400 1381 1390 1384 1425 1433 1439 1442 0 0 0 0 0 0 0 0 0 0 1429 1456 1433 0 0 0 0 0 0 0 0 0 0 0 0 0 0 0 0 0 0 0 0 0 0 0 0 0 0 0 0 0 0 0 0 0 0 0 0 0 0 0 0 0 0 0 0 0 0 0 0 0 0 0 0 0 0 0 0 0 0 0 0 0 0 0 0 0 0 0 0 1785 1800 1779 1693 1714 1676 1684 1633 0 0 0 0 0 0 0 0 0 0
0 0 0 0 0 0 0 0 0 1345 1356 1345 1345 1375 1370 1386 1429 1434 1449 1464 1471 1453 0 0 0 0 0 0 0 0 0 1472 1481 1477 0 0 0 0 0 0 0 0 0 0 0 0 0 0 0 0 0 0 0 0 0 0 0 0 0 0 0 0 0 0 0 0 0 0 0 0 0 0 0 0 0 0 0 0 0 0 0 0 0 0 0 0 0 0 0 0 0 0 0 0 0 0 0 0 0 0 0 0 0 1753 1683 1624 1614 1610 1567 1612 1578 1579 1584 1573 0 0 0 0 0 0
0 0 0 0 0 0 0 0 0 0 0 0 0 0 0 1370 1435 1423 1427 1450 1456 1468 0 0 0 0 0 0 0 0 0 0 1485 0 0 0 0 0 0 0 0 0 0 0 0 0 0 0 0 0 0 0 0 0 0 0 0 0 0 0 0 0 0 0 0 0 0 0 0 0 0 0 0 0 0 0 0 0 0 0 0 0 0 0 0 0 0 0 0 0 0 0 0 0 0 0 0 0 0 0 0 1729 1662 1608 1606 1603 1601 1610 1598 1576 1636 1600 1627 1578 1584 0 0 0 0 0
0 0 0 0 0 0 0 0 0 0 0 0 0 0 0 0 0 0 0 0 0 1487 0 0 0 0 0 0 0 0 0 0 0 0 0 0 0 0 0 0 0 0 0 0 0 0 0 0 0 0 0 0 0 0 0 0 0 0 0 0 0 0 0 0 0 0 0 0 0 0 0 0 0 0 0 0 0 0 0 0 0 0 0 0 0 0 0 0 0 0 0 0 0 0 0 0 0 0 0 0 0 1600 1582 1583 1602 1589 1615 1587 1600 1623 1551 1556 1618 1596 0 0 0 0 0 0
0 0 0 0 0 0 0 0 0 0 0 0 0 0 0 0 0 0 0 0 0 0 0 0 0 0 0 0 0 0 0 0 0 0 0 0 0 0 0 0 0 0 0 0 0 0 0 0 0 0 0 0 0 0 0 0 0 0 0 0 0 0 0 0 0 0 0 0 0 0 0 0 0 0 0 0 0 0 0 0 0 0 0 0 0 0 0 0 0 0 0 0 0 0 0 0 0 0 0 0 0 0 1549 1579 1615 1599 1589 1595 1595 1585 1607 1592 0 0 0 0 0 0 0 0
0 0 0 0 0 0 0 0 0 0 0 0 0 0 0 0 0 0 0 0 0 0 0 0 0 0 0 0 0 0 0 0 0 0 0 0 0 0 0 0 0 0 0 0 0 0 0 0 0 0 0 0 0 0 0 0 0 0 0 0 0 0 0 0 0 0 0 0 0 0 0 0 0 0 0 0 0 0 0 0 0 0 0 0 0 0 0 0 0 0 0 0 0 0 0 0 0 0 0 0 0 0 0 0 0 0 0 1584 1634 0 0 0 0 0 0 0 0 0 0 0
0 0 0 0 0 0 0 0 0 0 0 0 0 0 0 0 0 0 0 0 0 0 0 0 0 0 0 0 0 0 0 0 0 0 0 0 0 0 0 0 0 0 0 0 0 0 0 0 0 0 0 0 0 0 0 0 0 0 0 0 0 0 0 0 0 0 0 0 0 0 0 0 0 0 0 0 0 0 0 0 0 0 0 0 0 0 0 0 0 0 0 0 0 0 0 0 0 0 0 0 0 0 0 0 0 0 0 0 0 0 0 0 0 0 0 0 0 0 0 0
578 569 0 0 0 0 0 0 0 0 0 0 0 0 0 0 0 0 0 0 0 0 0 0 0 1778 1924 0 0 0 0 0 0 0 0 0 0 0 0 0 0 0 0 0 0 0 0 2923 2913 2957 2959 2922 2916 2925 2894 2925 2897 2981 2898 2976 0 2920 2904 2898 2847 2913 0 0 0 0 0 0 0 0 0 0 0 0 0 0 0 0 0 0 0 0 0 0 0 0 0 0 0 0 0 0 1721 0 0 0 0 0 0 0 0 0 0 0 0 0 0 0 0 0 0 0 0 0 0 0
560 591 603 583 604 652 0 0 0 0 0 0 0 0 0 0 0 0 0 0 0 0 0 0 0 0 0 1871 0 0 0 0 0 0 0 0 0 0 0 0 0 0 0 0 0 0 0 2906 2943 2930 2894 2956 2924 2945 2901 2901 2876 2940 2883 2921 2904 2886 2875 2883 2890 2934 0 0 0 0 0 0 0 0 0 0 0 0 0 0 0 0 0 0 0 0 0 0 0 0 0 0 0 0 0 0 0 0 0 0 0 0 0 0 0 0 0 0 0 0 0 0 0 0 0 0 0 0 0 0
585 580 600 604 612 624 645 678 611 0 0 0 0 0 0 0 0 0 0 0 0 0 0 0 0 0 0 0 0 0 0 0 0 0 0 0 0 0 0 0 0 0 0 0 0 0 0 2899 2938 2922 2914 2896 2904 2890 2894 2919 2869 2928 2895 2822 2885 2869 2906 2889 2894 0 0 0 0 0 0 0 0 0 0 0 0 0 0 0 0 0 0 0 0 0 0 0 0 0 0 0 0 0 0 0 0 0 0 0 0 0 0 0 0 0 0 0 0 0 0 0 0 0 0 0 0 0 0 0
585 574 594 594 615 633 619 634 656 669 674 661 0 0 0 0 0 0 0 0 0 0 0 0 0 0 0 0 0 0 0 0 0 0 0 0 0 0 0 0 0 0 0 0 0 0 0 2950 2976 2859 2940 2920 2961 2895 2883 2877 2874 2894 2904 2899 2908 2935 2899 2931 2921 0 0 0 0 0 0 0 0 0 0 0 0 0 0 0 0 0 0 0 0 0 0 0 0 0 0 0 0 0 0 0 0 0 0 0 0 0 0 0 0 0 0 0 0 0 0 0 0 0 0 0 0 0 0 0
594 589 592 601 636 635 633 637 673 676 673 687 679 729 751 0 0 0 0 0 0 0 0 0 0 0 0 0 0 0 0 0 0 0 0 0 0 0 0 0 0 0 0 0 0 0 0 2907 2886 2899 2910 2874 2909 2929 2903 2881 2909 2916 2897 2919 2885 2900 2902 2882 2929 0 0 0 0 0 0 0 0 0 0 0 0 0 0 0 0 0 0 0 0 0 0 0 0 0 0 0 0 0 0 0 0 0 0 0 0 0 0 0 0 0 0 0 0 0 0 0 0 0 0 0 0 0 0 0
729 766 742 757 727 671 646 649 659 673 655 705 721 749 716 763 764 782 0 0 0 0 0 0 0 0 0 0 0 0 0 0 0 0 0 0 0 0 0 0 0 0 0 0 0 0 0 2910 2914 2922 2903 2916 2915 2919 2913 2896 2888 2894 2858 2849 2867 2870 2930 2904 2887 2876 0 0 0 0 0 0 0 0 0 0 0 0 0 0 0 0 0 0 0 0 0 0 0 0 0 0 0 0 0 0 0 0 0 0 0 0 0 0 0 0 0 0 0 0 0 0 0 0 0 0 0 0 0 0
798 795 793 807 832 853 853 830 825 796 746 732 735 693 734 751 763 767 783 825 848 0 0 0 0 0 0 0 0 0 0 0 0 0 0 0 0 0 0 0 0 0 0 0 0 0 0 2887 2888 2929 2913 2924 2913 2883 2897 2890 2883 2928 2904 2951 2943 2884 2923 2861 2869 2852 0 0 0 0 0 0 0 0 0 0 0 0 0 0 0 0 0 0 0 0 0 0 0 0 0 0 0 0 0 0 0 0 0 0 0 0 0 0 0 0 0 0 0 0 0 0 0 0 0 0 0 0 0 0
768 812 809 812 841 850 848 888 903 906 911 916 926 904 833 797 771 769 809 842 816 835 862 909 0 0 0 0 0 0 0 0 0 0 0 0 0 0 0 0 0 0 0 0 0 0 0 2897 2905 2898 2872 2865 2907 2861 2891 2912 2902 2914 2929 2872 2885 2881 2918 2869 2895 2887 0 0 0 0 0 0 0 0 0 0 0 0 0 0 0 0 0 0 0 0 0 0 0 0 0 0 0 0 0 0 0 0 0 0 0 0 0 0 0 0 0 0 0 0 0 0 0 0 0 0 0 0 0 0
594 0 835 849 847 854 863 874 898 913 937 947 948 953 952 949 954 928 910 852 818 848 863 869 912 936 0 0 0 0 0 0 0 0 0 0 0 0 0 0 0 0 0 0 0 0 0 2889 2979 2967 2939 2921 2961 2946 2926 2944 2951 2900 2905 2927 2873 2869 2892 2903 2855 2852 0 0 0 0 0 0 0 0 0 0 0 0 0 0 0 0 0 0 0 0 0 0 0 0 0 0 0 0 0 0 0 0 0 0 0 0 0 0 0 0 0 0 0 0 0 0 0 0 0 0 0 0 0 0
602 913 946 944 933 940 933 890 903 938 931 933 944 947 952 943 947 948 947 958 939 931 901 905 913 934 968 976 1022 0 0 0 0 0 0 0 0 0 0 0 0 0 0 0 0 0 0 2886 2901 2940 2934 2948 2913 2951 2912 2928 2889 2905 2895 2897 2849 2922 2869 2883 2897 2883 0 0 0 0 0 0 0 0 0 0 0 0 0 0 0 0 0 0 0 0 0 0 0 0 0 0 0 0 0 0 0 0 0 0 0 0 0 0 0 0 0 0 0 0 0 0 0 0 0 0 0 0 0 0
626 694 0 0 0 0 0 0 0 0 969 966 988 1005 992 977 970 972 939 946 961 942 944 939 954 978 978 995 1030 1091 1060 0 0 0 0 0 0 0 0 0 0 0 0 0 0 0 0 2877 2899 2869 2944 2899 2910 2885 2934 2905 2882 2920 2909 2893 2928 2917 2861 2887 2919 2841 0 0 0 0 0 0 0 0 0 0 0 0 0 0 0 0 0 0 0 0 0 0 0 0 0 0 0 0 0 0 0 0 0 0 0 0 0 0 0 0 0 0 0 0 0 0 0 0 0 0 0 0 0 0
584 635 591 0 1124 1139 1149 1149 1158 1142 1144 1137 1132 1152 1119 1152 1109 1036 0 0 1016 1077 1062 1013 1030 1033 1111 1131 1097 1118 1059 0 0 0 0 0 0 0 0 0 0 0 0 0 0 0 0 2881 2920 2917 2912 2877 2933 2902 2888 2872 2905 2953 2900 2886 2916 2925 2902 2867 2885 0 0 0 0 0 0 0 0 0 0 0 0 0 0 0 0 0 0 0 0 0 0 0 0 0 0 0 0 0 0 0 0 0 0 0 0 0 0 0 0 0 0 0 0 0 0 0 0 0 0 0 0 0 0 0
566 603 589 621 0 0 0 0 0 0 0 0 0 0 0 0 1448 998 983 0 1144 1138 1103 0 0 1146 1149 1144 1131 1145 1063 0 0 0 0 0 0 0 0 0 0 0 0 0 0 0 0 2920 2948 2939 2905 2891 2946 2907 2883 2919 2932 2930 2907 2911 2866 2884 2887 2890 2892 2852 0 0 0 0 0 0 0 0 0 0 0 0 0 0 0 0 0 0 0 0 0 0 0 0 0 0 0 0 0 0 0 0 0 0 0 0 0 0 0 0 0 0 0 0 0 0 0 0 0 0 0 0 0 0
616 584 597 599 638 0 0 0 0 0 0 0 0 0 0 0 0 967 991 0 0 0 0 0 0 0 0 0 0 0 0 0 0 0 0 0 0 0 0 0 0 0 0 0 0 0 0 2897 2933 2953 2911 2906 2935 2911 2878 2888 2889 2892 2885 2912 2887 2944 2883 2896 2953 2834 0 0 0 0 0 0 0 0 0 0 0 0 0 0 0 0 0 0 0 0 0 0 0 0 0 0 0 0 0 0 0 0 0 0 0 0 0 0 0 0 0 0 0 0 0 0 0 0 0 0 0 0 0 0
559 578 595 603 569 608 0 0 0 0 0 0 0 0 0 0 0 0 0 0 0 0 0 0 0 0 0 0 0 0 0 0 0 0 0 0 0 0 0 0 0 0 0 0 0 0 0 2882 2907 2953 2919 2957 2899 2875 2941 2903 2892 2930 2915 2903 2919 2863 2909 2985 2918 0 0 0 0 0 0 0 0 0 0 0 0 0 0 0 0 0 0 0 0 0 0 0 0 0 0 0 0 0 0 0 0 0 0 0 0 0 0 0 0 0 0 0 0 0 0 0 0 0 0 0 0 0 0 0
550 569 614 642 596 607 0 0 0 0 0 0 0 0 0 0 0 0 0 0 0 0 995 0 0 0 0 0 0 0 0 0 0 0 0 0 0 0 0 0 0 0 0 0 0 0 0 2927 2888 2914 2930 2966 2942 2898 2959 2881 2909 2906 2910 2907 2880 2903 2899 2881 2871 2894 0 0 0 0 0 0 0 0 0 0 0 0 0 0 0 0 0 0 0 0 0 0 0 0 0 0 0 0 0 0 0 0 0 0 0 0 0 0 0 0 0 0 0 0 0 0 0 0 0 0 0 0 0 0
569 602 607 577 611 590 0 0 0 0 0 0 0 0 0 0 0 0 0 0 0 0 0 0 0 0 0 0 0 0 0 0 0 0 0 0 0 0 0 0 0 0 0 0 0 0 0 2885 2898 2934 2880 2942 2884 2919 2924 2902 2897 2912 2906 2907 2918 2868 2895 2934 2859 2911 0 0 0 0 0 0 0 0 0 0 0 0 0 0 0 0 0 0 0 0 0 0 0 0 0 0 0 0 0 0 0 0 0 0 0 0 0 0 0 0 0 0 0 0 0 0 0 0 0 0 0 0 0 0
583 586 604 611 599 590 586 0 0 0 0 0 0 0 0 0 0 0 0 0 0 0 0 0 0 0 0 0 0 0 0 0 0 0 0 0 0 0 0 0 0 0 0 0 0 0 0 2934 2934 2918 2887 2946 2924 2929 2927 2902 2942 2930 2931 2939 2922 2886 2889 2896 2893 0 0 0 0 0 0 0 0 0 0 0 0 0 0 0 0 0 0 0 0 0 0 0 0 0 0 0 0 0 0 0 0 0 0 0 0 0 0 0 0 0 0 0 0 0 0 0 0 0 0 0 0 0 0 0
610 572 590 597 583 588 636 0 0 0 0 0 0 0 0 0 2298 0 0 0 923 0 0 998 0 0 0 0 0 0 0 0 0 0 0 0 0 0 0 0 0 0 0 0 0 0 0 2934 2933 2929 2908 2903 2928 2904 2919 2899 2903 2891 2919 2913 2893 2889 2908 2887 2867 2848 0 0 0 0 0 0 0 0 0 0 0 0 0 0 0 0 0 0 0 0 0 0 0 0 0 0 0 0 0 0 0 0 0 0 0 0 0 0 0 0 0 0 0 0 0 0 0 0 0 0 0 0 0 0
579 589 586 588 608 615 518 0 0 0 0 0 0 0 0 0 0 0 0 0 0 0 0 0 0 0 0 0 0 0 0 0 0 0 0 0 0 0 0 0 0 0 0 0 0 0 0 2926 2914 2922 2932 2942 2919 2934 2887 2916 2885 2923 2915 2946 2911 2882 2882 2905 2905 2831 0 0 0 0 0 0 0 0 0 0 0 0 0 0 0 0 0 0 0 0 0 0 0 0 0 0 0 0 0 0 0 0 0 0 0 0 0 0 0 0 0 0 0 0 0 0 0 0 0 0 0 0 0 0
596 587 598 608 621 614 0 0 0 0 0 0 0 0 0 0 0 0 0 0 0 0 0 0 0 0 0 0 0 0 0 0 0 0 0 0 0 0 0 0 0 0 0 0 0 0 0 0 0 0 0 0 0 0 0 0 0 0 0 0 0 2927 3029 2878 2875 0 0 0 0 0 0 0 0 0 0 0 0 0 0 0 0 0 0 0 0 0 0 0 0 0 0 0 0 0 0 0 0 0 0 0 0 0 0 0 0 0 0 0 0 0 0 0 0 0 0 0 0 0 0 0
584 588 621 581 576 599 0 0 0 0 0 0 0 0 0 0 0 0 0 0 0 0 0 0 0 0 0 0 0 0 0 0 0 0 0 0 0 0 0 0 0 0 0 0 0 0 0 0 0 0 0 0 0 0 0 0 0 0 0 0 0 0 0 0 0 0 0 0 0 0 0 0 0 0 0 0 0 0 0 0 0 0 0 0 0 0 0 0 0 0 0 0 0 0 0 0 0 0 0 0 0 0 0 0 0 0 0 0 0 0 0 0 0 0 0 0 0 0 0 0
583 600 595 608 577 0 0 0 0 0 0 0 0 0 0 0 0 0 0 0 0 0 0 0 0 0 0 0 0 0 0 0 0 0 0 0 0 0 0 0 0 0 0 0 0 0 0 0 0 0 0 0 0 0 0 0 0 0 0 0 0 0 0 0 0 0 0 0 0 0 0 0 0 0 0 0 0 0 0 0 0 0 0 0 0 0 0 0 0 0 0 0 0 0 0 0 0 0 0 0 0 0 0 0 0 0 0 0 0 0 0 0 0 0 0 0 0 0 0 0
596 572 578 587 593 0 0 0 0 0 0 0 0 0 0 0 0 0 0 0 0 0 0 0 0 0 0 0 0 0 0 0 0 0 0 0 0 0 0 0 0 0 0 0 0 0 0 0 0 0 0 0 0 0 0 0 0 0 0 0 0 0 0 0 0 0 0 0 0 0 0 0 0 0 0 0 0 0 0 0 0 0 0 0 0 0 0 0 0 0 0 0 0 0 0 0 0 0 0 0 0 0 0 0 0 0 0 0 0 0 0 0 0 0 0 0 0 0 0 0
576 597 601 570 0 0 0 0 0 0 0 0 0 0 0 0 0 0 0 0 0 0 0 0 0 0 840 868 874 851 884 905 894 871 870 883 886 899 0 909 0 938 915 0 0 0 0 0 0 0 0 0 0 0 0 0 0 0 0 0 0 0 0 0 0 0 0 0 0 0 0 0 0 0 0 0 0 0 0 0 0 0 0 0 0 0 0 0 0 0 0 0 0 0 0 0 0 0 0 0 0 0 0 0 0 0 0 0 0 0 0 0 0 0 0 0 0 0 0 0
568 579 561 0 0 0 0 708 724 694 648 706 683 705 713 715 722 699 699 770 729 729 713 721 729 691 688 725 755 700 735 737 711 725 716 723 767 695 768 746 773 764 773 734 704 744 742 703 747 772 778 810 750 761 767 742 789 780 784 781 743 794 791 766 743 799 787 762 768 783 788 793 840 0 0 0 0 0 0 0 0 0 0 0 0 0 0 0 0 0 0 0 0 0 0 0 0 0 0 0 0 0 0 0 0 0 0 0 0 0 0 0 0 0 0 0 0 0 0 0
553 532 563 524 532 560 547 588 581 598 584 589 568 578 601 573 590 602 591 568 566 589 600 587 593 591 599 584 607 574 577 626 607 616 604 583 619 595 620 639 614 622 583 595 599 591 646 624 663 625 630 610 605 649 651 642 647 619 631 644 661 620 634 668 640 649 655 637 642 641 671 644 657 657 653 657 626 653 653 665 641 680 666 676 683 697 662 714 654 699 689 668 688 690 681 0 661 691 726 681 735 0 0 0 0 0 0 0 0 0 0 0 0 0 0 0 0 0 0 0
501 495 478 513 505 496 511 489 491 496 498 513 493 486 522 495 495 522 509 519 517 520 493 526 508 503 497 497 514 507 522 498 511 503 510 542 516 520 514 511 500 518 522 528 526 512 533 518 556 540 524 522 518 536 533 543 540 533 549 540 534 558 544 527 527 544 548 534 530 535 521 535 546 545 547 532 572 564 553 545 554 537 534 546 566 547 578 558 565 595 567 535 600 567 546 546 581 591 597 591 643 595 598 565 0 0 0 574 626 597 0 0 0 0 0 0 0 0 0 0
430 414 446 445 445 437 438 436 416 428 442 461 442 440 443 417 433 426 437 438 475 456 441 455 452 440 438 448 462 457 442 474 448 445 459 453 459 452 438 454 471 452 465 481 475 460 474 464 466 463 473 457 476 471 484 463 479 465 492 469 474 478 470 473 473 487 485 474 479 487 467 473 483 489 476 495 473 484 482 483 480 481 467 495 486 496 502 496 463 469 496 504 495 493 489 469 471 481 506 504 501 533 470 465 472 502 501 497 496 513 486 533 0 0 0 0 0 0 0 0
401 410 392 393 400 389 392 400 400 392 410 393 399 403 386 405 401 407 389 407 391 400 407 416 415 406 411 409 408 425 410 415 412 413 415 419 418 416 425 416 421 417 425 406 417 424 417 417 428 422 427 440 424 427 433 416 422 418 431 412 427 432 431 436 420 437 404 416 430 433 440 417 417 438 435 411 436 416 427 421 423 439 439 434 448 426 428 428 447 422 440 439 424 421 440 429 442 455 443 453 447 444 435 417 451 465 437 440 440 408 443 443 433 468 0 0 0 0 0 0
345 365 336 344 352 352 356 346 361 351 365 353 363 365 358 359 375 353 359 364 360 367 357 371 364 362 361 364 369 366 367 378 367 376 368 362 384 378 371 375 369 376 387 368 362 372 380 366 384 373 397 377 386 383 377 370 378 370 381 382 391 380 376 379 386 368 379 382 385 385 381 403 381 382 395 381 380 384 380 388 396 387 379 386 378 397 389 386 391 404 377 413 371 374 378 388 368 387 393 393 383 391 378 413 396 391 384 384 387 380 383 389 382 380 410 380 0 0 0 0
306 328 329 317 332 320 325 317 333 325 343 330 334 336 340 334 351 349 348 359 332 356 334 343 348 347 339 339 328 332 341 360 340 348 331 345 333 336 339 340 330 337 333 336 335 341 338 347 332 346 349 340 349 332 340 346 359 334 337 348 353 358 339 357 347 343 349 348 358 339 353 358 345 352 345 339 350 353 352 347 356 349 344 360 335 361 346 351 358 343 352 349 365 339 331 358 346 345 348 365 385 357 355 356 347 356 358 360 384 356 363 376 338 354 364 367 350 0 0 0
289 298 310 290 297 302 277 310 295 297 298 294 297 285 297 297 302 298 292 298 294 296 295 301 297 296 295 315 292 319 288 289 294 299 303 304 310 301 302 315 293 316 304 307 315 310 307 321 301 312 303 306 310 313 309 310 318 308 306 317 311 312 312 316 315 312 317 314 313 312 303 317 318 307 316 315 310 311 311 318 322 313 315 308 322 321 318 316 324 322 328 311 308 321 314 336 319 328 318 321 325 323 335 330 299 328 298 311 320 298 305 313 312 303 314 338 338 304 325 0
276 270 268 286 266 281 268 284 273 285 276 276 278 285 289 281 278 276 283 280 280 274 269 272 276 278 281 273 281 280 278 279 275 274 280 274 276 288 280 290 270 288 292 281 280 282 279 278 288 286 285 280 279 276 287 289 281 284 287 289 291 287 289 287 294 288 278 291 289 287 286 282 287 292 287 295 286 287 288 282 287 292 287 290 293 277 282 290 295 299 284 293 292 292 285 299 289 290 295 300 300 304 299 298 295 294 283 295 274 291 292 283 284 300 297 294 325 308 323 321
260 247 254 258 252 250 259 255 250 256 246 258 246 254 262 253 259 263 266 258 252 259 259 256 262 256 257 259 252 259 257 266 261 258 263 259 265 266 261 257 260 265 269 269 269 265 258 255 259 270 270 266 259 269 265 262 260 260 265 263 261 260 267 265 270 266 270 267 270 270 268 264 270 269 265 266 267 268 272 257 268 264 263 283 271 269 260 256 266 267 264 261 268 255 270 274 263 281 273 278 278 274 269 281 269 273 270 269 274 275 267 295 286 268 298 276 256 278 296 236
232 228 234 230 236 232 242 229 239 233 231 235 245 248 240 250 234 237 248 239 234 238 240 244 243 234 244 237 246 244 244 241 245 241 246 242 237 240 244 246 245 253 242 247 243 249 243 244 249 255 243 246 246 248 249 249 244 245 246 246 251 250 249 256 253 257 248 250 254 255 249 246 254 255 242 256 249 253 248 245 245 244 251 245 254 257 246 250 245 248 260 253 254 248 249 244 250 249 253 243 245 242 255 250 254 246 262 254 258 252 250 236 258 261 236 228 247 258 258 231
219 217 221 215 218 221 223 216 222 219 227 220 223 227 227 222 228 221 233 229 226 229 226 233 227 225 225 229 234 230 225 225 231 231 240 232 223 226 228 235 240 227 231 236 240 231 222 236 236 231 230 235 228 231 230 233 233 232 239 233 239 234 236 230 236 230 230 234 231 232 243 234 233 239 235 235 236 233 233 231 235 232 234 229 234 227 236 243 242 225 230 235 241 234 230 234 231 240 244 235 243 234 240 239 233 233 235 239 239 248 240 251 250 249 240 244 232 262 222 250
203 205 216 211 211 202 208 209 212 212 210 211 210 214 213 218 211 212 212 216 215 210 198 195 194 220 212 218 214 199 218 210 214 215 213 217 216 214 214 213 217 218 213 194 216 215 216 216 217 219 216 216 221 220 219 219 218 203 221 221 219 218 222 221 222 214 224 216 219 219 220 204 220 218 201 217 225 222 199 221 218 225 227 227 219 218 224 220 216 216 223 218 220 222 225 225 226 217 228 225 214 215 227 223 225 228 218 224 218 233 231 220 221 213 229 240 226 222 234 209
191 197 197 197 207 201 201 197 185 196 199 201 183 208 203 189 193 203 192 189 190 189 193 190 183 182 186 195 186 194 189 187 197 195 197 192 187 197 191 190 191 192 186 196 199 190 196 194 200 191 190 194 192 191 189 199 200 196 194 196 193 191 192 193 195 190 195 190 197 196 194 202 201 191 194 186 196 191 192 190 190 192 193 191 214 202 200 192 198 196 213 197 191 213 195 184 190 189 212 196 205 207 205 195 219 204 206 208 203 202 212 219 219 217 200 215 209 207 194 175
178 178 197 195 177 176 182 187 183 183 179 176 177 177 182 185 181 187 186 188 183 185 180 188 180 191 189 190 182 183 194 183 185 193 195 196 192 189 195 194 197 195 196 194 197 198 194 198 195 192 196 197 195 197 192 199 201 200 199 193 194 195 200 199 195 197 196 197 189 196 195 194 198 196 193 198 189 188 195 191 191 194 189 185 191 190 187 192 183 185 180 192 182 183 187 188 185 183 190 183 189 191 176 191 194 187 187 188 202 188 179 181 203 196 180 183 195 198 212 172
174 167 170 177 172 171 179 180 175 179 182 182 177 178 184 178 187 185 179 184 185 189 188 184 185 185 186 186 187 187 184 181 186 189 184 186 185 188 187 186 181 185 189 194 190 188 188 189 193 188 189 192 189 191 186 193 186 191 185 188 182 188 187 192 191 190 187 187 188 186 190 189 190 188 188 190 193 191 189 189 188 187 185 182 196 194 188 189 183 187 186 193 191 186 185 183 180 187 184 179 182 179 176 177 186 182 181 183 177 175 175 175 178 203 180 177 200 200 197 179
171 166 161 167 173 172 168 176 168 163 170 176 173 171 177 178 171 175 173 177 175 172 172 173 170 168 179 172 174 177 174 180 177 179 177 177 176 175 176 175 177 175 178 170 180 176 179 177 181 183 184 174 175 185 176 183 188 176 177 183 174 178 180 182 179 182 177 182 177 176 178 180 176 181 180 177 181 177 180 178 176 177 177 171 179 179 178 180 180 175 183 179 175 177 172 174 175 179 184 178 176 177 180 176 178 179 167 177 173 176 168 173 172 168 179 174 172 170 168 167
164 163 165 166 159 171 162 159 162 159 167 167 163 162 168 173 170 170 171 173 170 167 172 170 167 162 172 168 168 174 169 166 167 166 169 171 173 169 171 171 163 166 172 164 168 171 168 172 178 167 166 172 173 176 172 172 169 174 173 171 175 171 176 170 174 176 171 170 176 168 173 175 172 172 171 170 172 178 170 171 168 172 177 168 166 171 175 176 177 167 174 172 168 170 171 173 174 173 168 170 172 173 168 173 179 174 177 166 168 166 173 168 164 172 172 176 170 175 161 173
155 159 168 162 161 157 163 157 152 162 159 160 158 158 160 157 154 165 167 166 159 161 163 160 162 164 161 155 160 162 163 169 161 165 158 163 161 163 162 159 162 164 166 160 165 162 165 162 159 159 162 167 164 165 163 168 160 164 160 169 163 166 161 158 167 167 161 164 168 161 165 163 168 168 165 168 168 166 167 162 159 156 167 164 163 166 172 168 166 168 165 162 159 164 164 164 161 158 170 166 164 165 158 168 164 160 160 156 161 160 162 161 161 157 167 151 140 166 149 168
145 147 153 151 145 152 145 152 146 154 146 151 149 151 156 154 152 156 155 156 151 152 152 155 158 154 155 153 158 158 157 154 155 153 149 155 148 157 151 162 152 155 159 156 160 153 157 155 155 157 156 156 160 155 156 157 160 161 160 161 157 154 158 159 157 156 156 155 152 149 158 159 160 161 157 158 161 161 158 155 161 158 156 156 154 157 157 159 158 156 154 157 153 152 157 155 152 152 155 157 151 153 158 159 154 153 147 155 151 157 153 158 152 160 157 142 145 152 151 150
136 145 148 142 146 147 143 146 147 144 150 152 144 148 148 144 140 153 138 152 147 146 160 154 147 149 147 152 149 149 151 148 148 149 147 147 144 153 148 154 151 149 153 156 147 149 149 148 147 153 149 154 148 151 148 145 149 154 152 154 152 149 152 154 148 155 149 153 155 149 149 155 155 154 153 153 153 155 154 148 153 151 153 149 145 149 152 154 150 146 148 154 153 153 156 152 151 150 155 156 150 157 156 150 149 146 145 147 145 154 151 152 152 146 158 146 147 153 143 111
133 132 134 138 138 138 134 138 137 138 140 141 141 143 140 136 146 139 141 146 142 143 142 145 138 142 149 142 143 138 138 127 141 141 129 142 143 141 144 145 141 145 146 145 142 144 145 140 146 142 141 143 146 141 143 144 143 148 149 144 144 144 146 146 144 141 147 153 142 136 143 146 139 148 146 147 149 146 148 145 144 143 145 143 148 139 148 144 151 145 148 145 141 143 148 148 138 146 152 146 141 146 148 139 141 139 143 141 138 147 134 136 141 147 139 149 146 136 147 133
127 135 132 130 130 138 134 136 137 138 134 0 130 138 133 136 139 140 139 140 147 140 144 139 136 144 145 137 137 140 136 128 132 129 140 129 130 126 137 138 126 143 142 140 137 141 127 142 126 139 139 141 132 142 143 141 144 147 143 133 131 131 131 144 134 140 142 141 142 128 131 143 143 143 142 140 147 143 142 145 146 139 127 139 139 143 144 137 138 138 137 138 144 145 143 141 143 140 138 142 145 142 142 139 144 136 135 142 146 136 139 134 132 132 136 136 132 137 136 157
132 132 129 130 133 136 144 134 132 133 137 135 139 136 135 134 127 138 137 125 138 139 137 139 142 137 139 136 139 125 125 135 129 129 124 126 127 129 126 125 141 138 130 129 0 139 128 127 126 125 122 128 140 133 0 141 0 130 130 126 131 141 140 133 127 122 139 129 142 128 132 129 131 129 127 128 131 139 139 131 136 139 124 127 139 125 127 124 139 141 134 136 139 136 138 137 137 143 141 142 135 132 133 142 137 134 120 130 135 133 136 133 134 140 145 144 135 144 130 145
116 101 125 104 111 119 136 123 113 109 131 117 115 119 119 131 131 130 123 119 121 126 135 125 126 137 136 137 0 130 125 119 120 125 118 114 125 125 124 121 125 128 126 127 0 0 126 124 129 120 121 120 125 127 124 129 130 127 128 120 124 119 123 127 124 129 128 126 124 126 125 120 123 126 116 121 119 128 121 120 128 123 122 127 120 124 124 124 121 122 124 122 127 124 122 117 124 139 125 131 129 124 121 121 115 122 116 127 115 128 126 127 134 126 136 122 115 132 127 104
113 114 121 110 114 121 121 118 118 115 123 119 118 121 122 118 109 121 122 121 136 121 126 121 124 122 130 126 124 126 128 0 124 126 112 117 119 118 0 121 128 124 0 0 0 0 123 126 121 123 125 120 123 123 121 127 119 120 121 120 121 119 115 123 126 120 124 122 121 121 125 125 124 121 118 116 122 128 129 123 117 114 124 123 119 116 123 123 122 122 117 121 117 119 121 120 124 122 117 120 120 117 121 114 106 117 117 114 128 132 117 134 127 120 106 127 116 127 122 131
102 97 113 112 109 112 113 115 117 109 119 113 115 107 110 111 118 112 110 122 114 109 111 118 115 116 118 114 116 115 120 0 113 115 113 110 116 0 114 117 118 0 0 118 123 0 120 118 115 113 117 116 117 122 120 121 121 119 115 120 120 121 121 119 119 119 117 119 120 113 119 117 116 115 116 113 124 119 115 119 112 116 112 118 115 112 115 116 114 121 122 122 116 111 107 121 128 119 113 116 116 123 118 113 113 115 130 116 123 122 124 127 109 126 120 133 115 109 99 134
97 102 106 101 95 103 116 107 101 108 111 105 108 113 122 116 115 108 105 101 109 107 111 102 109 109 117 111 114 119 116 111 113 114 112 109 108 111 0 112 117 112 111 109 112 113 114 0 112 0 110 110 117 114 0 0 107 105 116 107 125 111 106 110 108 112 103 111 117 108 114 105 111 103 107 107 109 107 112 113 107 105 105 106 116 106 113 107 106 113 110 109 101 109 115 111 114 111 109 109 100 107 112 105 103 106 106 107 111 117 108 113 106 97 96 108 115 93 108 100
97 101 104 109 108 105 109 105 110 107 106 113 112 113 114 118 109 106 113 102 106 97 103 105 114 106 105 113 105 116 109 107 102 109 109 111 114 0 107 108 109 104 110 100 103 109 108 104 114 0 111 107 108 110 107 111 102 112 113 107 105 106 116 0 111 110 105 112 113 105 104 96 106 115 104 100 101 101 104 107 111 103 105 109 99 97 101 105 108 101 105 111 103 104 98 106 100 111 110 102 99 115 106 115 111 102 101 103 100 112 104 109 120 109 115 110 103 106 117 122
93 93 103 104 94 92 96 97 93 91 95 102 100 100 103 104 94 107 98 99 100 99 89 97 102 103 105 99 97 104 104 103 101 99 104 97 104 105 101 106 105 100 99 96 95 100 102 95 103 100 104 96 102 106 103 103 100 102 105 96 99 105 103 0 106 104 0 109 103 107 104 103 96 102 99 107 100 100 0 103 0 100 95 98 94 101 97 95 97 100 101 103 96 97 94 92 97 98 97 98 97 98 97 94 96 93 89 98 92 87 78 97 84 115 100 87 80 88 104 116
86 95 81 97 94 93 94 93 93 90 102 98 99 99 98 94 100 89 96 94 98 97 90 85 91 95 103 98 97 100 106 103 106 102 100 103 95 102 102 93 99 100 96 92 99 100 104 99 102 102 105 100 100 99 93 100 99 106 99 101 104 100 106 101 111 106 105 104 103 99 100 104 101 99 96 99 103 99 99 96 0 101 95 90 98 98 95 104 87 99 100 97 94 99 88 100 93 92 85 101 96 94 97 91 90 101 99 92 91 95 86 91 96 94 85 97 111 91 94 115
87 97 92 99 91 93 90 83 85 91 95 92 99 88 87 83 87 90 104 107 101 95 81 89 91 92 99 95 89 95 98 100 100 94 95 100 95 94 93 102 95 93 86 90 98 92 103 98 92 97 99 92 86 92 99 93 90 91 99 98 95 94 97 0 99 102 97 97 98 96 98 99 102 99 87 103 98 100 100 103 96 101 86 106 96 94 88 89 88 92 89 90 89 95 84 83 91 92 100 90 93 94 100 94 97 94 97 79 89 88 92 93 90 79 92 95 109 101 90 78
87 79 75 89 89 86 86 87 78 89 84 86 92 88 84 91 86 86 93 90 91 91 93 86 87 86 96 89 89 94 88 87 97 92 89 90 86 93 93 92 97 83 97 85 90 94 88 88 92 97 92 93 89 93 96 90 96 90 94 89 87 92 90 91 91 96 93 92 98 97 90 93 91 90 97 96 90 95 86 93 88 90 95 86 96 93 93 88 92 89 92 91 95 88 92 90 92 87 89 92 86 84 87 80 88 91 89 88 88 82 85 87 89 82 87 88 82 54 82 82
87 80 82 83 86 82 91 98 87 91 87 91 88 87 91 87 93 92 95 91 81 97 92 87 89 88 92 90 89 86 95 91 97 88 95 93 94 94 90 99 88 91 94 91 95 91 94 94 88 89 95 97 91 90 96 92 91 87 88 97 90 91 98 92 88 91 93 88 88 94 89 87 98 91 95 88 95 94 83 93 94 87 95 90 86 95 93 94 87 87 98 96 103 88 89 87 84 93 93 96 92 92 86 93 84 92 91 81 86 77 83 84 82 81 78 90 95 75 0 0
83 86 84 84 83 85 85 87 83 0 82 81 86 86 87 92 87 89 89 85 92 90 87 93 92 93 87 88 88 94 83 93 88 93 91 91 94 93 96 93 85 89 90 83 85 97 91 96 91 96 98 86 87 93 93 86 98 95 98 94 91 98 91 87 89 88 93 94 92 92 95 95 88 88 92 90 96 90 97 96 89 95 90 85 96 90 82 95 94 94 88 95 98 91 86 89 92 83 86 82 81 92 91 91 80 86 85 89 94 84 83 93 81 87 87 83 81 87 100 0
75 76 82 86 82 92 91 87 87 80 80 82 87 86 84 86 82 84 85 84 86 87 88 86 86 82 94 90 89 86 82 87 93 87 89 91 88 91 91 86 89 87 85 96 87 85 97 95 91 89 92 96 91 83 93 94 91 91 93 96 89 91 93 87 83 93 86 89 93 94 90 93 90 94 97 87 85 95 96 84 89 87 93 93 85 90 90 86 90 84 91 90 82 83 77 76 86 84 90 84 76 79 85 91 80 87 90 88 79 84 80 95 86 93 86 82 102 68 0 0
79 75 74 76 86 86 91 91 81 82 80 77 90 83 89 85 83 92 90 90 90 90 87 84 87 93 86 87 89 90 93 84 88 94 91 86 91 88 87 91 92 83 90 95 84 87 92 87 97 96 90 81 91 84 91 93 87 95 89 88 93 90 82 95 88 93 86 84 87 89 92 94 86 90 94 84 88 92 95 86 94 89 85 86 95 89 88 86 87 90 85 91 82 87 85 85 90 87 90 85 86 92 83 89 84 90 88 91 83 72 77 82 94 73 91 0 0 0 0 0
77 69 65 61 74 76 87 84 81 76 80 79 81 89 81 76 74 76 79 80 84 75 84 76 69 73 78 81 80 78 88 72 82 85 85 75 83 76 85 80 86 79 79 70 81 83 83 84 85 80 83 75 81 85 82 79 84 83 82 72 86 75 79 77 78 80 75 77 75 76 85 79 80 80 78 78 73 85 86 83 74 82 71 76 75 82 80 76 79 86 83 69 77 75 80 75 72 82 75 74 70 71 74 57 68 70 78 71 68 84 68 63 81 72 83 56 0 0 0 0
70 70 73 81 72 79 86 88 83 75 76 88 73 80 82 84 81 82 80 77 76 81 75 74 87 82 78 72 79 77 82 84 85 80 83 72 82 80 76 80 89 79 84 81 83 90 79 75 84 78 82 74 77 78 79 81 85 77 83 64 87 78 79 82 75 80 82 75 90 71 78 80 82 83 85 82 75 81 85 85 85 79 78 78 71 81 80 70 79 86 70 86 70 74 88 76 83 82 71 73 90 70 77 65 69 78 72 83 81 79 74 70 53 82 68 0 0 0 0 0
