0 0 0 0 0 0 0 0 0 0 0 0 0 0 0 0 0 0 0 0 0 0 0 0 0 0 0 0 0 0 0 0 0 0 0 0 0 0 0 0 0 0 0 0 0 0 0 0 0 0 0 0 0 0 0 0 0 0 0 0 0 0 0 0 0 0 0 0 0 0 0 0 0 0 0 0 0 0 0 0 0 0 0 0 0 0 0 0 0 0 0 0 0 0 0 0 0 0 0 0 0 0 0 0 0 0 0 0 0 0 0 0 0 0 0 0 0 0 0 0
0 0 0 0 0 0 0 0 0 0 0 0 0 0 0 0 0 0 0 0 0 0 0 0 0 0 0 0 0 0 0 0 0 0 0 0 0 0 0 0 0 0 0 0 0 0 0 0 0 0 0 0 0 0 0 0 0 0 0 0 0 0 0 0 0 0 0 0 0 0 0 0 0 0 0 0 0 0 0 0 0 0 0 0 0 0 0 0 0 0 0 0 0 0 0 0 0 0 0 0 0 0 0 0 0 0 0 0 0 0 0 0 0 0 0 0 0 0 0 0
0 0 0 0 0 0 0 0 0 0 0 0 0 0 0 0 0 1258 0 0 0 0 1263 0 0 0 0 0 0 0 0 0 0 0 0 0 0 0 0 0 0 0 0 0 0 0 0 0 0 0 0 0 0 0 0 0 0 0 0 0 0 0 0 0 0 0 0 0 0 0 0 0 0 0 0 0 0 0 0 0 0 0 0 0 0 0 0 0 0 0 0 0 0 0 0 0 0 0 0 0 0 0 0 0 0 0 0 0 0 0 0 0 0 0 0 0 0 0 0 0
0 0 0 0 0 0 0 0 0 0 0 1120 1130 1109 0 0 1259 1304 0 0 0 0 1270 1255 0 0 0 0 0 0 0 0 0 0 0 0 0 0 0 0 0 0 0 0 0 0 0 0 0 0 0 0 0 0 0 0 0 0 0 0 0 0 0 0 0 0 0 0 0 0 0 0 0 0 0 0 0 0 0 0 0 0 0 0 0 0 0 0 0 0 0 0 0 0 0 0 0 0 0 0 0 0 0 0 0 0 0 0 0 0 0 0 0 0 0 0 0 0 0 0
0 0 0 0 0 0 0 0 1137 1134 1113 1118 1139 1160 1147 0 1240 1288 1254 0 1286 1248 1259 0 0 0 0 0 0 0 0 0 0 0 0 0 0 0 0 0 0 0 0 0 0 0 0 0 0 0 0 0 0 0 0 0 0 0 0 0 0 0 0 0 0 0 0 0 0 0 0 0 0 0 0 0 0 0 0 0 0 0 0 0 0 0 0 0 0 0 0 0 0 0 0 0 0 0 0 0 0 0 0 0 0 0 0 0 0 0 0 0 0 0 0 0 0 0 0 0
0 0 0 0 0 0 1150 1140 1159 1175 1196 1163 1185 1172 1192 1228 1280 1295 1288 1281 1262 1274 1261 1280 0 0 0 0 0 0 0 1398 0 0 0 0 0 0 0 0 0 0 0 0 0 0 0 0 0 0 0 0 0 0 0 0 0 0 0 0 0 0 0 0 0 0 0 0 0 0 0 0 0 0 0 0 0 0 0 0 0 0 0 0 0 0 0 0 0 0 0 0 0 0 0 0 0 0 0 0 0 0 0 0 0 0 0 0 0 0 0 0 0 0 0 0 0 0 0 0
0 0 0 0 0 0 0 0 0 0 0 0 1206 1224 1248 1277 1286 1291 1315 1285 1254 1280 1278 1264 1315 0 0 0 0 0 0 1437 0 0 0 0 0 0 0 0 0 0 0 0 0 0 0 0 0 0 0 0 0 0 0 0 0 0 0 0 0 0 0 0 0 0 0 0 0 0 0 0 0 0 0 0 0 0 0 0 0 0 0 0 0 0 0 0 0 0 0 0 0 0 0 0 0 0 0 0 0 0 0 0 0 0 0 0 0 0 0 0 0 0 0 0 0 0 0 0
0 0 0 0 0 0 0 0 0 0 0 0 1295 1242 1276 1269 1306 1309 1277 1261 1289 1282 1293 1279 0 1354 1326 1406 1336 1400 0 1427 0 0 0 0 0 0 0 0 0 0 0 0 0 0 0 0 0 0 0 0 0 0 0 0 0 0 0 0 0 0 0 0 0 0 0 0 0 0 0 0 0 0 0 0 0 0 0 0 0 0 0 0 0 0 0 0 0 0 0 0 0 0 0 0 0 0 0 0 0 0 0 0 0 0 1772 0 0 0 0 0 0 0 0 0 0 0 0 0
0 0 0 0 0 0 0 0 0 0 0 0 1243 1276 1316 1286 1294 1292 1258 1280 1304 1258 1270 1271 0 0 1377 1397 1376 1319 1366 1414 0 0 0 0 0 0 0 0 0 0 0 0 0 0 0 0 0 0 0 0 0 0 0 0 0 0 0 0 0 0 0 0 0 0 0 0 0 0 0 0 0 0 0 0 0 0 0 0 0 0 0 0 0 0 0 0 0 0 0 0 0 0 0 0 0 0 0 0 0 0 0 1795 1785 1704 1769 1757 0 0 0 0 0 0 0 0 0 0 0 0
0 0 0 0 0 0 0 0 0 0 0 0 0 1315 1272 1266 1279 1250 1242 1275 1253 1239 1258 1276 1259 0 0 1343 1313 1354 1374 1392 1438 0 0 0 0 0 0 0 0 0 0 0 0 0 0 0 0 0 0 0 0 0 0 0 0 0 0 0 0 0 0 0 0 0 0 0 0 0 0 0 0 0 0 0 0 0 0 0 0 0 0 0 0 0 0 0 0 0 0 0 0 0 0 0 0 0 0 0 0 0 0 0 0 0 1779 1765 1725 0 0 0 0 0 0 0 0 0 0 0
0 0 0 0 0 0 0 0 0 0 0 0 0 0 0 0 0 0 0 0 0 1255 1262 1245 1227 0 0 1318 1327 1330 1341 1406 1385 0 0 0 0 0 0 0 0 0 0 0 0 0 0 0 0 0 0 0 0 0 0 0 0 0 0 0 0 0 0 0 0 0 0 0 0 0 0 0 0 0 0 0 0 0 0 0 0 0 0 0 0 0 0 0 0 0 0 0 0 0 0 0 0 0 0 0 0 0 0 0 1711 1666 1719 1683 0 0 0 0 0 0 0 0 0 0 0 0
0 0 0 0 0 0 0 0 0 0 0 0 0 0 0 0 0 0 0 0 0 0 0 1386 1304 0 0 1313 1325 1335 1330 1379 1381 0 0 0 0 0 0 0 0 0 0 0 0 0 0 0 0 0 0 0 0 0 0 0 0 0 0 0 0 0 0 0 0 0 0 0 0 0 0 0 0 0 0 0 0 0 0 0 0 0 0 0 0 0 0 0 0 0 0 0 0 0 0 0 0 0 0 0 0 0 0 0 1718 0 1730 1752 0 0 0 0 0 0 0 0 0 0 0 0
0 0 0 0 0 0 0 0 0 0 0 0 0 0 0 0 0 0 0 0 0 0 0 1370 1371 1324 1272 0 1310 1347 1375 1386 1409 0 0 0 0 0 0 0 0 0 0 0 0 0 0 0 0 0 0 0 0 0 0 0 0 0 0 0 0 0 0 0 0 0 0 0 0 0 0 0 0 0 0 0 0 0 0 0 0 0 0 0 0 0 0 0 0 0 0 0 0 0 0 0 0 0 0 0 0 0 0 0 0 1725 1705 1673 0 0 0 0 0 0 0 0 0 0 0 0
0 0 0 0 0 0 0 0 0 0 0 0 0 0 0 0 0 0 0 0 0 0 0 1428 1385 1376 1351 1307 1333 1337 1344 1419 1443 0 0 0 0 0 0 0 0 0 0 0 0 0 0 0 0 0 0 0 0 0 0 0 0 0 0 0 0 0 0 0 0 0 0 0 0 0 0 0 0 0 0 0 0 0 0 0 0 0 0 0 0 0 0 0 0 0 0 0 0 0 0 0 0 0 0 0 0 0 0 0 1718 1706 1702 1716 1658 0 0 0 0 0 0 0 0 0 0 0
0 0 0 0 0 0 0 0 0 0 0 0 0 0 0 0 0 0 0 0 0 0 0 1332 1377 1380 1366 1360 1328 1346 1345 1394 1424 0 0 0 0 0 0 0 0 0 0 0 0 0 0 0 0 0 0 0 0 0 0 0 0 0 0 0 0 0 0 0 0 0 0 0 0 0 0 0 0 0 0 0 0 0 0 0 0 0 0 0 0 0 0 0 0 0 0 0 0 0 0 0 0 0 0 0 0 0 0 1731 1728 1722 1724 1710 0 0 0 0 0 0 0 0 0 0 0 0
0 0 0 0 0 0 0 0 0 0 0 0 0 0 0 0 0 0 0 0 0 0 0 1338 1372 1366 1372 1378 1351 1318 1343 1428 1438 0 0 0 0 0 0 0 0 0 0 0 0 0 0 0 0 0 0 0 0 0 0 0 0 0 0 0 0 0 0 0 0 0 0 0 0 0 0 0 0 0 0 0 0 0 0 0 0 0 0 0 0 0 0 0 0 0 0 0 0 0 0 0 0 0 0 0 0 0 1732 1678 0 1773 1665 1698 1652 1657 1683 1653 0 0 0 0 0 0 0 0
1218 1281 1264 1281 1279 1316 1314 0 0 0 0 0 0 0 0 0 0 0 0 0 0 0 0 0 1376 1364 1379 1378 1376 1374 1363 1425 1423 0 0 0 0 0 0 0 0 0 0 0 0 0 0 0 0 0 0 0 0 0 0 0 0 0 0 0 0 0 0 0 0 0 0 0 0 0 0 0 0 0 0 0 0 0 0 0 0 0 0 0 0 0 0 0 0 0 0 0 0 0 0 0 0 0 0 0 0 1790 1818 1790 0 1642 1706 1693 1665 1665 1712 1639 1687 0 0 0 0 0 0 0
1243 1254 1226 1237 1272 1273 1292 1297 1289 1333 1332 0 0 0 0 0 0 0 0 0 0 0 0 1383 1351 1346 1369 1345 1361 1361 1357 1423 1402 0 0 0 0 0 0 0 0 0 0 0 0 0 0 0 0 0 0 0 0 0 0 0 0 0 0 0 0 0 0 0 0 0 0 0 0 0 0 0 0 0 0 0 0 0 0 0 0 0 0 0 0 0 0 0 0 0 0 0 0 0 0 0 0 0 0 0 0 1803 1748 1788 1756 1716 1668 1663 1628 1626 1632 1596 0 0 0 0 0 0 0 0
1210 1235 1270 1261 1278 1294 1296 1302 1299 1324 1330 1347 1360 1371 1368 1377 0 0 0 0 0 0 0 0 0 1335 0 0 1337 0 0 1437 1416 0 0 0 0 0 0 0 0 0 0 0 0 0 0 0 0 0 0 0 0 0 0 0 0 0 0 0 0 0 0 0 0 0 0 0 0 0 0 0 0 0 0 0 0 0 0 0 0 0 0 0 0 0 0 0 0 0 0 0 0 0 0 0 0 0 0 0 0 1753 1777 1752 1690 1648 1640 1660 1644 1644 1610 1592 1610 0 0 0 0 0 0 0
0 0 0 0 1304 1264 1287 1313 1319 1316 1339 1339 1367 1371 1369 1381 1406 1421 1423 1428 0 0 0 0 0 0 0 0 0 0 0 1417 1416 1428 0 0 0 0 0 0 0 0 0 0 0 0 0 0 0 0 0 0 0 0 0 0 0 0 0 0 0 0 0 0 0 0 0 0 0 0 0 0 0 0 0 0 0 0 0 0 0 0 0 0 0 0 0 0 0 0 0 0 0 0 0 0 0 0 0 0 0 1774 1722 1747 1710 1605 1709 1695 1684 1616 1549 0 0 0 0 0 0 0 0 0
0 0 0 0 0 0 0 0 0 1308 1326 1339 1343 1373 1375 1400 1399 1412 1421 1436 1442 1462 0 0 0 0 0 0 0 0 0 1431 1435 1498 0 0 0 0 0 0 0 0 0 0 0 0 0 0 0 0 0 0 0 0 0 0 0 0 0 0 0 0 0 0 0 0 0 0 0 0 0 0 0 0 0 0 0 0 0 0 0 0 0 0 0 0 0 0 0 0 0 0 0 0 0 0 0 0 0 0 0 1798 1723 1663 1610 1608 1581 1617 1595 1581 1572 1551 1555 0 0 0 0 0 0 0
0 0 0 0 0 0 0 0 0 0 0 0 0 0 0 1375 1435 1448 1424 1442 1479 1496 0 0 0 0 0 0 0 0 0 0 1500 0 0 0 0 0 0 0 0 0 0 0 0 0 0 0 0 0 0 0 0 0 0 0 0 0 0 0 0 0 0 0 0 0 0 0 0 0 0 0 0 0 0 0 0 0 0 0 0 0 0 0 0 0 0 0 0 0 0 0 0 0 0 0 0 0 0 0 1661 1645 1599 1636 1616 1617 1629 1624 1602 1608 1571 1568 0 0 0 0 0 0 0 0
0 0 0 0 0 0 0 0 0 0 0 0 0 0 0 0 0 0 0 0 0 1496 0 0 0 0 0 0 0 0 0 0 0 0 0 0 0 0 0 0 0 0 0 0 0 0 0 0 0 0 0 0 0 0 0 0 0 0 0 0 0 0 0 0 0 0 0 0 0 0 0 0 0 0 0 0 0 0 0 0 0 0 0 0 0 0 0 0 0 0 0 0 0 0 0 0 0 0 1673 1627 1669 1647 1645 1616 1637 1635 1622 1638 1597 1602 0 0 0 0 0 0 0 0 0 0
0 0 0 0 0 0 0 0 0 0 0 0 0 0 0 0 0 0 0 0 0 0 0 0 0 0 0 0 0 0 0 0 0 0 0 0 0 0 0 0 0 0 0 0 0 0 0 0 0 0 0 0 0 0 0 0 0 0 0 0 0 0 0 0 0 0 0 0 0 0 0 0 0 0 0 0 0 0 0 0 0 0 0 0 0 0 0 0 0 0 0 0 0 0 0 0 0 1643 1629 1636 1644 1646 1633 1599 1644 1629 1611 1619 1603 0 0 0 0 0 0 0 0 0 0 0
0 0 0 0 0 0 0 0 0 0 0 0 0 0 0 0 0 0 0 0 0 0 0 0 0 0 0 0 0 0 0 0 0 0 0 0 0 0 0 0 0 0 0 0 0 0 0 0 0 0 0 0 0 0 0 0 0 0 0 0 0 0 0 0 0 0 0 0 0 0 0 0 0 0 0 0 0 0 0 0 0 0 0 0 0 0 0 0 0 0 0 0 0 0 0 0 0 0 0 1660 1633 1634 1650 1601 1624 1603 1631 0 0 0 0 0 0 0 0 0 0 0 0 0
0 0 0 0 0 0 0 0 0 0 0 0 0 0 0 0 0 0 0 0 0 0 0 0 0 0 0 0 0 0 0 0 0 0 0 0 0 0 0 0 0 0 0 0 0 0 0 0 0 0 0 0 0 0 0 0 0 0 0 0 0 0 0 0 0 0 0 0 0 0 0 0 0 0 0 0 0 0 0 0 0 0 0 0 0 0 0 0 0 0 0 0 0 0 0 0 0 0 0 0 0 0 0 0 0 0 0 0 0 0 0 0 0 0 0 0 0 0 0 0
573 609 0 0 0 0 0 0 0 0 0 0 0 0 0 0 0 0 0 0 0 0 0 0 0 1809 1849 0 0 0 0 0 0 0 0 0 0 0 0 0 0 0 0 0 0 0 0 2973 2909 2893 2918 2921 2879 2910 2854 2938 2890 2892 2904 2913 2912 2951 2848 2879 2852 2952 0 0 0 0 0 0 0 0 0 0 0 0 0 0 0 0 0 0 0 0 0 0 0 0 0 0 0 0 0 0 0 0 0 0 0 0 0 0 0 0 0 0 0 0 0 0 0 0 0 0 0 0 0 0
562 577 616 602 629 597 0 0 0 0 0 0 0 0 0 0 0 0 0 0 0 0 0 0 0 0 0 1923 0 0 0 0 0 0 0 0 0 0 0 0 0 0 0 0 0 0 0 2933 2934 2968 2932 2929 2900 2916 2945 2912 2924 2912 2946 2944 2905 2865 2864 2929 2864 2875 0 0 0 0 0 0 0 0 0 0 0 0 0 0 0 0 0 0 0 0 0 0 0 0 0 0 0 0 0 0 0 0 0 0 0 0 0 0 0 0 0 0 0 0 0 0 0 0 0 0 0 0 0 0
588 581 589 601 615 621 631 647 647 0 0 0 0 0 0 0 0 0 0 0 0 0 0 0 0 0 0 0 0 0 0 0 0 0 0 0 0 0 0 0 0 0 0 0 0 0 0 2932 2946 2936 2913 2929 2880 2885 2883 2899 2895 2915 2883 2948 2906 2901 2954 2903 2916 0 0 0 0 0 0 0 0 0 0 0 0 0 0 0 0 0 0 0 0 0 0 0 0 0 0 0 0 0 0 0 0 0 0 0 0 0 0 0 0 0 0 0 0 0 0 0 0 0 0 0 0 0 0 0
600 606 590 614 639 641 648 634 678 656 702 677 0 0 0 0 0 0 0 0 0 0 0 0 0 0 0 0 0 0 0 0 0 0 0 0 0 0 0 0 0 0 0 0 0 0 0 2901 2883 2896 2905 2887 2860 2909 2906 2938 2883 2860 2910 2871 2879 2921 2864 2895 2854 2869 0 0 0 0 0 0 0 0 0 0 0 0 0 0 0 0 0 0 0 0 0 0 0 0 0 0 0 0 0 0 0 0 0 0 0 0 0 0 0 0 0 0 0 0 0 0 0 0 0 0 0 0 0 0
575 578 605 601 640 629 631 624 663 673 677 702 723 711 768 0 0 0 0 0 0 0 0 0 0 0 0 0 0 0 0 0 0 0 0 0 0 0 0 0 0 0 0 0 0 0 0 2906 2874 2897 2926 2921 2881 2876 2908 2898 2882 2921 2946 2890 2881 2881 2878 2908 2876 0 0 0 0 0 0 0 0 0 0 0 0 0 0 0 0 0 0 0 0 0 0 0 0 0 0 0 0 0 0 0 0 0 0 0 0 0 0 0 0 0 0 0 0 0 0 0 0 0 0 0 0 0 0 0
756 777 773 756 726 672 661 676 677 660 679 684 707 721 754 755 770 823 0 0 0 0 0 0 0 0 0 0 0 0 0 0 0 0 0 0 0 0 0 0 0 0 0 0 0 0 0 2941 2976 2903 2891 2900 2886 2910 2881 2925 2941 2877 2898 2882 2883 2861 2867 2898 2875 0 0 0 0 0 0 0 0 0 0 0 0 0 0 0 0 0 0 0 0 0 0 0 0 0 0 0 0 0 0 0 0 0 0 0 0 0 0 0 0 0 0 0 0 0 0 0 0 0 0 0 0 0 0 0
806 801 801 824 841 855 833 848 840 810 766 753 742 747 740 762 788 767 816 828 856 0 0 0 0 0 0 0 0 0 0 0 0 0 0 0 0 0 0 0 0 0 0 0 0 0 0 2904 2872 2907 2885 2892 2888 2898 2903 2912 2907 2880 2908 2910 2874 2856 2882 2868 2872 2878 0 0 0 0 0 0 0 0 0 0 0 0 0 0 0 0 0 0 0 0 0 0 0 0 0 0 0 0 0 0 0 0 0 0 0 0 0 0 0 0 0 0 0 0 0 0 0 0 0 0 0 0 0 0
773 793 804 813 839 849 870 881 897 918 893 903 933 887 843 796 768 778 787 794 813 842 855 871 0 0 0 0 0 0 0 0 0 0 0 0 0 0 0 0 0 0 0 0 0 0 0 2933 2964 2927 2900 2906 2922 2897 2927 2934 2947 2863 2948 2929 2925 2914 2919 2946 2926 2910 0 0 0 0 0 0 0 0 0 0 0 0 0 0 0 0 0 0 0 0 0 0 0 0 0 0 0 0 0 0 0 0 0 0 0 0 0 0 0 0 0 0 0 0 0 0 0 0 0 0 0 0 0 0
588 0 848 834 840 856 856 881 900 913 931 943 941 956 939 946 940 932 897 847 843 838 866 896 904 910 0 0 0 0 0 0 0 0 0 0 0 0 0 0 0 0 0 0 0 0 0 2909 2894 2935 2949 2911 2938 2937 2909 2967 2915 2897 2891 2918 2929 2863 2884 2901 2922 2871 0 0 0 0 0 0 0 0 0 0 0 0 0 0 0 0 0 0 0 0 0 0 0 0 0 0 0 0 0 0 0 0 0 0 0 0 0 0 0 0 0 0 0 0 0 0 0 0 0 0 0 0 0 0
636 894 932 932 916 905 912 931 877 929 952 951 946 950 941 953 957 944 953 949 933 905 901 887 896 940 948 989 976 0 0 0 0 0 0 0 0 0 0 0 0 0 0 0 0 0 0 2929 2957 2902 2951 2938 2939 2937 2944 2913 2925 2872 2953 2891 2936 2884 2891 2948 2935 2925 0 0 0 0 0 0 0 0 0 0 0 0 0 0 0 0 0 0 0 0 0 0 0 0 0 0 0 0 0 0 0 0 0 0 0 0 0 0 0 0 0 0 0 0 0 0 0 0 0 0 0 0 0 0
584 727 0 0 0 0 0 0 0 0 985 968 975 963 958 968 983 944 935 955 952 948 953 940 965 954 941 974 1001 1029 1058 0 0 0 0 0 0 0 0 0 0 0 0 0 0 0 0 2903 2923 2932 2885 2908 2937 2918 2945 2933 2922 2916 2895 2888 2892 2869 2868 2848 2880 2858 0 0 0 0 0 0 0 0 0 0 0 0 0 0 0 0 0 0 0 0 0 0 0 0 0 0 0 0 0 0 0 0 0 0 0 0 0 0 0 0 0 0 0 0 0 0 0 0 0 0 0 0 0 0
613 652 631 0 1145 1154 1187 1147 1166 1143 1156 1147 1172 1163 1152 1166 1135 1034 0 0 1031 1067 1075 1013 1017 1024 1139 1134 1114 1081 1119 0 0 0 0 0 0 0 0 0 0 0 0 0 0 0 0 2918 2865 2938 2898 2894 2913 2879 2931 2918 2844 2873 2863 2868 2896 2911 2869 2820 2885 2862 0 0 0 0 0 0 0 0 0 0 0 0 0 0 0 0 0 0 0 0 0 0 0 0 0 0 0 0 0 0 0 0 0 0 0 0 0 0 0 0 0 0 0 0 0 0 0 0 0 0 0 0 0 0
556 594 616 603 0 0 0 0 0 0 0 0 0 0 0 0 1387 1061 0 0 0 1112 1113 0 0 1108 1154 1164 1146 1159 1131 0 0 0 0 0 0 0 0 0 0 0 0 0 0 0 0 2898 2902 2911 2877 2903 2906 2872 2941 2861 2854 2890 2888 2853 2933 2879 2880 2847 2834 0 0 0 0 0 0 0 0 0 0 0 0 0 0 0 0 0 0 0 0 0 0 0 0 0 0 0 0 0 0 0 0 0 0 0 0 0 0 0 0 0 0 0 0 0 0 0 0 0 0 0 0 0 0 0
607 619 612 597 612 0 0 0 0 0 0 0 0 0 0 0 0 991 982 0 0 0 0 0 0 0 0 0 0 0 0 0 0 0 0 0 0 0 0 0 0 0 0 0 0 0 0 2919 2920 2892 2896 2885 2894 2931 2883 2922 2899 2925 2886 2888 2886 2862 2902 2860 2899 0 0 0 0 0 0 0 0 0 0 0 0 0 0 0 0 0 0 0 0 0 0 0 0 0 0 0 0 0 0 0 0 0 0 0 0 0 0 0 0 0 0 0 0 0 0 0 0 0 0 0 0 0 0 0
599 600 636 623 629 718 0 0 0 0 0 0 0 0 0 0 0 0 0 0 0 0 0 0 0 0 0 0 0 0 0 0 0 0 0 0 0 0 0 0 0 0 0 0 0 0 0 2884 2868 2862 2867 2889 2853 2902 2857 2862 2881 2847 2901 2877 2899 2868 2863 2875 2818 0 0 0 0 0 0 0 0 0 0 0 0 0 0 0 0 0 0 0 0 0 0 0 0 0 0 0 0 0 0 0 0 0 0 0 0 0 0 0 0 0 0 0 0 0 0 0 0 0 0 0 0 0 0 0
580 579 574 595 595 601 0 0 0 0 0 0 0 0 0 0 0 0 0 0 0 0 941 0 0 0 0 0 0 0 0 0 0 0 0 0 0 0 0 0 0 0 0 0 0 0 0 2945 2945 2912 2949 2906 2934 2936 2925 2862 2909 2948 2918 2922 2894 2910 2902 2906 2899 0 0 0 0 0 0 0 0 0 0 0 0 0 0 0 0 0 0 0 0 0 0 0 0 0 0 0 0 0 0 0 0 0 0 0 0 0 0 0 0 0 0 0 0 0 0 0 0 0 0 0 0 0 0 0
569 584 603 597 607 621 595 0 0 0 0 0 0 0 0 0 0 0 0 0 0 0 939 0 0 0 0 0 0 0 0 0 0 0 0 0 0 0 0 0 0 0 0 0 0 0 0 2885 2903 2888 2904 2952 2874 2907 2931 2971 2902 2923 2919 2917 2960 2918 2924 2896 2908 0 0 0 0 0 0 0 0 0 0 0 0 0 0 0 0 0 0 0 0 0 0 0 0 0 0 0 0 0 0 0 0 0 0 0 0 0 0 0 0 0 0 0 0 0 0 0 0 0 0 0 0 0 0 0
569 579 583 556 591 588 573 0 0 0 0 0 0 0 0 0 0 0 0 0 0 0 0 0 0 0 0 0 0 0 0 0 0 0 0 0 0 0 0 0 0 0 0 0 0 0 0 2940 2922 2878 2936 2984 2953 2948 2901 2890 2923 2938 2939 2877 2874 2913 2905 2893 2891 0 0 0 0 0 0 0 0 0 0 0 0 0 0 0 0 0 0 0 0 0 0 0 0 0 0 0 0 0 0 0 0 0 0 0 0 0 0 0 0 0 0 0 0 0 0 0 0 0 0 0 0 0 0 0
577 593 591 581 596 580 587 0 0 0 0 0 0 0 0 0 2280 0 0 0 913 0 961 935 0 0 0 0 0 0 0 0 0 0 0 0 0 0 0 0 0 0 0 0 0 0 0 2868 2885 2972 2937 2912 2968 2876 2916 2917 2904 2910 2945 2896 2917 2889 2880 2863 2910 2906 0 0 0 0 0 0 0 0 0 0 0 0 0 0 0 0 0 0 0 0 0 0 0 0 0 0 0 0 0 0 0 0 0 0 0 0 0 0 0 0 0 0 0 0 0 0 0 0 0 0 0 0 0 0
612 591 567 613 611 642 610 0 0 0 0 0 0 0 0 0 0 0 0 0 0 0 0 0 0 0 0 0 0 0 0 0 0 0 0 0 0 0 0 0 0 0 0 0 0 0 0 2874 2908 2868 2906 2886 2894 2889 2882 2909 2859 2919 2873 2877 2879 2887 2881 2874 2892 2858 0 0 0 0 0 0 0 0 0 0 0 0 0 0 0 0 0 0 0 0 0 0 0 0 0 0 0 0 0 0 0 0 0 0 0 0 0 0 0 0 0 0 0 0 0 0 0 0 0 0 0 0 0 0
599 598 602 599 625 630 0 0 0 0 0 0 0 0 0 0 0 0 0 0 0 0 0 0 0 0 0 0 0 0 0 0 0 0 0 0 0 0 0 0 0 0 0 0 0 0 0 0 0 0 0 0 0 0 0 0 0 0 0 0 0 0 3012 2905 2898 0 0 0 0 0 0 0 0 0 0 0 0 0 0 0 0 0 0 0 0 0 0 0 0 0 0 0 0 0 0 0 0 0 0 0 0 0 0 0 0 0 0 0 0 0 0 0 0 0 0 0 0 0 0 0
591 580 602 607 621 577 0 0 0 0 0 0 0 0 0 0 0 0 0 0 0 0 0 0 0 0 0 0 0 0 0 0 0 0 0 0 0 0 0 0 0 0 0 0 0 0 0 0 0 0 0 0 0 0 0 0 0 0 0 0 0 0 0 0 0 0 0 0 0 0 0 0 0 0 0 0 0 0 0 0 0 0 0 0 0 0 0 0 0 0 0 0 0 0 0 0 0 0 0 0 0 0 0 0 0 0 0 0 0 0 0 0 0 0 0 0 0 0 0 0
620 591 599 621 600 0 0 0 0 0 0 0 0 0 0 0 0 0 0 0 0 0 0 0 0 0 0 0 0 0 0 0 0 0 0 0 0 0 0 0 0 0 0 0 0 0 0 0 0 0 0 0 0 0 0 0 0 0 0 0 0 0 0 0 0 0 0 0 0 0 0 0 0 0 0 0 0 0 0 0 0 0 0 0 0 0 0 0 0 0 0 0 0 0 0 0 0 0 0 0 0 0 0 0 0 0 0 0 0 0 0 0 0 0 0 0 0 0 0 0
579 574 617 635 591 0 0 0 0 0 0 0 0 0 0 0 0 0 0 0 0 0 0 0 0 0 0 0 0 0 0 0 0 0 0 0 0 0 0 0 0 0 0 0 0 0 0 0 0 0 0 0 0 0 0 0 0 0 0 0 0 0 0 0 0 0 0 0 0 0 0 0 0 0 0 0 0 0 0 0 0 0 0 0 0 0 0 0 0 0 0 0 0 0 0 0 0 0 0 0 0 0 0 0 0 0 0 0 0 0 0 0 0 0 0 0 0 0 0 0
590 576 560 616 0 0 0 0 0 0 0 0 0 0 0 0 0 0 0 0 0 0 0 0 0 0 839 864 875 876 899 881 879 898 908 909 0 914 915 896 928 916 902 0 0 0 0 0 0 0 0 0 0 0 0 0 0 0 0 0 0 0 0 0 0 0 0 0 0 0 0 0 0 0 0 0 0 0 0 0 0 0 0 0 0 0 0 0 0 0 0 0 0 0 0 0 0 0 0 0 0 0 0 0 0 0 0 0 0 0 0 0 0 0 0 0 0 0 0 0
612 578 587 0 0 0 626 686 697 681 704 693 736 712 678 723 709 700 676 718 699 736 714 652 702 665 712 695 699 725 705 708 729 731 700 715 700 696 704 753 685 765 703 692 730 745 751 759 733 773 740 741 744 755 783 759 767 805 785 761 834 804 768 768 744 767 788 755 796 794 765 813 764 0 0 793 0 0 0 0 0 0 0 0 0 0 0 0 0 0 0 0 0 0 0 0 0 0 0 0 0 0 0 0 0 0 0 0 0 0 0 0 0 0 0 0 0 0 0 0
552 539 577 587 552 569 563 565 559 594 567 560 573 561 558 565 608 587 597 522 576 568 584 590 587 582 541 604 609 582 601 587 598 583 587 578 586 583 589 611 625 600 573 624 634 586 600 598 614 625 625 620 622 620 644 667 618 598 630 639 627 611 599 650 616 669 650 639 635 643 658 645 707 623 661 682 655 671 672 664 624 663 685 665 666 657 671 638 670 655 688 648 689 640 682 0 671 724 695 673 670 0 0 0 0 0 0 0 0 0 0 0 0 0 0 0 0 0 0 0
528 518 541 500 506 501 484 483 509 506 510 514 496 512 516 506 523 496 511 538 517 516 505 501 506 511 518 511 501 514 528 554 518 525 556 533 520 527 527 515 514 535 534 511 527 536 552 516 533 561 538 559 565 520 554 534 550 529 539 518 556 550 547 550 558 571 555 561 554 542 543 562 560 548 533 563 548 551 553 546 581 577 588 564 586 580 573 558 546 559 580 603 573 605 578 607 592 560 590 579 556 641 638 621 0 625 630 606 597 660 0 0 0 0 0 0 0 0 0 0
431 433 425 443 421 428 442 432 451 438 448 457 461 460 439 464 432 465 444 466 467 459 442 455 446 451 438 454 461 461 461 449 459 454 450 462 467 470 473 475 492 464 468 478 490 475 466 470 488 471 456 468 468 468 491 489 482 491 459 472 469 489 467 485 477 501 487 477 485 501 465 485 482 490 489 492 458 483 473 467 495 489 487 494 471 507 468 492 539 496 531 493 508 502 492 471 497 496 498 495 477 524 527 529 472 484 569 469 494 524 502 559 0 0 0 0 0 0 0 0
404 397 395 385 401 386 397 410 388 388 403 389 393 411 402 397 401 396 403 394 409 410 412 420 413 415 407 421 406 415 408 416 414 414 417 411 405 413 433 414 404 415 427 412 418 418 422 421 434 428 424 423 418 428 442 419 421 427 433 428 432 438 418 430 436 434 417 432 437 428 430 425 422 428 441 418 435 424 438 441 451 446 429 445 449 451 438 448 440 447 434 453 427 430 437 439 453 454 444 428 473 441 452 422 433 463 445 458 442 439 447 446 460 445 0 0 0 0 0 0
354 364 353 344 344 377 372 362 367 357 381 345 362 356 356 348 366 368 363 363 368 356 352 375 365 358 384 365 358 360 375 383 358 365 387 366 384 378 365 377 373 374 371 377 366 354 382 360 381 380 379 378 379 372 370 375 378 374 374 383 388 368 389 380 385 392 388 386 384 394 392 391 384 386 388 386 392 395 390 398 401 392 393 389 396 400 387 394 384 401 404 391 406 391 380 394 383 375 412 419 389 402 394 412 396 412 393 400 396 392 401 424 403 383 369 407 0 0 0 0
317 329 321 329 326 323 317 334 339 345 303 321 335 335 318 326 350 332 327 330 345 329 344 332 341 318 312 352 339 332 329 343 328 338 342 339 335 332 332 341 338 345 333 351 329 327 333 342 336 347 349 331 336 336 337 327 346 343 344 342 347 352 348 353 352 339 346 348 346 348 355 351 337 351 350 353 341 355 345 354 344 362 348 347 353 349 335 354 339 341 362 355 356 375 363 349 329 338 370 363 358 349 352 346 355 356 340 386 368 354 351 351 338 348 334 346 341 0 0 0
288 292 283 290 300 289 310 297 297 301 310 299 289 290 298 285 311 304 297 302 315 292 301 318 289 303 295 303 305 321 306 303 305 311 305 310 317 315 311 312 307 291 310 303 309 310 306 311 311 304 308 301 306 311 310 315 312 310 305 308 321 304 311 323 301 315 321 328 318 319 323 328 320 317 310 325 317 304 313 329 317 314 316 324 316 331 323 326 321 309 320 304 316 325 324 316 322 324 335 332 325 313 317 335 310 323 317 332 305 324 316 322 320 319 306 319 323 326 362 0
288 278 282 263 282 307 282 292 282 283 283 298 290 278 284 286 277 280 281 295 279 276 275 273 290 282 277 277 280 276 269 282 277 285 275 279 283 291 285 288 286 279 285 276 288 283 273 283 284 289 287 284 291 289 282 288 287 294 291 291 288 282 284 292 289 293 281 289 292 292 287 292 290 286 288 283 287 285 285 290 290 290 283 290 292 294 288 290 299 297 292 296 289 301 300 300 288 294 294 295 304 291 322 307 303 304 304 287 306 298 303 289 310 302 318 284 326 332 299 285
255 251 253 263 245 258 244 254 258 258 248 244 259 260 261 249 249 260 261 255 256 250 264 254 256 258 258 258 262 252 255 262 258 265 260 258 265 266 263 263 262 266 261 267 264 263 260 262 264 258 269 271 265 262 261 260 264 263 260 265 261 257 267 272 270 266 267 265 268 260 260 267 259 267 266 268 274 267 270 258 266 264 262 274 269 261 266 265 263 265 266 265 267 269 269 270 276 276 272 276 272 272 275 268 271 286 287 295 279 289 270 291 302 277 279 259 267 282 288 281
232 238 241 233 242 238 243 232 242 243 237 251 246 255 243 243 246 246 245 243 242 236 240 244 238 243 245 240 235 252 242 250 243 252 247 251 240 254 251 252 256 252 245 250 247 251 248 244 252 251 245 254 249 251 256 243 248 248 250 253 253 250 258 257 249 257 248 257 250 254 253 241 250 252 251 256 255 253 249 243 257 249 251 251 252 261 254 250 247 248 254 256 262 256 267 253 254 251 254 251 255 249 263 258 262 256 259 262 253 263 265 250 292 259 261 264 273 281 304 267
216 214 221 215 219 225 222 212 221 214 222 220 227 228 224 223 225 224 232 229 228 222 229 229 225 227 227 229 234 228 225 224 230 236 237 237 237 236 233 232 233 235 226 234 235 232 235 232 234 230 233 233 231 229 232 235 231 236 232 236 234 230 235 226 235 237 233 236 235 234 235 232 234 234 233 237 235 238 236 234 240 228 241 233 242 236 233 241 227 233 238 233 240 238 236 230 237 240 241 244 238 231 238 230 238 237 233 242 237 239 229 255 239 247 240 232 213 226 226 238
202 205 214 220 212 206 207 213 210 212 212 209 207 219 212 211 215 212 211 218 212 206 209 208 209 213 209 201 218 212 215 217 218 216 216 212 223 201 215 201 215 219 219 200 221 196 225 220 217 224 200 203 218 205 223 220 229 220 220 226 205 205 223 226 219 220 225 219 221 217 218 226 222 204 218 221 222 216 216 219 221 223 224 230 220 221 217 220 220 221 221 215 221 222 225 208 225 212 226 216 224 214 222 225 222 221 229 222 225 230 221 223 229 215 234 219 204 220 224 213
192 199 198 201 207 203 202 199 187 184 185 201 183 196 189 183 192 207 207 206 191 189 198 190 184 186 189 192 187 210 195 190 193 193 203 194 198 187 189 186 191 194 200 200 198 196 197 200 200 195 195 202 194 195 191 200 194 192 202 198 199 197 196 193 193 201 195 192 196 201 193 200 198 202 191 197 194 196 194 200 199 188 214 213 198 196 216 191 199 215 196 195 210 213 215 187 191 192 214 212 213 217 207 196 218 215 217 214 203 212 208 212 213 206 213 197 206 216 203 211
178 177 194 177 176 182 182 185 177 182 176 180 185 187 183 180 178 184 189 189 179 184 186 187 181 192 193 182 186 190 193 187 191 194 195 196 196 185 194 196 193 194 189 198 199 196 191 191 198 194 194 197 197 200 194 197 195 195 200 202 195 197 195 198 202 201 194 197 201 197 199 199 199 199 196 195 190 192 198 190 191 196 194 193 185 196 189 191 192 184 187 188 190 181 191 190 183 185 186 189 186 190 187 189 181 176 185 181 207 187 183 199 189 182 174 199 200 195 207 173
174 179 176 177 174 173 179 182 181 182 179 176 186 181 176 186 183 186 184 186 184 191 184 185 184 183 187 185 189 185 183 184 184 184 185 186 184 185 186 184 184 183 195 191 185 189 186 185 191 184 194 190 187 186 187 195 187 186 187 190 185 188 185 192 190 189 189 188 187 184 190 188 189 194 189 188 190 190 187 192 194 193 186 188 189 192 191 193 184 191 186 193 186 185 180 191 187 183 190 181 176 187 188 187 185 186 188 180 173 182 178 173 187 199 175 171 173 181 175 185
171 170 157 168 170 170 170 173 169 167 172 171 167 170 173 177 172 175 172 177 174 174 173 173 176 172 174 174 171 182 176 177 178 181 175 172 176 173 170 175 176 182 182 174 182 181 178 178 183 181 182 187 177 182 180 178 181 181 177 177 180 180 178 178 179 180 179 182 185 181 177 181 176 180 181 179 179 184 188 184 177 183 180 176 180 174 182 182 178 178 180 181 170 176 168 174 177 181 178 178 174 183 177 175 182 181 175 176 171 180 175 173 175 172 172 168 170 172 171 167
163 163 168 164 163 168 160 160 165 165 164 166 161 169 163 168 166 173 171 169 173 163 171 170 169 160 169 169 169 171 170 166 170 167 169 160 170 170 170 167 172 163 168 170 173 171 169 167 172 174 176 176 170 169 174 173 171 172 178 167 167 171 170 167 177 174 167 172 172 166 176 171 172 173 173 175 177 175 168 173 171 169 169 174 165 168 173 172 172 170 169 168 176 165 168 171 168 171 173 169 168 177 177 175 172 171 185 167 168 168 174 165 176 176 168 172 177 169 152 173
157 162 166 160 163 153 161 157 154 157 164 158 161 160 161 166 163 167 166 169 163 165 171 163 162 162 163 157 161 162 164 166 164 161 157 159 158 162 163 161 155 169 163 165 162 164 165 162 167 168 161 167 166 162 165 169 167 171 169 163 162 169 167 163 167 163 164 164 168 157 163 164 162 165 164 169 169 167 166 167 163 159 164 168 165 163 170 164 160 165 167 162 162 159 166 164 164 160 165 172 167 167 160 168 163 159 167 159 163 160 169 178 163 165 175 160 155 158 170 171
145 149 150 148 152 150 145 153 151 156 149 153 151 156 154 149 147 164 154 155 149 157 161 154 151 157 149 161 159 164 156 158 157 154 154 155 152 156 151 156 154 155 158 157 156 151 160 159 156 159 159 159 161 164 156 155 156 158 159 159 163 160 162 163 159 160 158 160 156 156 159 159 158 159 156 162 164 160 160 152 150 155 161 158 160 151 161 162 160 157 159 160 155 153 157 157 155 154 155 159 153 159 162 157 157 151 156 155 158 159 153 158 151 155 158 153 161 167 152 160
140 147 149 145 146 155 146 148 150 143 148 151 146 147 148 145 145 151 147 153 154 151 157 152 150 149 150 152 154 147 152 148 151 150 147 150 150 148 150 154 150 150 151 153 151 153 149 145 151 159 150 151 150 154 151 150 148 152 151 160 153 152 154 155 150 150 156 155 152 155 151 155 150 155 154 153 159 161 156 154 154 155 151 147 149 153 154 153 150 153 153 154 157 153 158 156 152 151 155 155 152 155 158 159 154 151 151 144 154 149 152 148 162 157 162 144 148 147 144 147
136 137 135 138 137 140 135 140 137 138 142 140 144 140 128 140 145 139 143 148 142 146 132 146 141 145 152 144 143 140 150 143 144 145 140 144 140 145 146 147 146 141 146 147 146 148 147 129 143 143 144 134 147 149 145 144 146 149 148 143 150 142 142 148 149 144 147 146 146 144 145 151 145 145 149 150 150 154 148 148 140 143 142 144 144 143 148 148 148 145 145 152 145 144 148 144 142 149 151 151 145 148 151 137 142 149 142 141 142 143 142 141 144 138 143 157 133 135 143 136
131 135 128 131 131 140 134 137 136 136 137 0 132 136 137 136 140 137 134 140 142 140 146 137 138 143 143 139 129 129 137 130 131 129 139 139 132 131 127 130 129 145 140 141 141 142 129 127 129 139 133 142 132 143 144 145 143 135 146 133 135 130 133 145 144 142 139 141 135 138 130 130 136 145 141 130 146 129 143 146 147 129 131 140 142 142 141 139 141 140 137 143 144 145 142 142 140 141 141 141 138 134 135 144 141 132 135 141 149 139 134 138 130 131 140 141 133 128 141 127
132 133 124 132 137 136 141 136 138 135 134 134 140 137 135 124 134 138 126 133 139 144 138 137 141 137 134 137 138 126 136 127 138 126 130 128 128 127 127 131 141 139 140 128 0 141 128 130 126 124 124 130 132 134 0 141 0 131 132 134 130 129 142 135 139 130 132 128 142 129 128 119 132 140 129 129 134 141 130 129 127 127 128 126 130 126 125 125 139 139 125 140 139 138 137 126 140 139 142 142 128 133 128 124 135 123 131 134 131 135 132 134 138 140 134 138 126 144 131 161
114 99 125 106 124 128 142 125 114 109 130 114 120 126 125 125 126 124 122 121 120 126 129 128 122 139 138 137 0 126 127 116 118 124 118 118 131 126 127 118 124 123 126 130 0 0 127 123 123 124 123 122 127 126 126 128 135 129 127 120 124 127 125 125 125 129 126 132 122 129 128 129 120 121 119 120 119 131 119 127 125 126 120 121 118 130 119 124 126 124 121 127 134 124 121 120 124 143 126 128 132 123 119 120 114 117 119 113 124 130 117 143 137 143 121 131 109 112 117 95
109 117 121 112 109 117 120 116 127 115 119 116 117 121 118 112 115 123 121 124 124 121 126 124 128 117 127 126 128 122 129 0 126 121 113 114 119 125 0 120 128 124 0 0 0 0 122 124 121 123 123 120 122 123 122 126 122 121 120 119 123 124 114 121 128 124 126 124 120 120 124 119 126 120 118 118 119 124 127 121 119 121 120 122 119 116 123 123 119 121 116 118 119 123 120 119 134 122 119 115 120 116 127 120 110 118 124 119 122 130 116 130 128 135 126 131 134 111 108 132
105 101 118 116 111 110 113 118 111 113 118 120 112 110 109 116 112 114 114 125 114 114 116 121 113 113 123 116 118 115 123 0 118 116 114 112 115 0 114 117 120 0 0 122 125 0 119 119 109 111 116 116 121 117 123 120 114 121 118 117 121 123 125 121 120 123 119 121 119 117 117 120 107 115 120 113 117 114 113 118 115 115 112 118 115 110 117 119 114 122 125 123 117 117 106 120 123 119 112 119 119 122 112 116 117 115 120 118 109 117 111 105 115 127 124 125 118 109 102 136
98 108 111 108 99 106 114 112 102 112 113 111 106 113 121 117 113 111 107 107 113 106 114 103 106 110 112 120 117 117 118 116 115 112 112 111 104 117 0 113 115 112 110 110 110 120 114 0 112 0 114 111 117 115 0 0 110 106 119 113 124 120 108 112 113 114 106 112 117 111 114 107 112 103 111 106 114 105 101 113 110 107 112 108 111 109 107 111 111 120 111 113 102 111 106 115 113 117 105 112 109 114 118 109 111 107 107 110 118 118 108 109 114 111 104 110 116 112 105 110
100 102 110 109 105 104 108 109 111 103 105 115 104 110 113 117 107 110 112 102 108 98 104 107 114 111 113 113 106 112 107 107 105 108 110 112 114 0 105 108 109 108 108 100 113 105 107 108 115 0 111 112 110 118 109 114 105 111 115 107 105 109 115 0 116 107 108 111 112 107 105 107 106 111 102 102 100 105 105 109 107 106 108 112 98 107 101 104 102 104 104 109 103 99 94 104 100 111 110 106 106 108 108 117 107 99 105 107 92 110 104 110 116 115 106 96 97 117 140 121
87 91 112 105 98 97 99 95 95 95 101 96 97 99 101 104 95 100 103 101 106 103 93 100 100 102 106 101 101 103 109 105 102 104 104 96 106 104 102 105 105 103 98 98 101 100 106 102 107 101 105 107 105 103 99 99 100 99 102 102 101 106 106 0 109 102 0 111 104 106 102 102 95 105 101 105 100 102 0 103 0 101 97 96 101 103 97 98 102 103 99 102 98 94 99 96 97 95 105 97 96 101 97 99 99 105 91 98 82 87 97 102 87 109 101 99 87 100 112 128
86 93 86 92 94 95 99 95 97 96 97 98 100 103 99 100 91 94 104 94 99 92 87 89 97 96 100 101 104 100 108 102 107 103 100 99 99 100 102 97 102 98 95 98 101 102 102 104 103 102 110 97 104 98 94 99 99 107 101 101 103 103 106 100 112 104 105 106 104 99 105 106 100 101 103 94 100 99 98 101 0 105 91 89 100 97 96 111 93 96 100 96 98 99 92 100 88 94 95 103 99 92 97 91 91 104 92 87 94 105 90 91 102 83 97 101 94 87 87 99
91 93 94 100 91 93 95 84 85 94 90 93 91 87 90 84 95 86 101 103 102 91 82 93 92 93 98 98 86 98 96 96 100 99 91 101 98 94 95 106 90 98 91 94 103 94 99 104 86 100 100 93 99 89 93 102 92 97 99 91 97 95 104 0 96 101 97 96 99 98 97 101 101 102 88 105 97 96 105 104 94 95 89 103 100 98 91 94 94 96 95 99 101 85 86 88 96 89 97 89 94 99 98 92 102 97 102 76 92 90 83 89 89 91 84 90 114 106 87 91
86 79 77 79 89 90 78 90 81 90 81 91 95 87 93 93 91 92 94 90 93 92 88 90 94 95 97 88 93 96 86 89 99 92 85 92 85 91 96 94 89 98 92 86 91 98 87 99 92 95 91 93 98 96 94 98 98 98 97 88 90 99 99 93 90 92 91 87 95 95 88 93 96 89 98 97 91 94 98 93 96 93 91 94 88 96 90 95 94 90 91 92 95 90 93 90 92 90 91 83 89 92 91 91 87 91 89 91 87 82 82 87 74 90 90 88 88 74 86 110
91 84 85 88 87 86 88 99 83 88 89 86 88 89 89 89 86 91 93 92 84 90 91 95 90 93 95 92 91 89 91 94 96 90 96 89 89 92 98 97 91 94 98 91 96 95 92 94 91 92 101 96 97 93 95 92 97 99 88 97 98 97 93 92 91 91 87 90 87 88 98 85 94 92 96 91 93 96 84 91 97 85 94 94 96 89 93 95 88 90 96 98 101 92 93 90 93 84 94 97 94 91 85 90 84 91 99 83 89 84 85 87 84 85 83 93 82 90 0 0
82 89 85 86 88 88 81 84 81 0 84 92 91 91 85 82 91 91 89 86 88 91 93 96 92 95 88 90 88 95 90 95 89 95 95 95 85 95 93 95 86 91 98 89 96 99 94 96 88 97 91 97 99 91 91 85 96 97 96 92 94 97 89 96 94 90 95 91 98 97 99 94 89 95 91 91 88 91 87 90 88 94 86 88 95 94 84 97 98 96 87 94 101 90 89 92 82 92 93 90 93 88 90 91 91 79 90 88 90 88 84 89 81 89 80 82 96 87 96 0
80 86 76 85 83 84 97 90 87 79 83 84 91 86 86 85 82 90 90 93 88 91 94 83 88 87 86 85 92 89 87 86 86 88 89 89 92 86 91 90 91 90 94 97 91 88 95 95 90 92 96 96 94 90 90 93 90 91 91 94 92 98 92 88 85 96 88 90 91 95 92 98 95 97 92 84 90 85 94 88 93 88 93 89 89 92 90 89 90 84 93 90 82 87 83 84 88 84 88 87 76 79 88 90 91 85 90 85 78 88 75 89 88 77 86 85 63 90 0 0
77 70 78 83 86 83 90 93 81 85 91 86 90 83 87 87 82 92 89 91 86 92 91 81 85 83 87 87 93 95 86 89 94 86 91 87 92 88 88 87 91 87 89 92 89 86 93 91 95 92 92 91 84 84 89 86 93 94 83 88 93 88 89 96 90 95 90 87 87 94 88 88 92 87 91 88 89 90 95 85 89 92 87 83 91 89 90 86 88 91 93 92 80 84 84 87 91 84 89 88 86 91 84 80 72 90 85 86 81 78 83 86 101 75 111 88 0 0 0 0
74 64 65 68 78 78 82 81 83 76 81 76 77 76 84 80 79 79 77 76 88 79 78 71 70 70 79 83 78 78 91 76 79 87 89 78 81 81 81 79 84 83 84 72 81 83 83 90 85 81 83 80 72 84 80 82 85 84 86 80 88 78 81 77 80 83 75 81 82 77 85 82 85 82 84 79 77 84 87 85 73 83 71 78 73 88 77 85 77 80 84 76 81 76 77 79 84 90 71 82 71 75 81 64 80 73 81 77 76 81 69 64 67 73 84 53 0 0 0 0
69 69 74 79 67 83 86 88 80 80 81 84 75 75 75 84 84 79 69 78 80 81 76 81 80 80 78 67 80 78 81 77 83 86 81 76 74 75 82 80 92 82 84 88 89 88 82 73 86 82 79 73 79 73 85 75 82 78 81 78 87 78 82 76 81 72 85 73 87 71 80 81 80 83 84 80 83 85 84 86 81 82 79 81 71 81 83 70 78 77 72 87 70 72 82 75 82 74 68 67 83 71 72 64 66 75 72 81 75 77 71 67 70 54 81 0 0 0 0 0
