0 0 0 0 0 0 0 0 0 0 0 0 0 0 0 0 0 0 0 0 0 0 0 0 0 0 0 0 0 0 0 0 0 0 0 0 0 0 0 0 0 0 0 0 0 0 0 0 0 0 0 0 0 0 0 0 0 0 0 0 0 0 0 0 0 0 0 0 0 0 0 0 0 0 0 0 0 0 0 0 0 0 0 0 0 0 0 0 0 0 0 0 0 0 0 0 0 0 0 0 0 0 0 0 0 0 0 0 0 0 0 0 0 0 0 0 0 0 0 0
0 0 0 0 0 0 0 0 0 0 0 0 0 0 0 0 0 0 0 0 0 0 0 0 0 0 0 0 0 0 0 0 0 0 0 0 0 0 0 0 0 0 0 0 0 0 0 0 0 0 0 0 0 0 0 0 0 0 0 0 0 0 0 0 0 0 0 0 0 0 0 0 0 0 0 0 0 0 0 0 0 0 0 0 0 0 0 0 0 0 0 0 0 0 0 0 0 0 0 0 0 0 0 0 0 0 0 0 0 0 0 0 0 0 0 0 0 0 0 0
0 0 0 0 0 0 0 0 0 0 0 1104 0 0 0 0 0 1257 0 0 0 0 1232 0 0 0 0 0 0 0 0 0 0 0 0 0 0 0 0 0 0 0 0 0 0 0 0 0 0 0 0 0 0 0 0 0 0 0 0 0 0 0 0 0 0 0 0 0 0 0 0 0 0 0 0 0 0 0 0 0 0 0 0 0 0 0 0 0 0 0 0 0 0 0 0 0 0 0 0 0 0 0 0 0 0 0 0 0 0 0 0 0 0 0 0 0 0 0 0 0
0 0 0 0 0 0 0 0 0 0 0 1112 1126 1156 0 0 1311 1278 1312 0 0 1278 1259 1250 0 0 0 0 0 0 0 0 0 0 0 0 0 0 0 0 0 0 0 0 0 0 0 0 0 0 0 0 0 0 0 0 0 0 0 0 0 0 0 0 0 0 0 0 0 0 0 0 0 0 0 0 0 0 0 0 0 0 0 0 0 0 0 0 0 0 0 0 0 0 0 0 0 0 0 0 0 0 0 0 0 0 0 0 0 0 0 0 0 0 0 0 0 0 0 0
0 0 0 0 0 0 0 0 1129 1125 1143 1123 1116 1169 1180 0 1270 1289 1295 1228 1266 1239 1269 0 0 0 0 0 0 0 0 0 0 0 0 0 0 0 0 0 0 0 0 0 0 0 0 0 0 0 0 0 0 0 0 0 0 0 0 0 0 0 0 0 0 0 0 0 0 0 0 0 0 0 0 0 0 0 0 0 0 0 0 0 0 0 0 0 0 0 0 0 0 0 0 0 0 0 0 0 0 0 0 0 0 0 0 0 0 0 0 0 0 0 0 0 0 0 0 0
0 0 0 0 0 0 0 1129 1119 1137 1145 0 1185 1157 1173 1214 1277 1312 1287 1287 1280 1276 1273 1308 0 0 0 0 0 0 0 0 0 0 0 0 0 0 0 0 0 0 0 0 0 0 0 0 0 0 0 0 0 0 0 0 0 0 0 0 0 0 0 0 0 0 0 0 0 0 0 0 0 0 0 0 0 0 0 0 0 0 0 0 0 0 0 0 0 0 0 0 0 0 0 0 0 0 0 0 0 0 0 0 0 0 0 0 0 0 0 0 0 0 0 0 0 0 0 0
0 0 0 0 0 0 0 0 0 0 0 0 1203 1229 1254 1269 1301 1285 1284 1284 1274 1262 1292 1285 0 0 0 0 0 0 0 1415 0 0 0 0 0 0 0 0 0 0 0 0 0 0 0 0 0 0 0 0 0 0 0 0 0 0 0 0 0 0 0 0 0 0 0 0 0 0 0 0 0 0 0 0 0 0 0 0 0 0 0 0 0 0 0 0 0 0 0 0 0 0 0 0 0 0 0 0 0 0 0 0 0 0 0 0 0 0 0 0 0 0 0 0 0 0 0 0
0 0 0 0 0 0 0 0 0 0 0 0 1289 1265 1294 1289 1259 1307 1267 1301 1264 1246 1254 1299 0 1359 1339 1342 1328 1347 0 1376 0 0 0 0 0 0 0 0 0 0 0 0 0 0 0 0 0 0 0 0 0 0 0 0 0 0 0 0 0 0 0 0 0 0 0 0 0 0 0 0 0 0 0 0 0 0 0 0 0 0 0 0 0 0 0 0 0 0 0 0 0 0 0 0 0 0 0 0 0 0 0 0 0 0 0 0 0 0 0 0 0 0 0 0 0 0 0 0
0 0 0 0 0 0 0 0 0 0 0 0 1281 1275 1299 1289 1303 1270 1257 1263 1252 1278 1279 1288 0 0 1359 1346 1395 1361 1362 1436 0 0 0 0 0 0 0 0 0 0 0 0 0 0 0 0 0 0 0 0 0 0 0 0 0 0 0 0 0 0 0 0 0 0 0 0 0 0 0 0 0 0 0 0 0 0 0 0 0 0 0 0 0 0 0 0 0 0 0 0 0 0 0 0 0 0 0 0 0 0 0 0 0 0 0 0 0 0 0 0 0 0 0 0 0 0 0 0
0 0 0 0 0 0 0 0 0 0 0 0 0 0 1295 1281 1299 1275 1258 1245 1263 1271 1268 1270 1267 0 0 1331 1351 1338 1362 1412 1428 0 0 0 0 0 0 0 0 0 0 0 0 0 0 0 0 0 0 0 0 0 0 0 0 0 0 0 0 0 0 0 0 0 0 0 0 0 0 0 0 0 0 0 0 0 0 0 0 0 0 0 0 0 0 0 0 0 0 0 0 0 0 0 0 0 0 0 0 0 0 0 0 0 0 0 0 0 0 0 0 0 0 0 0 0 0 0
0 0 0 0 0 0 0 0 0 0 0 0 0 0 0 0 0 0 0 0 0 1305 1258 1234 1281 0 0 1334 1352 1324 1383 1407 1415 0 0 0 0 0 0 0 0 0 0 0 0 0 0 0 0 0 0 0 0 0 0 0 0 0 0 0 0 0 0 0 0 0 0 0 0 0 0 0 0 0 0 0 0 0 0 0 0 0 0 0 0 0 0 0 0 0 0 0 0 0 0 0 0 0 0 0 0 0 0 0 0 0 0 0 0 0 0 0 0 0 0 0 0 0 0 0
0 0 0 0 0 0 0 0 0 0 0 0 0 0 0 0 0 0 0 0 0 0 0 1345 1306 0 0 0 1350 1351 1368 1421 1455 0 0 0 0 0 0 0 0 0 0 0 0 0 0 0 0 0 0 0 0 0 0 0 0 0 0 0 0 0 0 0 0 0 0 0 0 0 0 0 0 0 0 0 0 0 0 0 0 0 0 0 0 0 0 0 0 0 0 0 0 0 0 0 0 0 0 0 0 0 0 0 0 0 0 1712 0 0 0 0 0 0 0 0 0 0 0 0
0 0 0 0 0 0 0 0 0 0 0 0 0 0 0 0 0 0 0 0 0 0 0 1356 1365 1258 1302 1306 1325 1328 1339 1384 1405 0 0 0 0 0 0 0 0 0 0 0 0 0 0 0 0 0 0 0 0 0 0 0 0 0 0 0 0 0 0 0 0 0 0 0 0 0 0 0 0 0 0 0 0 0 0 0 0 0 0 0 0 0 0 0 0 0 0 0 0 0 0 0 0 0 0 0 0 0 0 0 0 0 1709 1716 0 0 0 0 0 0 0 0 0 0 0 0
0 0 0 0 0 0 0 0 0 0 0 0 0 0 0 0 0 0 0 0 0 0 0 1403 1368 1395 1327 1343 1335 1351 1354 1389 1431 0 0 0 0 0 0 0 0 0 0 0 0 0 0 0 0 0 0 0 0 0 0 0 0 0 0 0 0 0 0 0 0 0 0 0 0 0 0 0 0 0 0 0 0 0 0 0 0 0 0 0 0 0 0 0 0 0 0 0 0 0 0 0 0 0 0 0 0 0 0 0 0 1757 1709 1671 1738 0 0 0 0 0 0 0 0 0 0 0
0 0 0 0 0 0 0 0 0 0 0 0 0 0 0 0 0 0 0 0 0 0 0 1374 1397 1403 1375 1338 1328 1336 1347 1432 1435 0 0 0 0 0 0 0 0 0 0 0 0 0 0 0 0 0 0 0 0 0 0 0 0 0 0 0 0 0 0 0 0 0 0 0 0 0 0 0 0 0 0 0 0 0 0 0 0 0 0 0 0 0 0 0 0 0 0 0 0 0 0 0 0 0 0 0 0 0 0 0 0 0 1711 0 0 0 0 0 0 0 0 0 0 0 0 0
0 0 0 0 0 0 0 0 0 0 0 0 0 0 0 0 0 0 0 0 0 0 0 1384 1358 1348 1366 1373 1377 1334 1334 1403 1426 0 0 0 0 0 0 0 0 0 0 0 0 0 0 0 0 0 0 0 0 0 0 0 0 0 0 0 0 0 0 0 0 0 0 0 0 0 0 0 0 0 0 0 0 0 0 0 0 0 0 0 0 0 0 0 0 0 0 0 0 0 0 0 0 0 0 0 0 0 0 0 0 0 0 1786 1747 1678 0 0 0 0 0 0 0 0 0 0
1254 1286 1271 1282 1275 1274 1304 0 0 0 0 0 0 0 0 0 0 0 0 0 0 0 0 0 1389 1365 1398 1375 1375 1370 1344 1416 1413 0 0 0 0 0 0 0 0 0 0 0 0 0 0 0 0 0 0 0 0 0 0 0 0 0 0 0 0 0 0 0 0 0 0 0 0 0 0 0 0 0 0 0 0 0 0 0 0 0 0 0 0 0 0 0 0 0 0 0 0 0 0 0 0 0 0 0 0 0 0 0 1802 1742 1715 1706 1725 1711 0 1685 1662 0 0 0 0 0 0 0
1261 1258 1275 1286 1308 1296 1319 1320 1327 1351 1346 0 0 0 0 0 0 0 0 0 0 0 0 1365 1344 1367 1362 1367 1367 1358 1364 1417 1433 0 0 0 0 0 0 0 0 0 0 0 0 0 0 0 0 0 0 0 0 0 0 0 0 0 0 0 0 0 0 0 0 0 0 0 0 0 0 0 0 0 0 0 0 0 0 0 0 0 0 0 0 0 0 0 0 0 0 0 0 0 0 0 0 0 0 0 0 0 0 1760 1771 1722 1750 1748 1711 1714 1678 1704 0 0 0 0 0 0 0 0
1267 1240 1258 1252 1281 1273 1312 1317 1306 1320 1343 1376 1352 1383 1412 1376 0 0 0 0 0 0 0 0 0 1355 0 0 1364 0 0 1429 1440 0 0 0 0 0 0 0 0 0 0 0 0 0 0 0 0 0 0 0 0 0 0 0 0 0 0 0 0 0 0 0 0 0 0 0 0 0 0 0 0 0 0 0 0 0 0 0 0 0 0 0 0 0 0 0 0 0 0 0 0 0 0 0 0 0 0 0 0 0 0 1765 1743 1746 1708 1681 1687 1670 1714 1671 0 0 0 0 0 0 0 0
0 0 0 0 1261 1292 1285 1316 1312 1333 1345 1360 1349 1374 1405 1404 1387 1420 1438 1450 0 0 0 0 0 0 0 0 0 0 0 1450 1443 1441 0 0 0 0 0 0 0 0 0 0 0 0 0 0 0 0 0 0 0 0 0 0 0 0 0 0 0 0 0 0 0 0 0 0 0 0 0 0 0 0 0 0 0 0 0 0 0 0 0 0 0 0 0 0 0 0 0 0 0 0 0 0 0 0 0 0 0 0 1813 1765 1738 1716 1768 1692 1694 1692 0 0 0 0 0 0 0 0 0 0
0 0 0 0 0 0 0 0 0 1323 1331 1332 1350 1365 1379 1393 1407 1425 1439 1447 1425 1490 0 0 0 0 0 0 0 0 0 1456 1474 1449 0 0 0 0 0 0 0 0 0 0 0 0 0 0 0 0 0 0 0 0 0 0 0 0 0 0 0 0 0 0 0 0 0 0 0 0 0 0 0 0 0 0 0 0 0 0 0 0 0 0 0 0 0 0 0 0 0 0 0 0 0 0 0 0 0 0 0 0 0 1723 1673 1622 1566 1573 1591 1577 1568 1567 1607 1520 0 0 0 0 0 0
0 0 0 0 0 0 0 0 0 0 0 0 0 0 0 1355 1402 1421 1446 1436 1487 1473 0 0 0 0 0 0 0 0 0 0 1497 0 0 0 0 0 0 0 0 0 0 0 0 0 0 0 0 0 0 0 0 0 0 0 0 0 0 0 0 0 0 0 0 0 0 0 0 0 0 0 0 0 0 0 0 0 0 0 0 0 0 0 0 0 0 0 0 0 0 0 0 0 0 0 0 0 0 0 0 1759 1642 1618 1599 1603 1585 1574 1622 1609 1593 1589 1604 1648 1583 0 0 0 0 0
0 0 0 0 0 0 0 0 0 0 0 0 0 0 0 0 0 0 0 0 0 1487 0 0 0 0 0 0 0 0 0 0 0 0 0 0 0 0 0 0 0 0 0 0 0 0 0 0 0 0 0 0 0 0 0 0 0 0 0 0 0 0 0 0 0 0 0 0 0 0 0 0 0 0 0 0 0 0 0 0 0 0 0 0 0 0 0 0 0 0 0 0 0 0 0 0 0 0 0 0 0 1634 1588 1577 1619 1579 1586 1620 1596 1590 1575 1556 1571 1597 0 0 0 0 0 0
0 0 0 0 0 0 0 0 0 0 0 0 0 0 0 0 0 0 0 0 0 0 0 0 0 0 0 0 0 0 0 0 0 0 0 0 0 0 0 0 0 0 0 0 0 0 0 0 0 0 0 0 0 0 0 0 0 0 0 0 0 0 0 0 0 0 0 0 0 0 0 0 0 0 0 0 0 0 0 0 0 0 0 0 0 0 0 0 0 0 0 0 0 0 0 0 0 0 0 0 0 0 0 1585 1601 1590 1632 1605 1582 1632 1578 1576 0 0 0 0 0 0 0 0
0 0 0 0 0 0 0 0 0 0 0 0 0 0 0 0 0 0 0 0 0 0 0 0 0 0 0 0 0 0 0 0 0 0 0 0 0 0 0 0 0 0 0 0 0 0 0 0 0 0 0 0 0 0 0 0 0 0 0 0 0 0 0 0 0 0 0 0 0 0 0 0 0 0 0 0 0 0 0 0 0 0 0 0 0 0 0 0 0 0 0 0 0 0 0 0 0 0 0 0 0 0 0 0 0 0 1624 1583 1591 0 0 0 0 0 0 0 0 0 0 0
0 0 0 0 0 0 0 0 0 0 0 0 0 0 0 0 0 0 0 0 0 0 0 0 0 0 0 0 0 0 0 0 0 0 0 0 0 0 0 0 0 0 0 0 0 0 0 0 0 0 0 0 0 0 0 0 0 0 0 0 0 0 0 0 0 0 0 0 0 0 0 0 0 0 0 0 0 0 0 0 0 0 0 0 0 0 0 0 0 0 0 0 0 0 0 0 0 0 0 0 0 0 0 0 0 0 0 0 0 0 0 0 0 0 0 0 0 0 0 0
553 544 0 0 0 0 0 0 0 0 0 0 0 0 0 0 0 0 0 0 0 0 0 0 0 1840 1869 0 0 0 0 0 0 0 0 0 0 0 0 0 0 0 0 0 0 0 0 2937 2942 2926 2933 2928 2912 3001 2916 2956 2912 2895 2914 2918 2998 2946 2915 2881 2858 2955 0 0 0 0 0 0 0 0 0 0 0 0 0 0 0 0 0 0 0 0 0 0 0 0 0 0 0 0 0 0 1683 0 0 0 0 0 0 0 0 0 0 0 0 0 0 0 0 0 0 0 0 0 0 0
584 592 601 590 614 639 0 0 0 0 0 0 0 0 0 0 0 0 0 0 0 0 0 0 0 0 0 1900 1988 0 0 0 0 0 0 0 0 0 0 0 0 0 0 0 0 0 0 2920 2929 2908 2962 2944 2909 2932 2909 2881 2865 2941 2921 2955 2933 2928 2865 2884 2895 2929 0 0 0 0 0 0 0 0 0 0 0 0 0 0 0 0 0 0 0 0 0 0 0 0 0 0 0 0 0 0 0 0 0 0 0 0 0 0 0 0 0 0 0 0 0 0 0 0 0 0 0 0 0 0
569 581 583 593 621 611 636 676 640 0 0 0 0 0 0 0 0 0 0 0 0 0 0 0 0 0 0 0 0 0 0 0 0 0 0 0 0 0 0 0 0 0 0 0 0 0 0 2935 2909 2917 2927 2954 2922 2922 2950 2922 2937 2905 2929 2906 2916 2890 2917 2924 2895 0 0 0 0 0 0 0 0 0 0 0 0 0 0 0 0 0 0 0 0 0 0 0 0 0 0 0 0 0 0 0 0 0 0 0 0 0 0 0 0 0 0 0 0 0 0 0 0 0 0 0 0 0 0 0
595 586 590 590 631 636 636 647 666 668 663 677 0 0 0 0 0 0 0 0 0 0 0 0 0 0 0 0 0 0 0 0 0 0 0 0 0 0 0 0 0 0 0 0 0 0 0 2950 2889 2943 2905 2943 2881 2894 2908 2905 2927 2900 2867 2918 2908 2906 2923 2927 2936 2850 0 0 0 0 0 0 0 0 0 0 0 0 0 0 0 0 0 0 0 0 0 0 0 0 0 0 0 0 0 0 0 0 0 0 0 0 0 0 0 0 0 0 0 0 0 0 0 0 0 0 0 0 0 0
620 615 595 606 618 631 645 664 675 675 689 694 709 743 751 0 0 0 0 0 0 0 0 0 0 0 0 0 0 0 0 0 0 0 0 0 0 0 0 0 0 0 0 0 0 0 0 2919 2888 2951 2863 2885 2928 2940 2904 2876 2879 2880 2876 2866 2878 2873 2898 2869 2884 0 0 0 0 0 0 0 0 0 0 0 0 0 0 0 0 0 0 0 0 0 0 0 0 0 0 0 0 0 0 0 0 0 0 0 0 0 0 0 0 0 0 0 0 0 0 0 0 0 0 0 0 0 0 0
749 779 738 765 701 657 672 665 650 663 685 694 713 706 724 758 791 807 0 0 0 0 0 0 0 0 0 0 0 0 0 0 0 0 0 0 0 0 0 0 0 0 0 0 0 0 0 2896 2952 2915 2932 2900 2900 2958 2887 2920 2905 2910 2883 2891 2942 2909 2879 2913 2881 2904 0 0 0 0 0 0 0 0 0 0 0 0 0 0 0 0 0 0 0 0 0 0 0 0 0 0 0 0 0 0 0 0 0 0 0 0 0 0 0 0 0 0 0 0 0 0 0 0 0 0 0 0 0 0
775 811 810 833 841 832 859 834 840 796 750 745 749 728 727 760 770 788 800 826 858 0 0 0 0 0 0 0 0 0 0 0 0 0 0 0 0 0 0 0 0 0 0 0 0 0 0 2865 2889 2883 2852 2900 2873 2898 2868 2872 2852 2867 2913 2887 2891 2916 2885 2853 2880 2857 0 0 0 0 0 0 0 0 0 0 0 0 0 0 0 0 0 0 0 0 0 0 0 0 0 0 0 0 0 0 0 0 0 0 0 0 0 0 0 0 0 0 0 0 0 0 0 0 0 0 0 0 0 0
747 779 802 830 840 866 865 876 884 895 907 919 940 904 855 798 791 778 795 810 818 832 849 897 0 0 0 0 0 0 0 0 0 0 0 0 0 0 0 0 0 0 0 0 0 0 0 2910 2942 2891 2903 2910 2898 2873 2901 2850 2888 2928 2908 2888 2899 2879 2892 2873 2901 2869 0 0 0 0 0 0 0 0 0 0 0 0 0 0 0 0 0 0 0 0 0 0 0 0 0 0 0 0 0 0 0 0 0 0 0 0 0 0 0 0 0 0 0 0 0 0 0 0 0 0 0 0 0 0
604 0 843 825 865 875 882 881 907 906 933 949 945 948 937 954 937 931 889 845 830 845 874 887 888 920 0 0 0 0 0 0 0 0 0 0 0 0 0 0 0 0 0 0 0 0 0 2928 2951 2900 2924 2940 2944 2929 2938 2937 2948 2953 2950 2949 2931 2898 2897 2911 2880 2914 0 0 0 0 0 0 0 0 0 0 0 0 0 0 0 0 0 0 0 0 0 0 0 0 0 0 0 0 0 0 0 0 0 0 0 0 0 0 0 0 0 0 0 0 0 0 0 0 0 0 0 0 0 0
636 914 941 940 934 924 869 909 899 899 956 940 943 948 958 938 954 949 949 935 957 951 909 909 909 955 939 1002 989 0 0 0 0 0 0 0 0 0 0 0 0 0 0 0 0 0 0 2935 2870 2931 2891 2960 2892 2937 2871 2941 2874 2953 2947 2881 2914 2891 2918 2885 2917 2868 0 0 0 0 0 0 0 0 0 0 0 0 0 0 0 0 0 0 0 0 0 0 0 0 0 0 0 0 0 0 0 0 0 0 0 0 0 0 0 0 0 0 0 0 0 0 0 0 0 0 0 0 0 0
565 678 0 0 0 0 0 0 0 0 965 956 955 967 939 967 960 959 951 945 960 945 947 941 945 954 941 981 994 1036 0 0 0 0 0 0 0 0 0 0 0 0 0 0 0 0 0 2921 2898 2929 2954 2938 2951 2936 2872 2911 0 2963 2909 2912 2957 2867 2881 2876 2915 0 0 0 0 0 0 0 0 0 0 0 0 0 0 0 0 0 0 0 0 0 0 0 0 0 0 0 0 0 0 0 0 0 0 0 0 0 0 0 0 0 0 0 0 0 0 0 0 0 0 0 0 0 0 0
632 558 597 0 1110 1146 1168 1144 1146 1185 1161 1137 1154 1144 1146 1158 1107 1044 0 0 1028 1066 1056 951 1020 1028 1099 1125 1108 1083 1086 0 0 0 0 0 0 0 0 0 0 0 0 0 0 0 0 2915 2917 2923 2908 2887 2926 2917 2887 2920 2927 2935 2854 2948 2897 2890 2898 2896 2866 2889 0 0 0 0 0 0 0 0 0 0 0 0 0 0 0 0 0 0 0 0 0 0 0 0 0 0 0 0 0 0 0 0 0 0 0 0 0 0 0 0 0 0 0 0 0 0 0 0 0 0 0 0 0 0
586 600 631 592 0 0 0 0 0 0 0 0 0 0 0 0 1402 1035 994 0 0 1155 1096 0 0 1117 1148 1141 1156 1143 1147 0 0 0 0 0 0 0 0 0 0 0 0 0 0 0 0 2890 2916 2897 2921 2917 2949 2924 2892 2848 2855 2905 2912 2884 2872 2890 2900 2886 2873 0 0 0 0 0 0 0 0 0 0 0 0 0 0 0 0 0 0 0 0 0 0 0 0 0 0 0 0 0 0 0 0 0 0 0 0 0 0 0 0 0 0 0 0 0 0 0 0 0 0 0 0 0 0 0
583 604 598 619 605 0 0 0 0 0 0 0 0 0 0 0 0 979 974 0 0 0 0 0 0 0 0 0 0 0 0 0 0 0 0 0 0 0 0 0 0 0 0 0 0 0 0 2943 2913 2916 2899 2898 2939 2915 2925 2891 2924 2850 2935 2902 2896 2915 2892 2912 2966 2870 0 0 0 0 0 0 0 0 0 0 0 0 0 0 0 0 0 0 0 0 0 0 0 0 0 0 0 0 0 0 0 0 0 0 0 0 0 0 0 0 0 0 0 0 0 0 0 0 0 0 0 0 0 0
571 583 613 586 595 652 0 0 0 0 0 0 0 0 0 0 0 0 0 0 0 0 0 0 0 0 0 0 0 0 0 0 0 0 0 0 0 0 0 0 0 0 0 0 0 0 0 2879 2891 2906 2892 2908 2883 2925 2887 2862 2944 2921 2868 2888 2937 2881 2903 2873 2853 2907 0 0 0 0 0 0 0 0 0 0 0 0 0 0 0 0 0 0 0 0 0 0 0 0 0 0 0 0 0 0 0 0 0 0 0 0 0 0 0 0 0 0 0 0 0 0 0 0 0 0 0 0 0 0
559 592 567 589 607 613 0 0 0 0 0 0 0 0 0 0 0 0 0 0 0 0 997 0 0 0 0 0 0 0 0 0 0 0 0 0 0 0 0 0 0 0 0 0 0 0 0 2939 2954 2923 2926 2884 2946 2949 2921 2920 2872 2917 2872 2896 2884 2909 2919 2918 2914 0 0 0 0 0 0 0 0 0 0 0 0 0 0 0 0 0 0 0 0 0 0 0 0 0 0 0 0 0 0 0 0 0 0 0 0 0 0 0 0 0 0 0 0 0 0 0 0 0 0 0 0 0 0 0
573 576 582 603 620 612 0 0 0 0 0 0 0 0 0 0 0 0 0 0 0 0 983 0 0 0 0 0 0 0 0 0 0 0 0 0 0 0 0 0 0 0 0 0 0 0 0 2946 2934 2946 2902 2961 2960 2945 2881 2900 2937 2944 2966 2921 2863 2881 2891 2864 2853 2868 0 0 0 0 0 0 0 0 0 0 0 0 0 0 0 0 0 0 0 0 0 0 0 0 0 0 0 0 0 0 0 0 0 0 0 0 0 0 0 0 0 0 0 0 0 0 0 0 0 0 0 0 0 0
580 602 600 619 622 573 598 0 0 0 0 0 0 0 0 0 0 0 0 0 0 0 0 0 0 0 0 0 0 0 0 0 0 0 0 0 0 0 0 0 0 0 0 0 0 0 0 2894 2879 2871 2928 2943 2907 2864 2919 2905 2921 2899 2915 2901 2932 2902 2884 2892 2883 0 0 0 0 0 0 0 0 0 0 0 0 0 0 0 0 0 0 0 0 0 0 0 0 0 0 0 0 0 0 0 0 0 0 0 0 0 0 0 0 0 0 0 0 0 0 0 0 0 0 0 0 0 0 0
589 619 583 618 598 605 577 0 0 0 0 0 0 0 0 0 2301 0 0 0 0 0 951 961 0 0 0 0 0 0 0 0 0 0 0 0 0 0 0 0 0 0 0 0 0 0 0 2935 2892 2886 2869 2907 2885 2899 2872 2865 2913 2910 2891 2895 2896 2886 2911 2860 2886 2843 0 0 0 0 0 0 0 0 0 0 0 0 0 0 0 0 0 0 0 0 0 0 0 0 0 0 0 0 0 0 0 0 0 0 0 0 0 0 0 0 0 0 0 0 0 0 0 0 0 0 0 0 0 0
577 591 632 619 609 607 603 0 0 0 0 0 0 0 0 0 0 0 0 0 0 0 0 0 0 0 0 0 0 0 0 0 0 0 0 0 0 0 0 0 0 0 0 0 0 0 0 2877 2918 2955 2894 2876 2898 2916 2936 2917 2897 2879 2896 2897 2865 2877 2876 2886 2894 2875 0 0 0 0 0 0 0 0 0 0 0 0 0 0 0 0 0 0 0 0 0 0 0 0 0 0 0 0 0 0 0 0 0 0 0 0 0 0 0 0 0 0 0 0 0 0 0 0 0 0 0 0 0 0
591 636 593 605 613 620 0 0 0 0 0 0 0 0 0 0 0 0 0 0 0 0 0 0 0 0 0 0 0 0 0 0 0 0 0 0 0 0 0 0 0 0 0 0 0 0 0 0 0 0 0 0 0 0 0 0 0 0 0 0 0 2904 2960 2891 2875 0 0 0 0 0 0 0 0 0 0 0 0 0 0 0 0 0 0 0 0 0 0 0 0 0 0 0 0 0 0 0 0 0 0 0 0 0 0 0 0 0 0 0 0 0 0 0 0 0 0 0 0 0 0 0
579 591 604 618 608 580 0 0 0 0 0 0 0 0 0 0 0 0 0 0 0 0 0 0 0 0 0 0 0 0 0 0 0 0 0 0 0 0 0 0 0 0 0 0 0 0 0 0 0 0 0 0 0 0 0 0 0 0 0 0 0 0 0 0 0 0 0 0 0 0 0 0 0 0 0 0 0 0 0 0 0 0 0 0 0 0 0 0 0 0 0 0 0 0 0 0 0 0 0 0 0 0 0 0 0 0 0 0 0 0 0 0 0 0 0 0 0 0 0 0
612 587 622 609 576 647 0 0 0 0 0 0 0 0 0 0 0 0 0 0 0 0 0 0 0 0 0 0 0 0 0 0 0 0 0 0 0 0 0 0 0 0 0 0 0 0 0 0 0 0 0 0 0 0 0 0 0 0 0 0 0 0 0 0 0 0 0 0 0 0 0 0 0 0 0 0 0 0 0 0 0 0 0 0 0 0 0 0 0 0 0 0 0 0 0 0 0 0 0 0 0 0 0 0 0 0 0 0 0 0 0 0 0 0 0 0 0 0 0 0
598 557 585 607 615 0 0 0 0 0 0 0 0 0 0 0 0 0 0 0 0 0 0 0 0 0 0 0 0 0 0 0 0 0 0 0 0 0 0 0 0 0 0 0 0 0 0 0 0 0 0 0 0 0 0 0 0 0 0 0 0 0 0 0 0 0 0 0 0 0 0 0 0 0 0 0 0 0 0 0 0 0 0 0 0 0 0 0 0 0 0 0 0 0 0 0 0 0 0 0 0 0 0 0 0 0 0 0 0 0 0 0 0 0 0 0 0 0 0 0
601 594 609 621 0 0 0 0 0 0 0 0 0 0 0 0 0 0 0 0 0 0 0 0 0 0 873 901 890 859 905 847 884 908 890 917 0 937 882 946 0 0 0 0 0 0 0 0 0 0 0 0 0 0 0 0 0 0 0 0 0 0 0 0 0 0 0 0 0 0 0 0 0 0 0 0 0 0 0 0 0 0 0 0 0 0 0 0 0 0 0 0 0 0 0 0 0 0 0 0 0 0 0 0 0 0 0 0 0 0 0 0 0 0 0 0 0 0 0 0
633 581 0 0 0 0 0 671 663 689 704 693 676 693 738 724 675 713 686 718 699 722 697 683 695 660 760 726 710 682 752 693 753 795 724 678 752 721 763 747 754 750 807 697 712 803 793 790 747 741 755 790 729 730 776 799 775 749 762 795 806 802 794 750 771 808 753 789 824 795 814 818 746 0 0 0 0 0 0 0 0 0 0 0 0 0 0 0 0 0 0 0 0 0 0 0 0 0 0 0 0 0 0 0 0 0 0 0 0 0 0 0 0 0 0 0 0 0 0 0
587 559 552 610 578 557 597 579 573 600 602 595 587 609 597 592 572 603 571 607 581 558 557 586 594 603 576 614 589 614 593 609 608 626 582 546 664 607 589 623 624 623 628 601 611 612 604 651 579 638 625 630 622 655 650 623 623 610 632 636 582 653 623 644 632 662 642 652 638 640 647 672 675 675 654 670 649 683 665 644 687 658 695 622 653 657 647 676 671 716 674 638 688 675 692 0 636 724 0 654 703 640 0 0 0 0 0 0 0 0 0 0 0 0 0 0 0 0 0 0
515 479 462 500 475 500 510 487 474 506 507 485 524 525 487 505 492 485 514 494 503 508 503 508 511 501 521 516 526 508 497 531 522 494 538 500 541 531 522 501 529 530 513 534 532 516 521 512 529 523 534 532 537 540 546 550 542 515 556 522 556 511 530 559 550 557 561 559 538 566 529 537 539 549 564 565 556 548 537 560 568 546 565 559 540 551 543 597 586 571 531 560 563 567 583 573 617 575 561 605 590 626 587 612 0 624 0 576 611 576 0 0 0 0 0 0 0 0 0 0
416 427 433 443 433 422 452 424 464 440 436 464 468 442 451 430 434 462 460 456 459 475 453 454 452 454 453 457 457 445 460 453 470 458 456 457 479 467 472 461 469 461 477 459 477 466 471 481 471 477 479 474 490 486 481 476 485 490 479 494 486 480 491 485 492 479 495 467 493 496 495 515 495 488 507 493 506 509 496 492 494 483 490 494 485 521 487 512 492 482 471 499 517 500 491 499 524 489 507 506 525 493 505 514 508 458 541 487 503 529 511 503 522 0 0 0 0 0 0 0
370 393 377 397 399 381 387 397 379 383 398 388 384 390 395 395 410 396 400 403 399 395 411 405 412 412 407 409 400 401 415 424 424 412 416 411 414 421 432 405 417 409 428 407 422 418 420 408 421 425 421 427 424 425 430 426 418 431 424 425 410 420 424 425 426 425 428 430 422 421 433 426 429 418 430 415 428 437 440 419 438 429 432 425 433 440 431 430 429 442 416 443 446 440 430 416 411 433 417 440 433 438 432 410 427 435 433 459 444 447 435 433 441 490 0 0 0 0 0 0
366 345 337 344 367 372 360 364 359 356 370 354 364 357 368 355 364 379 376 369 363 370 365 378 371 378 359 375 367 369 378 388 367 363 379 376 378 366 379 379 378 387 374 374 373 370 392 377 382 394 390 384 380 374 376 392 374 376 377 395 390 391 388 384 376 384 399 392 396 390 395 394 402 395 400 397 385 395 396 397 400 384 408 397 390 395 390 380 381 408 396 402 406 394 397 387 388 398 401 391 375 397 413 396 410 392 398 398 399 412 408 414 411 392 386 400 0 0 0 0
315 313 314 322 330 310 327 349 320 320 330 318 329 333 339 343 345 345 338 340 335 337 350 334 344 348 349 334 332 323 343 350 332 343 336 348 350 346 325 346 329 350 347 348 329 338 329 348 333 354 348 341 339 339 340 343 350 340 332 347 349 352 331 356 345 339 343 361 353 353 347 352 350 348 352 348 339 354 356 347 335 358 360 352 343 350 348 344 357 356 350 344 358 350 351 340 336 347 360 363 354 355 364 366 367 352 355 355 375 353 369 337 351 372 361 345 354 0 0 0
288 280 293 285 287 287 288 296 302 298 303 290 302 291 294 298 302 301 292 302 303 306 305 299 287 304 286 306 291 305 299 307 305 304 304 306 314 303 306 306 305 310 310 302 305 311 303 311 314 316 304 318 312 306 305 312 311 306 312 317 316 305 318 313 314 319 325 318 314 304 310 308 322 305 299 318 309 309 318 308 316 317 320 313 321 323 314 326 325 322 317 323 316 323 323 315 319 321 323 331 307 327 311 326 312 316 313 321 324 316 331 325 335 322 315 334 313 334 338 0
275 274 254 277 273 284 278 285 292 284 281 281 289 299 288 285 280 291 272 279 283 280 281 277 275 282 278 275 286 284 279 285 276 274 277 278 279 272 284 293 282 281 291 284 287 284 289 291 284 285 293 285 294 284 284 292 290 289 286 291 278 281 280 298 290 296 288 299 291 291 289 288 295 290 285 288 296 287 289 288 285 291 288 287 305 295 286 302 297 300 287 291 295 299 296 286 290 284 306 295 295 279 301 318 301 306 300 293 315 279 309 314 288 291 305 315 272 300 288 311
253 247 254 257 262 255 253 250 250 259 246 247 256 251 265 257 267 262 263 253 253 261 260 258 258 261 258 256 251 254 258 257 255 256 255 266 260 268 263 267 267 259 260 268 264 263 262 266 269 277 265 269 270 265 268 264 269 264 259 266 269 261 276 264 278 266 264 262 273 268 261 266 275 273 273 263 272 264 270 265 268 257 269 271 275 260 267 270 269 267 264 267 273 274 263 262 275 273 275 272 289 268 272 263 276 281 273 280 280 269 269 263 276 264 254 278 258 256 286 279
238 231 238 235 240 235 234 237 237 237 231 233 236 245 244 244 235 242 251 243 235 246 245 241 243 238 236 249 243 246 238 247 243 235 243 252 239 248 242 248 250 245 246 242 249 252 243 248 246 255 248 256 252 254 251 248 249 245 247 244 251 248 252 252 249 252 252 252 249 245 249 247 247 255 245 247 251 252 253 248 252 244 248 251 251 257 253 248 250 243 262 261 259 246 248 253 250 251 250 264 250 248 255 243 254 244 254 249 249 246 260 238 255 251 263 244 235 249 255 252
213 220 218 220 224 224 222 218 221 222 219 225 224 229 226 225 229 224 233 230 225 231 224 237 225 224 228 227 229 231 227 235 229 224 234 235 230 234 231 234 238 229 229 226 230 230 233 238 237 233 232 231 231 243 234 234 231 231 239 234 235 233 238 233 240 233 235 235 234 232 239 234 239 234 235 239 234 228 230 234 233 239 235 235 234 234 236 240 235 228 233 230 236 235 234 231 236 239 241 244 244 227 245 236 240 233 237 231 245 236 241 252 246 235 238 240 247 229 250 249
206 206 221 219 217 209 209 209 209 213 212 214 215 216 219 209 212 212 214 219 212 214 210 195 210 219 218 214 224 215 213 217 211 215 216 215 216 200 215 221 218 218 218 215 228 215 204 224 217 219 217 218 219 220 203 220 223 219 225 206 217 221 219 228 218 220 227 222 220 221 220 220 223 204 219 227 225 229 215 225 218 222 230 226 221 220 222 215 222 214 226 221 221 225 223 221 228 219 226 218 220 225 215 225 217 221 220 223 227 231 235 220 220 237 230 220 228 234 217 228
192 195 196 204 208 201 206 203 187 184 185 203 188 194 206 189 209 206 196 193 193 189 192 185 190 185 188 193 187 211 212 189 192 189 200 210 193 191 199 194 195 194 200 198 197 194 194 195 195 194 199 193 195 191 192 195 199 191 198 198 198 194 198 202 198 199 195 191 201 193 200 203 197 197 191 196 193 196 192 190 189 189 217 213 199 203 216 190 199 194 194 197 190 192 195 193 193 209 211 195 210 216 213 209 224 221 213 204 210 210 215 207 213 209 201 214 203 202 217 207
175 179 192 200 195 178 178 182 183 180 184 176 181 177 183 184 182 181 179 181 188 185 192 187 192 181 191 192 191 185 196 187 186 192 196 194 193 188 193 193 192 195 197 198 188 199 193 198 195 198 200 199 194 195 197 199 202 198 198 200 198 189 198 200 200 193 196 196 190 197 198 197 199 199 193 199 200 198 197 195 195 187 194 196 188 189 191 192 188 193 182 183 186 194 178 189 192 190 190 186 186 190 205 207 193 184 184 189 208 206 203 179 179 195 185 186 178 179 203 192
175 178 169 177 175 180 175 188 183 180 183 185 182 179 187 182 185 187 185 182 181 181 185 188 182 185 183 185 189 193 188 186 186 189 183 188 180 184 186 181 182 188 192 189 191 191 188 185 188 190 190 189 186 184 194 187 189 193 188 197 186 186 190 193 186 190 189 188 187 185 193 187 190 191 190 186 190 190 185 190 189 189 181 188 189 194 187 190 184 188 185 192 188 187 190 188 185 190 188 188 176 187 183 188 179 177 178 179 183 175 180 182 184 174 177 176 182 171 174 186
173 170 158 168 173 169 170 173 168 173 173 177 168 172 177 180 177 177 179 182 178 177 171 173 173 172 180 174 171 180 175 183 178 179 178 177 179 177 169 176 172 180 184 180 181 181 178 181 183 186 181 183 176 179 177 183 180 182 179 180 176 180 185 179 178 180 181 184 179 179 180 184 176 184 184 180 180 184 183 184 182 185 174 173 179 182 178 182 181 181 178 183 174 177 173 179 179 181 184 181 179 183 183 177 176 181 176 177 170 180 172 179 177 175 179 179 171 175 174 173
163 165 164 166 166 168 161 161 168 166 170 167 168 172 165 171 168 163 170 168 171 165 174 163 170 162 172 171 173 172 171 168 165 172 166 170 169 166 169 173 170 167 173 172 173 170 170 173 176 171 173 172 172 169 177 170 170 178 172 176 172 173 171 172 175 173 173 172 172 172 172 173 176 169 168 175 177 174 168 171 167 169 176 163 169 172 180 176 176 170 168 176 176 169 168 172 173 168 173 181 172 175 174 170 174 166 173 173 172 165 180 166 174 170 168 179 179 169 175 152
153 156 163 161 157 166 161 155 156 156 158 162 160 160 159 166 164 167 167 167 159 165 164 166 162 162 162 158 164 167 165 168 165 165 159 161 160 162 164 166 163 166 160 164 166 167 162 166 161 165 159 166 164 167 164 165 159 169 162 175 169 166 166 169 168 169 164 164 164 168 163 162 166 166 162 167 169 165 166 161 164 159 165 163 158 168 168 163 167 163 168 161 164 158 168 163 161 155 166 167 169 161 164 161 165 164 167 163 157 160 164 166 161 158 163 156 164 178 161 166
149 151 155 148 157 147 147 153 161 155 150 155 151 151 151 149 158 163 160 164 158 156 156 159 161 157 153 158 158 160 154 157 158 160 156 159 151 154 150 161 156 156 165 162 161 156 158 158 156 162 157 157 159 159 158 157 159 157 162 160 166 167 164 159 163 163 159 159 156 158 160 162 159 159 161 165 167 162 163 153 159 162 161 157 159 161 159 159 162 160 159 162 156 159 162 155 159 157 155 160 155 161 160 155 157 151 155 156 163 160 157 153 162 162 161 150 155 159 160 146
135 143 143 141 150 148 145 143 145 147 146 151 143 152 148 149 148 150 147 151 155 150 156 151 146 150 145 148 155 149 152 147 146 145 146 148 150 157 149 151 153 152 152 154 148 150 148 154 151 150 153 154 149 149 150 149 152 157 151 157 156 149 153 155 152 150 149 153 153 153 150 154 152 159 157 154 158 159 155 153 152 154 147 150 148 152 151 152 151 150 153 153 151 153 158 148 146 149 154 155 154 158 157 155 152 152 145 148 159 156 148 155 150 148 152 159 140 154 150 139
136 137 137 142 141 143 136 139 137 140 139 145 145 143 138 141 145 139 138 144 144 146 148 141 141 139 150 144 142 143 147 132 143 148 143 144 143 146 142 145 147 142 150 148 148 146 145 139 146 146 142 145 144 146 146 149 146 149 147 145 143 144 141 143 147 147 151 146 148 142 147 146 150 145 149 150 149 149 152 150 145 145 140 144 141 145 148 145 153 145 150 146 148 149 148 150 138 147 150 151 149 146 151 145 145 146 143 140 145 150 141 141 136 138 146 149 145 146 150 135
130 135 132 133 130 142 140 141 141 138 140 0 132 139 132 140 141 140 140 139 145 141 144 137 145 146 0 137 137 139 128 140 133 139 132 142 131 126 137 143 143 141 146 143 142 132 131 140 125 125 131 144 132 142 143 142 143 144 131 132 132 143 133 148 143 141 142 142 146 125 144 128 130 142 146 143 152 141 142 145 146 138 131 131 147 141 144 142 129 141 138 141 144 145 144 141 143 141 147 145 142 139 141 143 146 137 135 142 140 133 134 138 132 130 140 132 135 131 137 115
130 135 131 134 135 138 143 133 137 136 134 134 139 142 137 125 127 142 134 134 139 141 130 138 143 138 139 137 137 123 128 129 127 127 128 129 126 129 124 126 132 141 139 130 0 140 140 132 129 124 122 126 130 133 0 143 0 132 131 128 131 130 142 142 129 131 141 130 142 140 128 122 128 145 140 131 131 129 132 129 137 130 128 127 129 128 140 129 143 143 120 141 141 138 138 129 140 138 143 142 136 132 136 137 127 122 130 135 129 129 131 129 137 133 140 147 129 141 128 130
127 104 123 111 127 117 136 133 127 114 120 116 123 121 124 131 123 124 132 121 121 129 129 127 126 137 138 139 0 138 129 125 120 122 119 125 128 126 125 122 127 126 128 130 0 0 129 126 128 121 123 121 128 127 125 129 132 130 130 126 124 128 129 127 121 132 129 127 121 128 128 129 126 123 121 124 119 128 121 124 125 127 123 123 117 126 122 126 129 129 121 125 134 125 123 120 135 136 137 131 120 124 124 126 120 118 115 120 130 129 127 142 132 118 133 130 118 132 153 101
106 114 112 112 112 117 124 118 134 115 119 119 126 128 115 113 110 125 119 116 121 126 126 125 125 119 128 129 125 126 128 0 123 121 117 117 119 118 0 121 126 127 0 0 0 0 125 126 124 126 122 126 125 121 124 126 120 121 123 124 123 123 113 123 122 125 133 124 117 120 123 118 126 121 122 116 120 127 125 126 119 119 124 122 117 121 123 121 123 120 116 119 123 120 121 121 134 123 125 121 120 116 120 117 108 119 118 115 116 134 115 135 127 140 129 126 131 111 108 117
108 102 115 112 113 108 112 116 111 110 123 114 114 112 112 116 120 117 114 122 115 109 117 122 120 111 122 116 119 121 123 0 120 117 115 113 117 0 114 115 122 0 0 124 124 0 124 118 112 115 115 118 121 120 120 123 123 118 119 121 123 117 121 120 118 122 119 121 118 117 117 123 115 112 117 114 115 116 116 125 110 118 115 121 115 112 121 113 113 122 121 117 116 115 109 121 127 119 110 118 116 122 118 110 115 117 129 119 106 122 113 123 110 114 118 129 112 103 99 104
97 107 108 103 95 106 118 110 105 116 104 105 113 113 120 115 116 113 107 109 117 111 113 106 116 109 116 110 112 115 119 112 110 114 114 113 110 115 0 115 115 117 114 114 115 115 115 0 113 0 113 115 120 117 0 0 111 106 116 112 124 118 108 112 106 109 109 113 116 111 116 109 112 104 110 105 108 112 107 115 113 105 113 110 107 108 114 110 108 116 110 114 96 109 108 120 115 115 109 115 102 112 121 108 109 105 103 106 109 117 110 113 101 112 108 124 114 91 115 100
106 91 110 111 106 111 111 107 111 107 104 111 104 107 118 115 112 111 114 99 110 93 107 103 113 113 114 113 108 113 112 110 110 107 113 114 114 0 108 109 112 108 109 106 102 108 107 109 117 0 110 112 113 115 111 118 107 110 112 109 111 114 114 0 114 109 109 111 108 111 110 99 107 113 109 100 103 104 104 110 105 105 108 113 96 106 101 108 107 105 106 113 105 105 101 108 111 105 109 109 103 109 111 117 111 106 107 113 97 118 107 105 112 107 113 107 102 111 118 129
94 100 107 108 98 98 100 98 99 96 105 102 101 103 108 105 97 106 103 100 103 99 91 102 103 105 106 102 100 108 111 106 110 99 104 100 102 110 100 107 105 107 104 100 101 105 106 98 105 101 108 107 108 107 107 106 97 102 105 106 108 108 107 0 110 105 0 113 102 106 103 104 100 109 101 109 101 106 0 103 0 104 95 95 97 101 99 96 100 103 101 102 96 95 99 93 98 100 101 100 98 99 99 104 96 99 93 103 103 91 98 100 94 109 108 99 99 105 85 128
88 91 88 92 94 91 97 90 92 93 100 98 102 99 104 98 94 97 102 95 96 91 90 94 94 91 102 103 102 103 112 106 106 105 100 101 97 105 98 99 101 99 101 92 98 98 103 101 103 104 108 102 97 104 94 102 102 106 100 99 104 100 107 98 107 100 105 105 107 101 98 107 100 96 98 100 106 98 100 98 0 101 91 92 100 98 100 107 93 100 103 99 95 100 96 100 94 97 92 104 96 91 100 86 94 106 103 88 94 94 92 90 108 88 90 114 93 90 96 104
95 95 90 101 93 89 95 85 85 94 93 93 98 91 90 83 93 90 105 102 99 89 81 92 95 91 99 95 92 103 99 99 104 99 94 102 101 97 96 102 96 93 90 92 102 91 95 102 90 103 101 96 89 93 94 97 94 97 95 97 99 95 99 0 98 103 98 95 96 96 98 98 102 103 88 104 100 95 101 105 92 100 93 101 102 97 92 94 89 100 90 91 96 82 91 84 96 92 101 89 96 100 100 96 99 93 99 76 88 88 93 99 89 88 92 83 91 105 99 77
83 89 77 80 82 86 87 91 82 88 84 92 94 88 88 81 88 89 93 93 93 90 89 92 92 86 97 91 92 97 88 90 99 91 92 97 93 94 89 92 94 92 89 88 93 86 95 90 91 92 99 94 91 95 97 92 97 98 97 91 90 95 87 96 91 96 99 91 93 91 90 97 99 89 85 95 89 91 98 88 88 97 92 96 92 85 93 96 93 92 90 96 96 93 91 93 87 93 93 84 93 87 91 80 90 86 89 83 86 91 82 81 86 87 81 87 119 61 81 93
93 83 84 82 90 84 94 100 85 94 86 90 92 90 91 87 84 92 94 93 92 94 91 86 90 92 96 90 91 88 92 91 101 93 99 97 91 88 94 95 89 94 88 90 95 97 94 95 88 92 98 98 97 96 98 98 92 99 91 98 93 98 98 95 91 93 86 89 89 89 94 86 97 94 97 89 94 98 89 94 91 88 97 94 96 90 94 94 96 92 97 95 100 87 90 93 86 95 88 102 89 93 92 97 92 92 91 88 90 87 93 89 89 85 94 89 84 90 0 0
77 93 87 90 87 84 81 91 84 0 82 91 90 90 84 83 91 93 83 87 94 93 89 94 90 96 95 94 92 94 88 96 91 95 94 94 95 92 98 86 98 89 93 89 87 95 92 97 91 98 90 98 94 88 92 99 99 90 97 95 92 84 93 96 96 99 86 94 99 92 91 96 97 93 97 91 89 93 95 89 90 95 91 89 91 93 94 95 97 94 91 97 101 85 94 88 93 93 87 92 81 89 93 86 89 81 87 87 97 76 87 88 78 89 83 75 82 117 85 0
79 83 82 90 86 82 96 89 87 78 87 82 92 93 85 87 83 87 84 91 87 92 94 88 87 87 89 87 93 88 86 88 84 93 90 92 91 89 92 91 92 88 96 97 88 87 95 95 95 93 95 98 85 89 95 97 96 94 93 87 90 97 96 86 86 93 86 90 88 96 91 96 90 98 98 83 94 94 94 90 92 83 93 86 89 91 85 91 93 84 91 87 87 87 89 81 88 83 89 91 80 86 85 89 87 86 90 85 80 90 74 88 88 88 70 86 103 63 0 0
84 75 84 78 83 81 93 96 80 90 85 78 90 84 80 88 84 92 93 89 90 92 91 85 86 94 88 89 94 85 88 85 90 92 91 87 86 88 87 93 92 88 84 94 85 90 95 96 88 96 95 91 92 85 86 93 94 93 87 98 92 90 85 88 90 96 89 89 88 96 93 87 91 90 96 87 90 92 97 83 91 93 92 87 95 94 91 92 93 95 89 93 83 89 87 90 91 84 91 88 79 89 82 91 79 90 82 85 90 82 82 102 86 80 76 95 0 0 0 0
77 67 64 64 77 80 88 85 82 81 82 74 80 88 86 75 79 81 77 74 89 75 81 78 77 74 79 82 82 82 89 76 81 85 92 76 84 82 86 83 81 85 80 70 81 88 83 92 85 80 85 78 74 88 84 84 85 87 91 80 86 79 81 81 79 84 79 82 77 75 84 85 87 81 79 81 80 84 88 82 75 79 73 79 81 90 80 82 76 80 81 74 82 81 80 80 79 88 79 74 74 75 74 68 74 74 74 83 77 77 86 84 87 75 84 70 0 0 0 0
68 70 80 77 67 82 87 83 81 77 81 87 73 73 83 84 85 86 77 81 78 81 71 86 88 89 80 75 91 77 82 83 89 83 83 74 76 80 82 78 84 86 88 86 88 91 84 81 83 80 84 80 78 82 85 86 79 80 84 74 82 75 82 83 78 81 75 76 89 74 81 81 86 82 86 85 84 86 87 85 85 82 87 79 72 77 81 64 90 84 70 83 74 69 86 73 91 82 74 71 91 76 74 77 75 75 69 86 84 90 82 80 80 93 96 0 0 0 0 0
