0 0 0 0 0 0 0 0 0 0 0 0 0 0 0 0 0 0 0 0 0 0 0 0 0 0 0 0 0 0 0 0 0 0 0 0 0 0 0 0 0 0 0 0 0 0 0 0 0 0 0 0 0 0 0 0 0 0 0 0 0 0 0 0 0 0 0 0 0 0 0 0 0 0 0 0 0 0 0 0 0 0 0 0 0 0 0 0 0 0 0 0 0 0 0 0 0 0 0 0 0 0 0 0 0 0 0 0 0 0 0 0 0 0 0 0 0 0 0 0
0 0 0 0 0 0 0 0 0 0 0 0 0 0 0 0 0 0 0 0 0 0 0 0 0 0 0 0 0 0 0 0 0 0 0 0 0 0 0 0 0 0 0 0 0 0 0 0 0 0 0 0 0 0 0 0 0 0 0 0 0 0 0 0 0 0 0 0 0 0 0 0 0 0 0 0 0 0 0 0 0 0 0 0 0 0 0 0 0 0 0 0 0 0 0 0 0 0 0 0 0 0 0 0 0 0 0 0 0 0 0 0 0 0 0 0 0 0 0 0
0 0 0 0 0 0 0 0 0 0 0 0 0 0 0 0 0 1289 0 0 0 0 0 0 0 0 0 0 0 0 0 0 0 0 0 0 0 0 0 0 0 0 0 0 0 0 0 0 0 0 0 0 0 0 0 0 0 0 0 0 0 0 0 0 0 0 0 0 0 0 0 0 0 0 0 0 0 0 0 0 0 0 0 0 0 0 0 0 0 0 0 0 0 0 0 0 0 0 0 0 0 0 0 0 0 0 0 0 0 0 0 0 0 0 0 0 0 0 0 0
0 0 0 0 0 0 0 0 0 0 0 1154 1141 0 1107 0 1276 1283 1272 0 0 1304 1254 1258 0 0 0 0 0 0 0 0 0 0 0 0 0 0 0 0 0 0 0 0 0 0 0 0 0 0 0 0 0 0 0 0 0 0 0 0 0 0 0 0 0 0 0 0 0 0 0 0 0 0 0 0 0 0 0 0 0 0 0 0 0 0 0 0 0 0 0 0 0 0 0 0 0 0 0 0 0 0 0 0 0 0 0 0 0 0 0 0 0 0 0 0 0 0 0 0
0 0 0 0 0 0 0 0 1171 1129 1146 1145 1150 1162 1166 1185 1286 1274 1326 0 1278 1274 1272 0 0 0 0 0 0 0 0 0 0 0 0 0 0 0 0 0 0 0 0 0 0 0 0 0 0 0 0 0 0 0 0 0 0 0 0 0 0 0 0 0 0 0 0 0 0 0 0 0 0 0 0 0 0 0 0 0 0 0 0 0 0 0 0 0 0 0 0 0 0 0 0 0 0 0 0 0 0 0 0 0 0 0 0 0 0 0 0 0 0 0 0 0 0 0 0 0
0 0 0 0 0 0 0 1153 1129 1158 0 0 1215 1182 1199 1223 1294 1280 1284 1254 1256 1314 1305 1287 0 0 0 0 0 0 0 0 0 0 0 0 0 0 0 0 0 0 0 0 0 0 0 0 0 0 0 0 0 0 0 0 0 0 0 0 0 0 0 0 0 0 0 0 0 0 0 0 0 0 0 0 0 0 0 0 0 0 0 0 0 0 0 0 0 0 0 0 0 0 0 0 0 0 0 0 0 0 0 0 0 0 0 0 0 0 0 0 0 0 0 0 0 0 0 0
0 0 0 0 0 0 0 0 0 0 0 0 1234 1193 1232 1272 1290 1290 1280 1276 1275 1273 1244 1266 1300 0 0 0 0 0 0 1442 0 0 0 0 0 0 0 0 0 0 0 0 0 0 0 0 0 0 0 0 0 0 0 0 0 0 0 0 0 0 0 0 0 0 0 0 0 0 0 0 0 0 0 0 0 0 0 0 0 0 0 0 0 0 0 0 0 0 0 0 0 0 0 0 0 0 0 0 0 0 0 0 0 0 0 0 0 0 0 0 0 0 0 0 0 0 0 0
0 0 0 0 0 0 0 0 0 0 0 0 1233 1292 1278 1280 1252 1286 1256 1282 1250 1287 1259 1276 1305 1369 1330 1367 1357 0 0 1436 0 0 0 0 0 0 0 0 0 0 0 0 0 0 0 0 0 0 0 0 0 0 0 0 0 0 0 0 0 0 0 0 0 0 0 0 0 0 0 0 0 0 0 0 0 0 0 0 0 0 0 0 0 0 0 0 0 0 0 0 0 0 0 0 0 0 0 0 0 0 0 0 0 0 0 0 0 0 0 0 0 0 0 0 0 0 0 0
0 0 0 0 0 0 0 0 0 0 0 0 1281 1278 1269 1294 1279 1274 1293 1285 1253 1260 1290 1288 0 0 1361 1394 1348 1372 1382 1411 0 0 0 0 0 0 0 0 0 0 0 0 0 0 0 0 0 0 0 0 0 0 0 0 0 0 0 0 0 0 0 0 0 0 0 0 0 0 0 0 0 0 0 0 0 0 0 0 0 0 0 0 0 0 0 0 0 0 0 0 0 0 0 0 0 0 0 0 0 0 0 0 0 0 0 0 0 0 0 0 0 0 0 0 0 0 0 0
0 0 0 0 0 0 0 0 0 0 0 0 0 1265 1269 1272 1272 1292 1252 1268 1231 1273 1273 1273 1254 0 0 1340 1343 1328 1354 1391 1363 0 0 0 0 0 0 0 0 0 0 0 0 0 0 0 0 0 0 0 0 0 0 0 0 0 0 0 0 0 0 0 0 0 0 0 0 0 0 0 0 0 0 0 0 0 0 0 0 0 0 0 0 0 0 0 0 0 0 0 0 0 0 0 0 0 0 0 0 0 0 0 0 0 0 0 0 0 0 0 0 0 0 0 0 0 0 0
0 0 0 0 0 0 0 0 0 0 0 0 0 0 0 0 0 0 0 0 0 1258 1261 1257 1270 0 0 1313 1347 1338 1321 1389 1368 0 0 0 0 0 0 0 0 0 0 0 0 0 0 0 0 0 0 0 0 0 0 0 0 0 0 0 0 0 0 0 0 0 0 0 0 0 0 0 0 0 0 0 0 0 0 0 0 0 0 0 0 0 0 0 0 0 0 0 0 0 0 0 0 0 0 0 0 0 0 0 0 0 0 0 0 0 0 0 0 0 0 0 0 0 0 0
0 0 0 0 0 0 0 0 0 0 0 0 0 0 0 0 0 0 0 0 0 0 0 1335 1298 0 0 1325 1331 1360 1359 1411 1415 0 0 0 0 0 0 0 0 0 0 0 0 0 0 0 0 0 0 0 0 0 0 0 0 0 0 0 0 0 0 0 0 0 0 0 0 0 0 0 0 0 0 0 0 0 0 0 0 0 0 0 0 0 0 0 0 0 0 0 0 0 0 0 0 0 0 0 0 0 0 0 0 0 0 0 0 0 0 0 0 0 0 0 0 0 0 0
0 0 0 0 0 0 0 0 0 0 0 0 0 0 0 0 0 0 0 0 0 0 0 1346 1397 1296 1281 1311 1307 1357 1377 1421 1415 0 0 0 0 0 0 0 0 0 0 0 0 0 0 0 0 0 0 0 0 0 0 0 0 0 0 0 0 0 0 0 0 0 0 0 0 0 0 0 0 0 0 0 0 0 0 0 0 0 0 0 0 0 0 0 0 0 0 0 0 0 0 0 0 0 0 0 0 0 0 0 0 0 0 0 0 0 0 0 0 0 0 0 0 0 0 0
0 0 0 0 0 0 0 0 0 0 0 0 0 0 0 0 0 0 0 0 0 0 0 1413 1406 1392 1343 1315 1317 1358 1373 1415 1449 0 0 0 0 0 0 0 0 0 0 0 0 0 0 0 0 0 0 0 0 0 0 0 0 0 0 0 0 0 0 0 0 0 0 0 0 0 0 0 0 0 0 0 0 0 0 0 0 0 0 0 0 0 0 0 0 0 0 0 0 0 0 0 0 0 0 0 0 0 0 0 0 0 0 0 0 0 0 0 0 0 0 0 0 0 0 0
0 0 0 0 0 0 0 0 0 0 0 0 0 0 0 0 0 0 0 0 0 0 0 1385 1364 1366 1356 1335 1330 1345 1386 1401 1417 0 0 0 0 0 0 0 0 0 0 0 0 0 0 0 0 0 0 0 0 0 0 0 0 0 0 0 0 0 0 0 0 0 0 0 0 0 0 0 0 0 0 0 0 0 0 0 0 0 0 0 0 0 0 0 0 0 0 0 0 0 0 0 0 0 0 0 0 0 0 0 0 0 0 0 0 0 0 0 0 0 0 0 0 0 0 0
0 0 0 0 0 0 0 0 0 0 0 0 0 0 0 0 0 0 0 0 0 0 0 1383 1371 1379 1387 1391 1357 1356 1358 1405 1423 0 0 0 0 0 0 0 0 0 0 0 0 0 0 0 0 0 0 0 0 0 0 0 0 0 0 0 0 0 0 0 0 0 0 0 0 0 0 0 0 0 0 0 0 0 0 0 0 0 0 0 0 0 0 0 0 0 0 0 0 0 0 0 0 0 0 0 0 0 0 0 0 0 0 0 0 0 0 0 0 0 0 0 0 0 0 0
1237 1263 1264 1285 1292 1308 1291 0 0 0 0 0 0 0 0 0 0 0 0 0 0 0 0 0 1392 1378 1367 1357 1375 1373 1356 1426 1412 0 0 0 0 0 0 0 0 0 0 0 0 0 0 0 0 0 0 0 0 0 0 0 0 0 0 0 0 0 0 0 0 0 0 0 0 0 0 0 0 0 0 0 0 0 0 0 0 0 0 0 0 0 0 0 0 0 0 0 0 0 0 0 0 0 0 0 0 0 0 0 0 0 0 0 0 0 0 0 0 0 0 0 0 0 0 0
1250 1254 1253 1243 1271 1296 1295 1306 1324 1318 1313 0 0 0 0 0 0 0 0 0 0 0 0 1345 1334 1354 1348 1335 1364 1344 1356 1420 1405 0 0 0 0 0 0 0 0 0 0 0 0 0 0 0 0 0 0 0 0 0 0 0 0 0 0 0 0 0 0 0 0 0 0 0 0 0 0 0 0 0 0 0 0 0 0 0 0 0 0 0 0 0 0 0 0 0 0 0 0 0 0 0 0 0 0 0 0 0 0 0 0 0 0 0 0 0 0 0 0 0 0 0 0 0 0 0
1262 1256 1269 1281 1280 1298 1304 1321 1306 1342 1332 1334 1363 1392 1402 1406 0 0 0 0 0 0 0 0 0 1357 0 0 1392 0 0 1417 1431 0 0 0 0 0 0 0 0 0 0 0 0 0 0 0 0 0 0 0 0 0 0 0 0 0 0 0 0 0 0 0 0 0 0 0 0 0 0 0 0 0 0 0 0 0 0 0 0 0 0 0 0 0 0 0 0 0 0 0 0 0 0 0 0 0 0 0 0 0 0 0 0 0 0 0 0 0 0 0 0 0 0 0 0 0 0 0
0 0 0 0 1278 1301 1301 1280 1298 1334 1333 1336 1354 1373 1388 1381 1396 1428 1404 1453 0 0 0 0 0 0 0 0 0 0 0 1426 1420 1418 0 0 0 0 0 0 0 0 0 0 0 0 0 0 0 0 0 0 0 0 0 0 0 0 0 0 0 0 0 0 0 0 0 0 0 0 0 0 0 0 0 0 0 0 0 0 0 0 0 0 0 0 0 0 0 0 0 0 0 0 0 0 0 0 0 0 0 0 0 0 0 0 0 0 0 0 0 0 0 0 0 0 0 0 0 0
0 0 0 0 0 0 0 0 0 1281 1320 1344 1358 1350 1381 1413 1392 1396 1446 1428 1408 1475 0 0 0 0 0 0 0 0 0 1455 1475 1471 0 0 0 0 0 0 0 0 0 0 0 0 0 0 0 0 0 0 0 0 0 0 0 0 0 0 0 0 0 0 0 0 0 0 0 0 0 0 0 0 0 0 0 0 0 0 0 0 0 0 0 0 0 0 0 0 0 0 0 0 0 0 0 0 0 0 0 0 0 0 0 0 0 0 0 0 0 0 0 0 0 0 0 0 0 0
0 0 0 0 0 0 0 0 0 0 0 0 0 0 0 1423 1429 1443 1443 1458 1463 1497 0 0 0 0 0 0 0 0 0 0 1472 0 0 0 0 0 0 0 0 0 0 0 0 0 0 0 0 0 0 0 0 0 0 0 0 0 0 0 0 0 0 0 0 0 0 0 0 0 0 0 0 0 0 0 0 0 0 0 0 0 0 0 0 0 0 0 0 0 0 0 0 0 0 0 0 0 0 0 0 0 0 0 0 1818 1744 1759 1771 0 0 0 0 0 0 0 0 0 0 0
0 0 0 0 0 0 0 0 0 0 0 0 0 0 0 0 0 0 0 0 0 1464 0 0 0 0 0 0 0 0 0 0 0 0 0 0 0 0 0 0 0 0 0 0 0 0 0 0 0 0 0 0 0 0 0 0 0 0 0 0 0 0 0 0 0 0 0 0 0 0 0 0 0 0 0 0 0 0 0 0 0 0 0 0 0 0 0 0 0 0 0 0 0 0 0 0 0 0 0 0 0 0 0 1783 1768 0 0 0 0 0 0 0 0 0 0 0 0 0 0 0
0 0 0 0 0 0 0 0 0 0 0 0 0 0 0 0 0 0 0 0 0 0 0 0 0 0 0 0 0 0 0 0 0 0 0 0 0 0 0 0 0 0 0 0 0 0 0 0 0 0 0 0 0 0 0 0 0 0 0 0 0 0 0 0 0 0 0 0 0 0 0 0 0 0 0 0 0 0 0 0 0 0 0 0 0 0 0 0 0 0 0 0 0 0 0 0 0 0 0 0 0 0 0 0 0 0 1604 1661 1596 1592 1553 1564 0 0 0 0 0 0 0 0
0 0 0 0 0 0 0 0 0 0 0 0 0 0 0 0 0 0 0 0 0 0 0 0 0 0 0 0 0 0 0 0 0 0 0 0 0 0 0 0 0 0 0 0 0 0 0 0 0 0 0 0 0 0 0 0 0 0 0 0 0 0 0 0 0 0 0 0 0 0 0 0 0 0 0 0 0 0 0 0 0 0 0 0 0 0 0 0 0 0 0 0 0 0 0 0 0 0 0 0 1643 1703 1681 1669 1604 1622 1570 1560 1581 1531 1549 1579 0 0 0 0 0 0 0 0
0 0 0 0 0 0 0 0 0 0 0 0 0 0 0 0 0 0 0 0 0 0 0 0 0 0 0 0 0 0 0 0 0 0 0 0 0 0 0 0 0 0 0 0 0 0 0 0 0 0 0 0 0 0 0 0 0 0 0 0 0 0 0 0 0 0 0 0 0 0 0 0 0 0 0 0 0 0 0 0 0 0 0 0 0 0 0 0 0 0 0 0 0 0 0 0 0 1732 1690 1663 1659 1635 1638 1630 1592 1563 1525 1520 1520 0 0 0 0 0 0 0 0 0 0 0
544 587 0 0 0 0 0 0 0 0 0 0 0 0 0 0 0 0 0 0 0 0 0 0 0 1859 1903 0 0 0 0 0 0 0 0 0 0 0 0 0 0 0 0 0 0 0 0 2927 2917 2891 2915 2915 2937 2966 2895 2930 2925 2939 2885 2872 2978 2917 2934 2893 2933 2879 0 0 0 0 0 0 0 0 0 0 0 0 0 0 0 0 0 0 0 0 0 0 0 0 0 0 0 1804 1818 1748 1719 1748 1716 1696 1666 1661 1683 0 0 0 0 0 0 0 0 0 0 0 0 0 0 0 0 0
570 591 612 583 621 597 0 0 0 0 0 0 0 0 0 0 0 0 0 0 0 0 0 0 0 0 0 1922 1895 0 0 0 0 0 0 0 0 0 0 0 0 0 0 0 0 0 0 2898 2929 2938 2912 2908 2902 2903 2897 2899 2903 2860 2922 2897 2903 2863 2899 2887 2903 2914 0 0 0 0 0 0 0 0 0 0 0 0 0 0 0 0 0 0 0 0 0 0 0 0 1847 1845 1813 1806 1754 1766 1733 0 0 0 0 0 0 0 0 0 0 0 0 0 0 0 0 0 0 0 0 0 0 0
563 570 577 581 617 609 647 637 680 0 0 0 0 0 0 0 0 0 0 0 0 0 0 0 0 0 0 0 0 0 0 0 0 0 0 0 0 0 0 0 0 0 0 0 0 0 0 2927 2976 2948 2934 2945 2940 2934 2885 2917 2948 2917 2931 2931 2881 2982 2899 2937 2913 2973 0 0 0 0 0 0 0 0 0 0 0 0 0 0 0 0 0 0 0 0 0 0 0 0 0 0 0 0 0 0 0 0 0 0 0 0 0 0 0 0 0 0 0 0 0 0 0 0 0 0 0 0 0 0
573 587 609 598 625 641 629 668 669 678 685 692 0 0 0 0 0 0 0 0 0 0 0 0 0 0 0 0 0 0 0 0 0 0 0 0 0 0 0 0 0 0 0 0 0 0 0 2905 2878 2901 2935 2886 2925 2894 2873 2892 2884 2926 2926 2898 2940 2943 2853 2942 2877 2900 0 0 0 0 0 0 0 0 0 0 0 0 0 0 0 0 0 0 0 0 0 0 0 0 0 0 0 0 0 0 0 0 0 0 0 0 0 0 0 0 0 0 0 0 0 0 0 0 0 0 0 0 0 0
601 584 615 597 631 610 635 644 658 663 682 675 706 706 762 0 0 0 0 0 0 0 0 0 0 0 0 0 0 0 0 0 0 0 0 0 0 0 0 0 0 0 0 0 0 0 0 2913 2920 2867 2872 2981 2855 2928 2921 2905 2880 2917 2899 2927 2943 2913 2864 2957 2885 2901 0 0 0 0 0 0 0 0 0 0 0 0 0 0 0 0 0 0 0 0 0 0 0 0 0 0 0 0 0 0 0 0 0 0 0 0 0 0 0 0 0 0 0 0 0 0 0 0 0 0 0 0 0 0
725 768 792 760 688 693 642 650 668 674 674 707 701 750 752 736 780 790 0 0 0 0 0 0 0 0 0 0 0 0 0 0 0 0 0 0 0 0 0 0 0 0 0 0 0 0 0 2937 2980 2929 2922 2909 2890 2884 2938 2888 2953 2907 2905 2919 2857 2931 2935 2874 2903 2868 0 0 0 0 0 0 0 0 0 0 0 0 0 0 0 0 0 0 0 0 0 0 0 0 0 0 0 0 0 0 0 0 0 0 0 0 0 0 0 0 0 0 0 0 0 0 0 0 0 0 0 0 0 0
785 802 796 828 826 857 833 855 820 797 747 730 724 702 716 756 783 789 787 811 855 0 0 0 0 0 0 0 0 0 0 0 0 0 0 0 0 0 0 0 0 0 0 0 0 0 0 2927 2891 2929 2883 2917 2924 2915 2894 2901 2883 2936 2862 2855 2884 2906 2855 2856 2870 2943 0 0 0 0 0 0 0 0 0 0 0 0 0 0 0 0 0 0 0 0 0 0 0 0 0 0 0 0 0 0 0 0 0 0 0 0 0 0 0 0 0 0 0 0 0 0 0 0 0 0 0 0 0 0
745 791 817 822 831 853 860 886 872 904 894 917 929 888 836 783 764 744 780 797 845 831 841 861 0 0 0 0 0 0 0 0 0 0 0 0 0 0 0 0 0 0 0 0 0 0 0 2974 2943 2886 2920 2886 2908 2945 2881 2955 2911 2868 2915 2858 2912 2888 2905 2870 2888 2942 0 0 0 0 0 0 0 0 0 0 0 0 0 0 0 0 0 0 0 0 0 0 0 0 0 0 0 0 0 0 0 0 0 0 0 0 0 0 0 0 0 0 0 0 0 0 0 0 0 0 0 0 0 0
617 0 821 868 849 866 860 883 890 919 931 946 952 949 942 954 934 924 909 857 847 842 860 881 901 921 0 0 0 0 0 0 0 0 0 0 0 0 0 0 0 0 0 0 0 0 0 2863 2922 2873 2954 2948 2938 2937 2880 2947 2867 2921 2939 2923 2892 2876 2926 2883 2911 2905 0 0 0 0 0 0 0 0 0 0 0 0 0 0 0 0 0 0 0 0 0 0 0 0 0 0 0 0 0 0 0 0 0 0 0 0 0 0 0 0 0 0 0 0 0 0 0 0 0 0 0 0 0 0
654 910 935 947 921 905 0 910 906 919 933 947 938 941 957 942 954 944 932 939 948 939 892 913 918 928 973 975 988 0 0 0 0 0 0 0 0 0 0 0 0 0 0 0 0 0 0 2890 2915 2889 2896 2879 2881 2939 2937 2886 2883 2921 2876 2850 2879 2909 2879 2898 2887 2860 0 0 0 0 0 0 0 0 0 0 0 0 0 0 0 0 0 0 0 0 0 0 0 0 0 0 0 0 0 0 0 0 0 0 0 0 0 0 0 0 0 0 0 0 0 0 0 0 0 0 0 0 0 0
606 705 0 0 0 0 0 0 0 0 960 967 962 978 965 971 953 947 943 955 966 949 937 947 951 949 987 982 1009 1035 1074 0 0 0 0 0 0 0 0 0 0 0 0 0 0 0 0 2936 2928 2952 2911 2905 2945 2902 2993 2948 2890 2892 2905 2946 2936 2958 2899 2886 2949 2889 0 0 0 0 0 0 0 0 0 0 0 0 0 0 0 0 0 0 0 0 0 0 0 0 0 0 0 0 0 0 0 0 0 0 0 0 0 0 0 0 0 0 0 0 0 0 0 0 0 0 0 0 0 0
589 612 593 0 1136 1146 1152 1151 1161 1139 1140 1157 1164 1153 1150 1148 1128 1049 0 0 1002 1084 1076 988 1003 1044 1129 1128 1124 1087 1098 0 0 0 0 0 0 0 0 0 0 0 0 0 0 0 0 2902 2892 2912 2925 2923 2928 2877 2884 2931 2892 2877 2914 2888 2909 2895 2884 2974 2884 2899 0 0 0 0 0 0 0 0 0 0 0 0 0 0 0 0 0 0 0 0 0 0 0 0 0 0 0 0 0 0 0 0 0 0 0 0 0 0 0 0 0 0 0 0 0 0 0 0 0 0 0 0 0 0
578 595 577 616 0 0 0 0 0 0 0 0 0 0 0 0 1383 1012 986 0 0 1143 1120 0 0 1096 1163 1163 1139 1156 1096 0 0 0 0 0 0 0 0 0 0 0 0 0 0 0 0 2932 2892 2888 2878 2924 2891 2916 2910 2844 2925 2892 2941 2892 2894 2916 2955 2919 2894 0 0 0 0 0 0 0 0 0 0 0 0 0 0 0 0 0 0 0 0 0 0 0 0 0 0 0 0 0 0 0 0 0 0 0 0 0 0 0 0 0 0 0 0 0 0 0 0 0 0 0 0 0 0 0
590 584 593 618 614 0 0 0 0 0 0 0 0 0 0 0 0 988 1004 0 0 0 0 0 0 0 0 0 0 0 0 0 0 0 0 0 0 0 0 0 0 0 0 0 0 0 0 2919 2878 2894 2933 2913 2944 2878 2923 2872 2938 2900 2913 2871 2902 2924 2930 2905 2900 2920 0 0 0 0 0 0 0 0 0 0 0 0 0 0 0 0 0 0 0 0 0 0 0 0 0 0 0 0 0 0 0 0 0 0 0 0 0 0 0 0 0 0 0 0 0 0 0 0 0 0 0 0 0 0
606 597 587 611 609 629 0 0 0 0 0 0 0 0 0 0 0 0 0 0 0 0 0 0 0 0 0 0 0 0 0 0 0 0 0 0 0 0 0 0 0 0 0 0 0 0 0 2913 2899 2871 2915 2892 2860 2917 2909 2928 2916 2893 2877 2874 2903 2910 2865 2882 2866 0 0 0 0 0 0 0 0 0 0 0 0 0 0 0 0 0 0 0 0 0 0 0 0 0 0 0 0 0 0 0 0 0 0 0 0 0 0 0 0 0 0 0 0 0 0 0 0 0 0 0 0 0 0 0
582 571 606 608 601 631 0 0 0 0 0 0 0 0 0 0 0 0 0 0 0 0 961 0 0 0 0 0 0 0 0 0 0 0 0 0 0 0 0 0 0 0 0 0 0 0 0 2915 0 2909 2869 2886 2921 2898 2951 2951 2895 2889 2898 2908 2899 2894 2901 2912 2916 0 0 0 0 0 0 0 0 0 0 0 0 0 0 0 0 0 0 0 0 0 0 0 0 0 0 0 0 0 0 0 0 0 0 0 0 0 0 0 0 0 0 0 0 0 0 0 0 0 0 0 0 0 0 0
600 577 606 625 628 616 0 0 0 0 0 0 0 0 0 0 0 0 0 0 0 0 0 0 0 0 0 0 0 0 0 0 0 0 0 0 0 0 0 0 0 0 0 0 0 0 0 2881 2879 2886 2902 2892 2865 2886 2906 2888 2852 2933 2901 2961 2893 2887 2902 2915 2833 2870 0 0 0 0 0 0 0 0 0 0 0 0 0 0 0 0 0 0 0 0 0 0 0 0 0 0 0 0 0 0 0 0 0 0 0 0 0 0 0 0 0 0 0 0 0 0 0 0 0 0 0 0 0 0
573 590 586 593 618 603 597 0 0 0 0 0 0 0 0 0 0 0 0 0 0 0 0 0 0 0 0 0 0 0 0 0 0 0 0 0 0 0 0 0 0 0 0 0 0 0 0 2861 2909 2867 2911 2898 2927 2893 2897 2873 2893 2869 2885 2868 2920 2856 2904 2862 2921 0 0 0 0 0 0 0 0 0 0 0 0 0 0 0 0 0 0 0 0 0 0 0 0 0 0 0 0 0 0 0 0 0 0 0 0 0 0 0 0 0 0 0 0 0 0 0 0 0 0 0 0 0 0 0
583 568 577 570 597 609 600 0 0 0 0 0 0 0 0 0 2333 0 0 0 895 0 949 984 0 0 0 0 0 0 0 0 0 0 0 0 0 0 0 0 0 0 0 0 0 0 0 2948 2935 2940 2916 2905 2926 2937 2935 2897 2873 2908 2945 2905 2921 2890 2899 2911 2875 2869 0 0 0 0 0 0 0 0 0 0 0 0 0 0 0 0 0 0 0 0 0 0 0 0 0 0 0 0 0 0 0 0 0 0 0 0 0 0 0 0 0 0 0 0 0 0 0 0 0 0 0 0 0 0
584 611 597 558 592 600 612 0 0 0 0 0 0 0 0 0 0 0 0 0 0 0 0 0 0 0 0 0 0 0 0 0 0 0 0 0 0 0 0 0 0 0 0 0 0 0 0 2889 2878 2920 2923 2882 2903 2900 2925 2882 2895 2906 2856 2878 2912 2895 2893 2869 2881 2814 0 0 0 0 0 0 0 0 0 0 0 0 0 0 0 0 0 0 0 0 0 0 0 0 0 0 0 0 0 0 0 0 0 0 0 0 0 0 0 0 0 0 0 0 0 0 0 0 0 0 0 0 0 0
613 582 589 638 617 593 0 0 0 0 0 0 0 0 0 0 0 0 0 0 0 0 0 0 0 0 0 0 0 0 0 0 0 0 0 0 0 0 0 0 0 0 0 0 0 0 0 0 0 0 0 0 0 0 0 0 0 0 0 0 0 0 3021 2886 2881 0 0 0 0 0 0 0 0 0 0 0 0 0 0 0 0 0 0 0 0 0 0 0 0 0 0 0 0 0 0 0 0 0 0 0 0 0 0 0 0 0 0 0 0 0 0 0 0 0 0 0 0 0 0 0
591 565 628 577 598 577 0 0 0 0 0 0 0 0 0 0 0 0 0 0 0 0 0 0 0 0 0 0 0 0 0 0 0 0 0 0 0 0 0 0 0 0 0 0 0 0 0 0 0 0 0 0 0 0 0 0 0 0 0 0 0 0 0 0 0 0 0 0 0 0 0 0 0 0 0 0 0 0 0 0 0 0 0 0 0 0 0 0 0 0 0 0 0 0 0 0 0 0 0 0 0 0 0 0 0 0 0 0 0 0 0 0 0 0 0 0 0 0 0 0
589 615 592 628 607 0 0 0 0 0 0 0 0 0 0 0 0 0 0 0 0 0 0 0 0 0 0 0 0 0 0 0 0 0 0 0 0 0 0 0 0 0 0 0 0 0 0 0 0 0 0 0 0 0 0 0 0 0 0 0 0 0 0 0 0 0 0 0 0 0 0 0 0 0 0 0 0 0 0 0 0 0 0 0 0 0 0 0 0 0 0 0 0 0 0 0 0 0 0 0 0 0 0 0 0 0 0 0 0 0 0 0 0 0 0 0 0 0 0 0
596 585 590 575 562 0 0 0 0 0 0 0 0 0 0 0 0 0 0 0 0 0 0 0 0 0 0 0 0 0 0 0 0 0 0 0 0 0 0 0 0 0 0 0 0 0 0 0 0 0 0 0 0 0 0 0 0 0 0 0 0 0 0 0 0 0 0 0 0 0 0 0 0 0 0 0 0 0 0 0 0 0 0 0 0 0 0 0 0 0 0 0 0 0 0 0 0 0 0 0 0 0 0 0 0 0 0 0 0 0 0 0 0 0 0 0 0 0 0 0
583 630 558 615 0 0 0 0 0 0 0 0 0 0 0 0 0 0 0 0 0 0 0 0 0 0 901 0 882 866 892 0 924 941 848 867 892 846 919 889 0 0 0 0 0 0 0 0 0 0 0 0 0 0 0 0 0 0 0 0 0 0 0 0 0 0 0 0 0 0 0 0 0 0 0 0 0 0 0 0 0 0 0 0 0 0 0 0 0 0 0 0 0 0 0 0 0 0 0 0 0 0 0 0 0 0 0 0 0 0 0 0 0 0 0 0 0 0 0 0
546 571 642 0 0 0 668 741 731 689 679 706 677 738 685 671 703 721 680 702 692 729 721 646 687 757 739 711 702 685 720 759 712 717 687 709 722 768 727 720 754 772 714 705 799 745 759 819 779 765 734 811 751 762 753 803 761 810 730 747 806 773 760 767 797 791 763 799 737 793 818 768 828 0 0 835 0 0 0 0 0 0 0 0 0 0 0 0 0 0 0 0 0 0 0 0 0 0 0 0 0 0 0 0 0 0 0 0 0 0 0 0 0 0 0 0 0 0 0 0
537 576 573 557 541 561 561 576 584 578 585 581 591 558 585 598 613 605 583 561 596 589 573 580 594 596 602 584 625 633 580 586 609 599 601 618 630 578 604 633 622 607 608 622 624 569 629 630 608 614 618 631 612 599 687 651 648 642 655 605 658 621 660 657 675 647 647 636 665 669 677 658 660 678 661 641 654 643 669 664 686 718 683 668 673 676 669 696 645 667 703 703 689 656 681 658 651 682 616 654 678 670 0 0 0 0 0 0 0 0 0 0 0 0 0 0 0 0 0 0
493 525 517 526 499 516 491 496 496 492 513 501 519 506 507 530 514 500 511 502 526 514 491 514 509 487 528 513 540 511 508 513 507 519 523 528 529 519 510 532 520 524 533 518 532 520 518 523 522 540 547 536 548 527 520 537 532 530 541 526 555 538 521 544 542 559 508 542 529 570 568 548 569 570 538 536 550 545 567 551 549 528 575 566 575 601 586 609 583 547 561 546 568 604 569 581 625 621 617 634 593 605 603 607 0 604 0 646 616 601 0 0 0 0 0 0 0 0 0 0
437 470 402 445 440 430 418 437 432 455 436 449 467 440 433 451 450 440 451 463 453 447 450 438 452 445 471 444 454 445 463 460 451 460 458 463 467 460 469 463 475 473 466 454 459 464 458 480 478 466 470 478 461 467 456 473 473 476 482 480 469 478 482 464 461 503 474 464 470 491 484 489 491 486 482 478 485 469 481 479 480 480 489 474 483 489 518 483 507 478 500 506 494 500 473 515 487 491 483 508 500 519 491 530 496 472 458 502 497 516 497 502 0 0 0 0 0 0 0 0
388 388 392 400 432 392 390 403 406 389 406 389 407 406 418 415 405 402 409 407 402 410 408 419 411 415 413 415 417 411 407 419 422 419 417 414 415 413 413 409 419 414 427 425 410 420 428 422 414 425 414 428 431 411 419 425 428 435 414 427 425 438 438 425 425 434 427 428 431 426 430 426 416 422 427 411 416 437 425 424 433 418 449 444 447 436 434 447 433 439 428 445 432 420 441 430 420 434 439 463 434 454 439 443 412 421 422 439 456 438 456 438 472 431 0 0 0 0 0 0
353 342 352 336 352 350 343 356 358 347 375 357 358 361 363 371 361 356 367 356 363 368 362 368 377 350 366 378 358 375 380 375 378 368 371 374 377 371 366 369 368 370 354 383 369 384 385 373 369 377 375 371 376 375 370 387 393 373 376 390 382 380 378 388 388 395 398 397 384 388 394 390 379 392 391 384 407 400 390 393 390 391 401 406 387 385 389 389 389 392 400 391 399 374 394 378 394 401 397 410 377 384 400 403 411 393 400 389 381 406 386 384 407 372 350 421 0 0 0 0
311 318 328 307 334 303 302 339 332 340 317 332 331 354 331 313 349 319 325 335 338 334 333 352 337 336 337 334 341 330 335 337 332 331 340 349 338 338 327 344 331 337 338 335 335 336 339 348 329 340 344 344 340 342 339 345 347 350 334 357 340 342 341 341 350 342 335 345 338 338 354 355 337 346 354 351 339 342 337 336 342 354 342 344 347 346 339 344 335 352 355 354 356 349 348 339 349 338 347 358 370 369 351 366 340 355 361 365 372 348 361 363 338 339 353 329 333 0 0 0
290 295 271 278 305 293 293 307 306 304 318 285 284 304 299 292 314 299 303 291 301 305 310 293 289 297 308 304 312 300 297 303 301 307 313 307 309 310 306 316 318 316 312 306 310 301 308 312 318 310 309 311 310 308 303 315 310 310 319 321 318 319 317 321 309 320 317 316 319 307 320 322 319 314 313 324 322 306 314 321 327 319 312 320 321 330 326 325 326 321 319 323 307 318 316 328 341 341 308 333 343 326 324 314 324 348 330 321 315 339 317 335 323 337 318 316 330 325 352 0
275 277 278 273 291 283 282 282 273 281 274 273 286 279 281 285 288 276 277 283 287 283 280 277 287 277 277 284 283 280 279 285 286 279 282 278 282 283 285 285 282 279 283 284 284 283 283 286 284 283 294 287 283 284 289 280 285 287 287 291 286 291 287 292 289 289 282 283 297 289 290 283 284 290 286 296 287 287 285 293 286 292 293 291 284 292 289 290 295 301 285 286 298 296 302 300 288 291 309 294 303 307 295 296 291 309 297 300 313 296 312 281 326 288 269 343 326 295 285 295
248 249 255 260 257 252 251 256 268 247 252 255 251 259 264 251 264 261 258 256 254 262 264 256 254 250 255 257 257 260 253 261 263 256 264 258 271 263 273 268 266 255 270 271 257 264 260 266 267 265 266 267 262 263 276 263 269 260 256 267 267 264 267 260 274 265 267 264 264 264 263 263 262 269 269 265 262 263 260 270 267 258 265 267 263 270 266 272 259 271 261 269 264 262 265 270 258 273 277 285 276 275 264 282 270 270 274 269 272 275 260 257 258 275 279 278 281 273 229 298
234 231 237 233 246 232 244 236 243 240 231 239 243 244 240 235 236 246 247 240 238 247 245 239 243 237 240 235 236 243 237 246 241 245 244 252 238 247 253 250 248 246 248 242 248 248 244 245 250 248 249 250 250 248 256 250 253 249 256 249 249 249 252 248 251 245 256 253 250 252 246 246 245 246 246 246 249 248 246 244 249 247 247 248 261 254 253 255 253 245 247 251 250 253 257 255 248 249 248 249 261 253 259 244 267 255 251 249 248 249 259 247 262 261 235 238 248 249 288 267
219 218 218 218 220 228 228 222 219 213 222 219 224 231 224 225 219 218 226 224 226 223 234 229 229 224 225 229 230 231 229 232 234 229 236 233 239 234 230 229 235 236 236 234 227 221 229 235 237 234 235 237 225 231 229 233 230 229 241 237 234 236 233 231 237 236 235 235 232 233 231 233 237 238 230 234 235 232 229 232 230 229 236 238 239 226 234 237 231 231 234 235 234 236 229 228 231 241 236 243 248 241 246 249 240 233 234 230 242 240 234 247 235 247 242 226 232 235 233 247
211 201 224 218 217 203 205 207 208 213 213 210 206 217 210 213 213 209 206 219 212 213 211 210 215 214 212 212 209 199 216 218 216 214 216 216 219 214 217 222 221 219 219 218 221 220 218 205 203 217 217 202 216 220 221 204 222 226 223 220 217 207 221 221 219 217 206 218 221 222 206 216 226 215 204 219 198 220 218 221 216 221 222 226 220 225 223 224 217 213 220 218 218 221 219 221 220 217 225 224 222 215 221 219 221 227 225 230 231 228 223 214 208 203 208 215 219 202 222 224
193 195 194 196 205 207 203 200 187 197 202 204 201 191 204 185 186 189 192 191 189 187 194 191 183 184 191 192 189 195 188 189 188 193 194 195 195 188 186 194 193 190 198 192 202 198 199 199 192 192 197 196 191 193 189 199 202 199 195 197 197 198 199 194 201 200 202 202 199 192 192 197 196 192 200 190 192 192 194 189 189 212 197 200 199 200 198 192 193 212 210 199 195 188 190 192 188 211 209 196 211 215 206 197 215 214 209 211 210 210 208 220 208 206 209 205 218 209 194 206
181 177 198 191 191 174 180 186 177 184 180 177 186 181 184 182 186 188 180 177 190 185 183 187 190 183 190 191 184 190 194 186 185 193 195 191 194 189 193 191 192 192 196 200 200 198 191 198 193 197 195 195 198 201 199 197 202 199 202 198 195 202 192 201 200 195 199 195 191 199 197 191 200 197 196 194 196 194 191 192 195 193 193 197 192 192 191 194 185 193 192 186 186 181 188 183 180 180 186 187 186 183 185 181 193 181 181 189 202 204 183 181 184 176 188 185 200 173 206 170
170 179 178 177 174 175 174 176 183 176 184 179 178 185 180 187 185 184 183 182 184 185 186 186 183 189 188 184 188 185 188 182 184 186 190 184 185 186 186 182 186 185 190 188 188 186 189 192 189 187 195 187 190 185 189 190 189 196 187 194 186 186 185 194 188 193 191 188 191 183 194 188 190 194 186 188 191 188 191 189 193 198 187 189 189 189 184 183 189 188 190 190 190 181 188 190 190 188 188 187 187 188 179 185 182 178 185 183 183 176 177 179 179 182 191 179 200 184 178 202
168 169 163 163 167 169 173 178 168 164 173 175 172 171 176 173 170 176 172 180 177 175 172 172 172 166 181 176 170 178 176 180 178 173 177 177 174 177 179 172 174 177 176 177 184 180 178 181 180 185 176 179 173 179 181 183 180 180 175 176 175 173 177 178 178 182 182 181 181 180 180 183 176 178 182 177 181 181 181 184 182 182 176 174 175 178 174 177 176 177 173 178 175 178 169 175 178 177 179 181 173 181 184 178 185 179 173 178 173 174 172 180 177 171 178 174 172 163 165 160
165 162 164 168 162 161 156 161 168 166 164 169 163 168 167 170 166 172 172 170 168 164 173 168 172 165 169 174 171 168 171 172 171 168 165 171 176 166 171 171 171 173 175 164 174 172 168 172 172 169 173 176 173 172 175 175 173 176 175 171 172 176 172 174 175 173 169 171 171 174 171 173 171 173 173 172 177 172 175 171 170 173 170 173 170 169 178 175 175 168 169 170 169 161 171 175 170 170 174 176 170 177 168 177 181 177 177 174 170 167 170 171 174 175 175 179 167 173 161 165
153 161 160 164 162 161 163 158 158 155 165 160 158 163 162 160 159 163 169 169 158 164 163 161 159 161 162 157 162 163 161 169 160 165 159 159 161 160 163 161 165 162 165 167 166 168 164 160 161 162 160 170 162 166 165 163 166 165 162 169 161 167 164 163 162 165 163 163 161 163 165 161 163 162 162 167 163 162 169 162 161 160 166 164 163 166 163 159 166 161 165 163 165 162 166 163 161 157 171 162 163 166 155 162 159 160 164 162 157 157 163 174 166 157 173 165 172 174 155 161
145 147 150 146 156 146 148 147 156 159 152 153 149 152 152 150 150 155 154 158 154 154 157 152 158 157 148 161 152 158 159 157 154 153 153 153 152 153 152 159 157 158 159 160 154 153 154 153 153 157 159 156 161 159 160 155 157 153 162 164 163 156 158 161 161 160 157 157 157 159 161 160 159 156 158 164 165 161 161 155 160 154 158 155 158 155 158 158 159 158 154 157 153 157 159 152 156 153 154 156 152 157 155 159 162 154 156 150 158 158 157 153 148 155 159 159 149 157 151 149
136 139 144 143 146 140 144 149 149 145 151 146 146 142 145 142 145 148 146 151 155 150 152 153 149 151 143 150 152 144 145 143 147 148 148 146 152 150 146 149 154 149 149 155 151 155 149 147 149 150 147 154 151 151 155 153 149 154 150 155 155 149 151 155 149 152 151 153 154 150 150 155 150 155 150 153 158 153 151 154 148 152 149 145 150 148 154 153 152 151 153 149 152 150 156 149 145 148 153 155 154 155 157 153 148 145 145 150 149 151 147 144 145 154 160 151 158 150 145 127
137 138 141 138 135 139 136 138 142 137 147 142 144 142 138 137 144 138 143 146 142 145 147 145 141 148 147 145 145 141 142 133 146 146 140 144 145 141 142 147 143 145 148 151 144 147 146 145 135 146 145 145 146 145 147 147 144 147 148 147 144 143 132 149 152 143 148 151 150 151 148 147 146 149 146 147 150 147 151 147 146 143 147 129 144 142 147 147 149 146 150 148 148 145 148 143 140 145 150 149 150 148 145 143 142 144 138 140 143 150 140 150 149 145 147 153 149 137 141 145
128 137 134 129 134 137 138 139 139 131 138 0 133 134 135 134 138 142 136 142 144 143 142 135 142 147 146 137 138 139 129 130 130 129 128 129 133 129 127 140 132 144 140 145 140 139 140 142 129 141 141 140 134 144 144 145 145 132 131 128 131 130 134 147 145 131 143 146 141 140 130 142 131 132 143 140 143 144 145 142 142 141 127 131 141 140 145 140 140 139 126 141 145 142 142 147 141 139 146 144 139 140 138 140 140 140 130 139 144 139 138 132 137 135 137 144 141 125 120 130
132 130 128 132 139 136 144 133 131 138 137 135 139 138 139 134 129 137 137 135 141 139 141 138 141 139 134 136 138 127 126 129 141 127 131 126 126 130 128 126 144 143 139 129 0 133 125 128 131 126 125 130 141 135 0 142 0 129 142 129 131 126 141 142 127 128 140 129 142 130 126 126 126 140 130 131 132 127 132 125 128 140 137 138 138 137 139 127 128 144 136 129 140 138 136 128 140 139 142 139 137 122 135 146 138 133 129 136 134 135 136 137 135 141 141 145 135 146 153 142
124 105 124 107 124 126 138 133 109 122 121 128 120 132 122 122 123 124 123 120 122 128 127 124 127 139 135 139 0 129 129 124 118 124 124 115 126 123 125 122 128 129 128 128 0 0 128 126 128 122 122 121 129 127 124 129 129 128 126 123 124 125 129 127 125 126 131 134 123 128 129 124 118 127 122 118 119 132 118 126 128 125 121 123 125 127 128 124 127 130 123 127 125 127 125 120 126 139 127 132 117 117 121 125 112 113 132 122 120 117 116 132 134 127 130 113 107 142 105 131
109 115 110 108 110 121 123 122 127 109 119 118 117 122 115 121 112 123 134 122 127 123 125 123 127 123 131 126 126 125 129 0 128 119 113 113 117 119 0 119 127 127 0 0 0 0 125 125 121 123 124 123 125 118 124 125 120 121 119 120 128 128 113 121 121 125 129 125 119 120 126 119 133 120 119 121 117 126 126 124 120 118 125 122 119 123 123 119 126 121 117 118 123 122 122 119 135 122 124 122 118 119 118 118 110 120 124 113 121 129 118 138 119 134 107 126 131 114 104 133
104 99 113 116 113 109 112 115 110 112 119 112 112 110 113 112 116 114 114 125 113 107 114 121 118 114 120 117 122 121 122 0 118 119 114 112 116 0 115 117 122 0 0 122 126 0 119 121 110 114 114 118 118 120 118 116 119 121 115 118 120 120 124 118 119 116 118 121 117 115 117 119 115 115 114 108 121 113 117 117 114 112 115 119 115 115 121 116 115 118 118 114 116 112 107 119 122 118 115 114 119 123 118 112 118 116 130 120 108 130 114 114 105 108 117 131 114 112 92 103
96 106 107 97 99 107 116 111 100 109 112 103 109 104 124 117 111 114 98 106 114 107 114 104 106 110 113 117 114 117 117 116 114 113 112 111 106 115 0 111 116 113 107 107 108 115 118 0 113 0 112 112 119 113 0 0 109 109 116 114 120 115 106 109 107 113 110 111 120 113 115 108 106 101 110 107 108 109 105 115 115 105 104 109 110 110 114 107 107 115 109 108 98 109 108 115 113 112 106 112 106 109 113 104 109 108 105 102 111 118 108 109 109 113 99 110 109 104 100 107
99 96 111 110 102 109 110 108 107 110 106 116 101 105 114 121 113 112 112 106 102 98 98 102 110 111 106 111 108 115 110 107 109 105 117 114 114 0 109 107 107 108 112 104 109 104 107 109 116 0 108 110 110 112 110 110 106 108 112 110 105 107 116 0 114 106 104 112 111 106 110 105 104 113 100 102 104 105 100 111 108 101 109 109 99 111 99 106 102 105 106 108 107 99 102 101 108 104 111 110 99 109 110 113 108 105 100 106 97 112 116 100 117 104 111 117 100 113 104 110
90 87 107 107 97 92 97 99 92 95 98 102 99 100 105 103 100 102 108 99 101 101 96 98 104 101 104 99 98 105 106 106 105 100 105 99 103 106 104 102 102 102 98 96 100 106 106 104 103 101 106 104 105 103 106 112 97 101 104 98 100 111 103 0 109 100 0 113 103 107 102 104 97 107 103 106 94 103 0 101 0 104 99 103 98 102 96 97 99 103 103 100 97 99 91 93 92 98 97 99 99 98 98 106 102 97 101 96 97 86 85 93 85 109 96 86 87 109 86 125
87 90 84 92 93 97 100 89 97 93 97 95 94 95 98 99 96 98 106 99 101 90 92 94 95 100 105 99 99 99 107 103 106 103 100 100 100 103 104 99 100 99 98 94 96 102 106 101 104 109 109 99 94 97 95 100 105 107 101 101 106 98 108 99 110 104 101 109 105 101 100 105 102 98 95 94 100 99 99 98 0 105 95 93 97 100 100 105 91 101 97 103 100 99 90 101 97 98 85 104 97 89 98 87 92 109 94 98 97 103 91 96 90 95 95 106 109 85 90 119
89 97 94 101 93 93 97 89 87 92 93 91 95 93 95 83 99 91 108 108 103 95 94 89 94 91 100 95 94 109 97 97 100 101 94 102 96 94 93 103 96 95 90 92 98 95 101 102 98 103 105 94 88 92 96 100 94 99 95 99 93 86 103 0 101 101 97 97 94 98 100 98 101 103 85 102 100 97 99 107 96 97 89 107 99 100 90 90 94 93 96 92 102 85 91 87 94 87 103 91 90 100 98 93 102 95 101 82 94 94 94 89 92 95 94 84 103 113 93 87
88 88 78 82 90 85 86 87 83 84 81 90 95 86 85 82 85 89 93 86 93 93 94 93 94 87 97 88 90 94 88 88 97 95 90 92 89 96 95 93 86 84 96 89 89 96 89 89 99 98 92 95 97 96 96 99 95 99 97 91 89 99 88 93 92 94 99 94 92 97 99 93 99 88 88 92 91 90 87 95 97 88 91 96 86 96 90 97 93 95 94 92 93 92 93 90 92 94 90 87 82 85 90 83 91 92 88 82 90 89 82 85 85 87 92 98 76 63 59 98
87 82 85 83 90 86 87 102 83 88 90 88 87 90 87 87 89 90 89 93 81 96 96 95 95 90 91 89 88 85 88 92 97 93 102 84 90 92 93 97 90 96 92 90 96 95 93 97 87 97 98 88 95 96 95 98 98 91 93 96 99 89 98 94 89 93 91 99 89 92 99 88 95 91 97 89 96 93 97 93 93 90 96 95 89 95 91 94 88 90 97 99 101 86 90 92 93 82 88 100 88 89 93 96 91 98 90 91 88 85 89 89 81 87 87 87 84 94 0 0
81 89 86 86 85 90 84 86 84 0 83 82 83 87 83 89 91 86 84 86 88 94 88 95 80 89 92 86 96 92 89 92 94 96 94 94 93 91 95 92 95 91 98 89 86 91 90 97 90 86 89 98 91 94 88 98 97 93 95 95 96 99 90 98 98 93 95 96 94 93 97 95 95 95 94 92 85 89 96 96 97 92 88 90 89 90 95 99 101 93 89 95 107 91 85 84 92 94 89 85 82 90 91 89 91 85 91 90 89 79 87 94 74 87 81 87 94 83 104 0
75 86 79 85 85 84 96 89 86 79 81 83 91 87 90 84 78 86 81 89 85 91 87 86 85 85 89 88 87 89 86 85 89 87 90 90 88 89 88 91 93 91 95 97 97 83 97 92 90 88 96 95 92 84 95 94 91 90 92 96 90 94 92 87 89 91 87 92 88 92 90 94 90 96 95 90 88 95 89 88 87 86 92 95 91 91 86 88 87 88 93 88 85 91 91 80 88 85 89 90 78 81 84 84 84 84 93 86 71 90 76 90 84 85 75 86 83 84 0 0
84 74 82 78 86 82 92 97 80 89 88 82 91 86 88 86 83 90 91 89 91 92 89 85 82 85 86 87 87 92 86 83 88 92 92 87 90 88 85 94 91 88 89 93 90 89 92 93 95 95 92 86 87 86 88 93 94 96 84 90 97 90 82 96 87 82 87 91 90 93 86 85 94 90 95 90 89 92 93 88 92 91 85 84 91 89 95 86 91 88 89 93 81 86 88 82 86 84 90 83 84 91 91 89 85 94 80 86 83 77 80 90 93 74 83 0 0 0 0 0
74 66 60 65 77 79 82 83 82 77 82 78 83 77 80 76 75 81 78 77 83 78 83 77 72 74 78 83 80 76 87 71 79 83 88 78 83 83 84 79 88 82 80 72 78 82 83 84 86 82 79 75 72 81 76 82 90 88 90 72 79 81 79 79 76 80 80 79 78 80 81 86 79 80 83 84 77 84 88 90 74 82 71 76 76 86 76 77 77 80 85 68 79 75 81 79 82 83 72 87 70 72 73 68 69 72 79 73 77 81 79 71 71 77 76 66 0 0 0 0
69 69 75 84 71 84 83 87 82 79 82 84 73 74 82 84 85 82 77 78 79 88 73 81 86 83 78 74 85 83 82 79 84 85 82 70 84 80 82 84 89 80 85 87 89 90 80 78 86 79 84 81 79 72 86 83 82 82 82 76 86 78 79 80 82 81 78 79 88 67 81 75 89 84 89 84 82 87 88 90 84 81 78 77 75 75 77 72 82 83 77 79 69 71 83 75 85 79 66 75 82 72 74 67 71 74 64 78 71 80 81 71 80 106 75 0 0 0 0 0
