0 0 0 0 0 0 0 0 0 0 0 0 0 0 0 0 0 0 0 0 0 0 0 0 0 0 0 0 0 0 0 0 0 0 0 0 0 0 0 0 0 0 0 0 0 0 0 0 0 0 0 0 0 0 0 0 0 0 0 0 0 0 0 0 0 0 0 0 0 0 0 0 0 0 0 0 0 0 0 0 0 0 0 0 0 0 0 0 0 0 0 0 0 0 0 0 0 0 0 0 0 0 0 0 0 0 0 0 0 0 0 0 0 0 0 0 0 0 0 0
0 0 0 0 0 0 0 0 0 0 0 0 0 0 0 0 0 0 0 0 0 0 0 0 0 0 0 0 0 0 0 0 0 0 0 0 0 0 0 0 0 0 0 0 0 0 0 0 0 0 0 0 0 0 0 0 0 0 0 0 0 0 0 0 0 0 0 0 0 0 0 0 0 0 0 0 0 0 0 0 0 0 0 0 0 0 0 0 0 0 0 0 0 0 0 0 0 0 0 0 0 0 0 0 0 0 0 0 0 0 0 0 0 0 0 0 0 0 0 0
0 0 0 0 0 0 0 0 0 0 0 0 0 0 0 0 1306 1320 0 0 0 0 0 0 0 0 0 0 0 0 0 0 0 0 0 0 0 0 0 0 0 0 0 0 0 0 0 0 0 0 0 0 0 0 0 0 0 0 0 0 0 0 0 0 0 0 0 0 0 0 0 0 0 0 0 0 0 0 0 0 0 0 0 0 0 0 0 0 0 0 0 0 0 0 0 0 0 0 0 0 0 0 0 0 0 0 0 0 0 0 0 0 0 0 0 0 0 0 0 0
0 0 0 0 0 0 0 0 0 0 0 1126 1130 1198 1136 0 1282 1307 0 0 0 0 1277 0 0 0 0 0 0 0 0 0 0 0 0 0 0 0 0 0 0 0 0 0 0 0 0 0 0 0 0 0 0 0 0 0 0 0 0 0 0 0 0 0 0 0 0 0 0 0 0 0 0 0 0 0 0 0 0 0 0 0 0 0 0 0 0 0 0 0 0 0 0 0 0 0 0 0 0 0 0 0 0 0 0 0 0 0 0 0 0 0 0 0 0 0 0 0 0 0
0 0 0 0 0 0 0 0 1086 1133 1112 1122 1131 1146 1161 0 1244 1265 1260 0 1268 1217 1253 0 0 0 0 0 0 0 0 0 0 0 0 0 0 0 0 0 0 0 0 0 0 0 0 0 0 0 0 0 0 0 0 0 0 0 0 0 0 0 0 0 0 0 0 0 0 0 0 0 0 0 0 0 0 0 0 0 0 0 0 0 0 0 0 0 0 0 0 0 0 0 0 0 0 0 0 0 0 0 0 0 0 0 0 0 0 0 0 0 0 0 0 0 0 0 0 0
0 0 0 0 0 0 1119 1075 1109 1128 1139 0 1126 1163 1166 1200 1258 1246 1268 1272 1257 1247 1291 1264 0 0 0 0 0 0 0 0 0 0 0 0 0 0 0 0 0 0 0 0 0 0 0 0 0 0 0 0 0 0 0 0 0 0 0 0 0 0 0 0 0 0 0 0 0 0 0 0 0 0 0 0 0 0 0 0 0 0 0 0 0 0 0 0 0 0 0 0 0 0 0 0 0 0 0 0 0 0 0 0 0 0 0 0 0 0 0 0 0 0 0 0 0 0 0 0
0 0 0 0 0 0 0 0 0 0 0 0 1198 1216 1232 1228 1285 1270 1238 1274 1262 1247 1274 1226 1277 0 0 0 0 0 0 1385 0 0 0 0 0 0 0 0 0 0 0 0 0 0 0 0 0 0 0 0 0 0 0 0 0 0 0 0 0 0 0 0 0 0 0 0 0 0 0 0 0 0 0 0 0 0 0 0 0 0 0 0 0 0 0 0 0 0 0 0 0 0 0 0 0 0 0 0 0 0 0 0 0 0 0 0 0 0 0 0 0 0 0 0 0 0 0 0
0 0 0 0 0 0 0 0 0 0 0 0 1249 1256 1264 1273 1282 1283 1243 1275 1257 1248 1256 1261 1251 1329 1360 1389 1339 1325 0 1420 0 0 0 0 0 0 0 0 0 0 0 0 0 0 0 0 0 0 0 0 0 0 0 0 0 0 0 0 0 0 0 0 0 0 0 0 0 0 0 0 0 0 0 0 0 0 0 0 0 0 0 0 0 0 0 0 0 0 0 0 0 0 0 0 0 0 0 0 0 0 0 0 0 0 0 0 0 0 0 0 0 0 0 0 0 0 0 0
0 0 0 0 0 0 0 0 0 0 0 0 1308 1282 1261 1281 1276 1280 1271 1287 1266 1269 1263 1290 0 0 1363 1381 1373 1354 1406 1416 0 0 0 0 0 0 0 0 0 0 0 0 0 0 0 0 0 0 0 0 0 0 0 0 0 0 0 0 0 0 0 0 0 0 0 0 0 0 0 0 0 0 0 0 0 0 0 0 0 0 0 0 0 0 0 0 0 0 0 0 0 0 0 0 0 0 0 0 0 0 0 0 0 0 0 0 0 0 0 0 0 0 0 0 0 0 0 0
0 0 0 0 0 0 0 0 0 0 0 0 0 0 1277 1298 1287 1276 1301 1276 1246 1267 1286 1272 1265 0 1336 1350 1335 1352 1359 1397 1491 0 0 0 0 0 0 0 0 0 0 0 0 0 0 0 0 0 0 0 0 0 0 0 0 0 0 0 0 0 0 0 0 0 0 0 0 0 0 0 0 0 0 0 0 0 0 0 0 0 0 0 0 0 0 0 0 0 0 0 0 0 0 0 0 0 0 0 0 0 0 0 0 0 0 1843 0 0 0 0 0 0 0 0 0 0 0 0
0 0 0 0 0 0 0 0 0 0 0 0 0 0 0 0 0 0 0 0 0 1247 1280 1266 1312 0 0 1338 1375 1347 1384 1404 1457 0 0 0 0 0 0 0 0 0 0 0 0 0 0 0 0 0 0 0 0 0 0 0 0 0 0 0 0 0 0 0 0 0 0 0 0 0 0 0 0 0 0 0 0 0 0 0 0 0 0 0 0 0 0 0 0 0 0 0 0 0 0 0 0 0 0 0 0 0 0 0 0 0 0 0 0 0 0 0 0 0 0 0 0 0 0 0
0 0 0 0 0 0 0 0 0 0 0 0 0 0 0 0 0 0 0 0 0 0 0 1384 1359 0 0 0 1357 1360 1344 1402 1448 0 0 0 0 0 0 0 0 0 0 0 0 0 0 0 0 0 0 0 0 0 0 0 0 0 0 0 0 0 0 0 0 0 0 0 0 0 0 0 0 0 0 0 0 0 0 0 0 0 0 0 0 0 0 0 0 0 0 0 0 0 0 0 0 0 0 0 0 0 0 0 0 0 0 0 0 0 0 0 0 0 0 0 0 0 0 0
0 0 0 0 0 0 0 0 0 0 0 0 0 0 0 0 0 0 0 0 0 0 0 1350 1369 1275 1243 0 1330 1325 1342 1394 1444 0 0 0 0 0 0 0 0 0 0 0 0 0 0 0 0 0 0 0 0 0 0 0 0 0 0 0 0 0 0 0 0 0 0 0 0 0 0 0 0 0 0 0 0 0 0 0 0 0 0 0 0 0 0 0 0 0 0 0 0 0 0 0 0 0 0 0 0 0 0 0 0 0 0 1747 0 0 0 0 0 0 0 0 0 0 0 0
0 0 0 0 0 0 0 0 0 0 0 0 0 0 0 0 0 0 0 0 0 0 0 1354 1349 1359 1313 1276 1330 1316 1360 1379 1408 0 0 0 0 0 0 0 0 0 0 0 0 0 0 0 0 0 0 0 0 0 0 0 0 0 0 0 0 0 0 0 0 0 0 0 0 0 0 0 0 0 0 0 0 0 0 0 0 0 0 0 0 0 0 0 0 0 0 0 0 0 0 0 0 0 0 0 0 0 0 0 0 0 1777 1717 0 0 0 0 0 0 0 0 0 0 0 0
0 0 0 0 0 0 0 0 0 0 0 0 0 0 0 0 0 0 0 0 0 0 0 1360 1372 1347 1376 1311 1320 1322 1361 1428 1399 0 0 0 0 0 0 0 0 0 0 0 0 0 0 0 0 0 0 0 0 0 0 0 0 0 0 0 0 0 0 0 0 0 0 0 0 0 0 0 0 0 0 0 0 0 0 0 0 0 0 0 0 0 0 0 0 0 0 0 0 0 0 0 0 0 0 0 0 0 0 0 0 1735 1763 0 0 0 0 0 0 0 0 0 0 0 0 0
0 0 0 0 0 0 0 0 0 0 0 0 0 0 0 0 0 0 0 0 0 0 0 1382 1361 1378 1372 1384 1348 1318 1354 1412 1412 0 0 0 0 0 0 0 0 0 0 0 0 0 0 0 0 0 0 0 0 0 0 0 0 0 0 0 0 0 0 0 0 0 0 0 0 0 0 0 0 0 0 0 0 0 0 0 0 0 0 0 0 0 0 0 0 0 0 0 0 0 0 0 0 0 0 0 0 0 0 0 0 1782 1742 1755 1725 0 0 0 0 0 0 0 0 0 0 0
1241 1261 1288 1295 1266 1328 1293 0 0 0 0 0 0 0 0 0 0 0 0 0 0 0 0 0 1387 1366 1374 1383 1386 1384 1339 1399 1427 0 0 0 0 0 0 0 0 0 0 0 0 0 0 0 0 0 0 0 0 0 0 0 0 0 0 0 0 0 0 0 0 0 0 0 0 0 0 0 0 0 0 0 0 0 0 0 0 0 0 0 0 0 0 0 0 0 0 0 0 0 0 0 0 0 0 0 0 0 0 0 1816 1812 1794 1793 1728 1716 0 0 0 0 0 0 0 0 0 0
1282 1262 1268 1268 1292 1296 1300 1319 1330 1349 1382 0 0 0 0 0 0 0 0 0 0 0 0 1389 1356 1366 1377 1391 1369 1384 1404 1442 1435 0 0 0 0 0 0 0 0 0 0 0 0 0 0 0 0 0 0 0 0 0 0 0 0 0 0 0 0 0 0 0 0 0 0 0 0 0 0 0 0 0 0 0 0 0 0 0 0 0 0 0 0 0 0 0 0 0 0 0 0 0 0 0 0 0 0 0 0 0 0 1783 1830 1788 1784 1693 1767 1730 1706 1721 0 0 0 0 0 0 0 0
1273 1256 1277 1280 1301 1314 1289 1314 1333 1340 1347 1368 1350 1381 1406 1404 1445 0 0 0 0 0 0 0 0 1370 0 0 1407 0 0 1400 1440 0 0 0 0 0 0 0 0 0 0 0 0 0 0 0 0 0 0 0 0 0 0 0 0 0 0 0 0 0 0 0 0 0 0 0 0 0 0 0 0 0 0 0 0 0 0 0 0 0 0 0 0 0 0 0 0 0 0 0 0 0 0 0 0 0 0 0 0 0 0 1791 1812 1786 1752 1774 1734 1677 1744 0 0 0 0 0 0 0 0 0
0 0 0 0 1319 1314 1313 1305 1313 1329 1347 1352 1373 1382 1393 1378 1422 1443 1435 1473 1458 0 0 0 0 0 0 0 0 0 0 1457 1430 1409 0 0 0 0 0 0 0 0 0 0 0 0 0 0 0 0 0 0 0 0 0 0 0 0 0 0 0 0 0 0 0 0 0 0 0 0 0 0 0 0 0 0 0 0 0 0 0 0 0 0 0 0 0 0 0 0 0 0 0 0 0 0 0 0 0 0 0 0 0 1816 1848 1753 1750 1745 1672 0 0 0 0 0 0 0 0 0 0 0
0 0 0 0 0 0 0 0 0 1312 1331 1308 1352 1359 1384 1383 1394 1422 1414 1461 1436 1454 0 0 0 0 0 0 0 0 0 1459 1481 1445 0 0 0 0 0 0 0 0 0 0 0 0 0 0 0 0 0 0 0 0 0 0 0 0 0 0 0 0 0 0 0 0 0 0 0 0 0 0 0 0 0 0 0 0 0 0 0 0 0 0 0 0 0 0 0 0 0 0 0 0 0 0 0 0 0 0 0 1905 0 1738 1680 1634 1626 1612 1576 1580 1592 1569 1587 1579 0 0 0 0 0 0
0 0 0 0 0 0 0 0 0 0 0 0 0 0 0 1372 1397 1408 1435 1451 1469 1473 0 0 0 0 0 0 0 0 0 0 1487 0 0 0 0 0 0 0 0 0 0 0 0 0 0 0 0 0 0 0 0 0 0 0 0 0 0 0 0 0 0 0 0 0 0 0 0 0 0 0 0 0 0 0 0 0 0 0 0 0 0 0 0 0 0 0 0 0 0 0 0 0 0 0 0 0 0 0 0 1659 1619 1604 1617 1575 1614 1563 1577 1585 1629 1601 1538 1553 0 0 0 0 0 0
0 0 0 0 0 0 0 0 0 0 0 0 0 0 0 0 0 0 0 0 0 1508 0 0 0 0 0 0 0 0 0 0 0 0 0 0 0 0 0 0 0 0 0 0 0 0 0 0 0 0 0 0 0 0 0 0 0 0 0 0 0 0 0 0 0 0 0 0 0 0 0 0 0 0 0 0 0 0 0 0 0 0 0 0 0 0 0 0 0 0 0 0 0 0 0 0 0 0 0 0 1572 1574 1584 1605 1577 1567 1595 1593 1591 1574 1613 1581 1564 0 0 0 0 0 0 0
0 0 0 0 0 0 0 0 0 0 0 0 0 0 0 0 0 0 0 0 0 0 0 0 0 0 0 0 0 0 0 0 0 0 0 0 0 0 0 0 0 0 0 0 0 0 0 0 0 0 0 0 0 0 0 0 0 0 0 0 0 0 0 0 0 0 0 0 0 0 0 0 0 0 0 0 0 0 0 0 0 0 0 0 0 0 0 0 0 0 0 0 0 0 0 0 0 0 0 0 0 0 1590 1611 1634 1582 1593 1603 1623 1550 1617 0 0 0 0 0 0 0 0 0
0 0 0 0 0 0 0 0 0 0 0 0 0 0 0 0 0 0 0 0 0 0 0 0 0 0 0 0 0 0 0 0 0 0 0 0 0 0 0 0 0 0 0 0 0 0 0 0 0 0 0 0 0 0 0 0 0 0 0 0 0 0 0 0 0 0 0 0 0 0 0 0 0 0 0 0 0 0 0 0 0 0 0 0 0 0 0 0 0 0 0 0 0 0 0 0 0 0 0 0 0 0 0 0 0 0 1607 1608 0 0 0 0 0 0 0 0 0 0 0 0
0 0 0 0 0 0 0 0 0 0 0 0 0 0 0 0 0 0 0 0 0 0 0 0 0 0 0 0 0 0 0 0 0 0 0 0 0 0 0 0 0 0 0 0 0 0 0 0 0 0 0 0 0 0 0 0 0 0 0 0 0 0 0 0 0 0 0 0 0 0 0 0 0 0 0 0 0 0 0 0 0 0 0 0 0 0 0 0 0 0 0 0 0 0 0 0 0 0 0 0 0 0 0 0 0 0 0 0 0 0 0 0 0 0 0 0 0 0 0 0
574 608 0 0 0 0 0 0 0 0 0 0 0 0 0 0 0 0 0 0 0 0 0 0 0 1822 1882 0 0 0 0 0 0 0 0 0 0 0 0 0 0 0 0 0 0 0 0 2943 2931 2952 2872 2888 2928 2879 2910 2882 2924 2915 2888 2902 2900 2880 2895 2880 2875 2935 0 0 0 0 0 0 0 0 0 0 0 0 0 0 0 0 0 0 0 0 0 0 0 0 0 0 0 0 0 1786 1718 0 0 0 0 0 0 0 0 0 0 0 0 0 0 0 0 0 0 0 0 0 0 0
572 608 592 587 636 629 0 0 0 0 0 0 0 0 0 0 0 0 0 0 0 0 0 0 0 0 0 1930 1964 0 0 0 0 0 0 0 0 0 0 0 0 0 0 0 0 0 0 2922 2961 2928 2928 2915 2910 2924 2881 2914 2891 2889 2873 2895 2857 2889 2856 2874 2883 2954 0 0 0 0 0 0 0 0 0 0 0 0 0 0 0 0 0 0 0 0 0 0 0 0 0 0 0 0 0 0 0 0 0 0 0 0 0 0 0 0 0 0 0 0 0 0 0 0 0 0 0 0 0 0
582 569 591 591 620 621 647 642 594 0 0 0 0 0 0 0 0 0 0 0 0 0 0 0 0 0 0 0 0 0 0 0 0 0 0 0 0 0 0 0 0 0 0 0 0 0 0 2943 2916 2941 2941 2934 2969 2947 2865 2961 2939 2929 2949 2947 2910 2868 2947 2894 2879 0 0 0 0 0 0 0 0 0 0 0 0 0 0 0 0 0 0 0 0 0 0 0 0 0 0 0 0 0 0 0 0 0 0 0 0 0 0 0 0 0 0 0 0 0 0 0 0 0 0 0 0 0 0 0
582 583 569 586 605 630 631 663 664 662 659 736 0 0 0 0 0 0 0 0 0 0 0 0 0 0 0 0 0 0 0 0 0 0 0 0 0 0 0 0 0 0 0 0 0 0 0 2916 2924 2933 2859 2937 2998 2933 2870 2858 2858 2943 2882 2943 2904 2836 2910 2916 2875 0 0 0 0 0 0 0 0 0 0 0 0 0 0 0 0 0 0 0 0 0 0 0 0 0 0 0 0 0 0 0 0 0 0 0 0 0 0 0 0 0 0 0 0 0 0 0 0 0 0 0 0 0 0 0
572 604 575 602 607 619 620 673 644 658 679 688 705 711 740 0 0 0 0 0 0 0 0 0 0 0 0 0 0 0 0 0 0 0 0 0 0 0 0 0 0 0 0 0 0 0 0 2885 2939 2955 2900 2918 2960 2918 2940 2906 2923 2938 2928 2922 2878 2922 2917 2933 2893 2903 0 0 0 0 0 0 0 0 0 0 0 0 0 0 0 0 0 0 0 0 0 0 0 0 0 0 0 0 0 0 0 0 0 0 0 0 0 0 0 0 0 0 0 0 1812 0 0 0 0 0 0 0 0 0
743 787 769 741 679 668 644 657 650 662 671 702 694 720 752 757 775 820 0 0 0 0 0 0 0 0 0 0 0 0 0 0 0 0 0 0 0 0 0 0 0 0 0 0 0 0 0 2922 2942 2932 2888 2913 2932 2924 2916 2937 2880 2877 2864 2941 2912 2948 2896 2892 2884 0 0 0 0 0 0 0 0 0 0 0 0 0 0 0 0 0 0 0 0 0 0 0 0 0 0 0 0 0 0 0 0 0 0 0 0 0 0 0 0 0 0 0 0 0 0 0 0 0 0 0 0 0 0 0
799 797 799 811 827 806 845 820 796 792 747 744 723 724 740 754 753 778 807 827 850 0 0 0 0 0 0 0 0 0 0 0 0 0 0 0 0 0 0 0 0 0 0 0 0 0 0 2915 2896 2890 2924 2887 2899 2875 2919 2837 2923 2876 2918 2874 2878 2866 2891 2891 2874 2937 0 0 0 0 0 0 0 0 0 0 0 0 0 0 0 0 0 0 0 0 0 0 0 0 0 0 0 0 0 0 0 0 0 0 0 0 0 0 0 0 0 0 0 0 0 0 0 0 0 0 0 0 0 0
765 815 831 822 847 842 876 894 894 906 921 921 942 909 848 786 779 773 809 827 829 850 885 872 0 0 0 0 0 0 0 0 0 0 0 0 0 0 0 0 0 0 0 0 0 0 0 2888 2939 2923 2926 2867 2932 2878 2904 2911 2926 2908 2903 2926 2894 2876 2873 2899 2914 2885 0 0 0 0 0 0 0 0 0 0 0 0 0 0 0 0 0 0 0 0 0 0 0 0 0 0 0 0 0 0 0 0 0 0 0 0 0 0 0 0 0 0 0 0 0 0 0 0 0 0 0 0 0 0
639 0 824 834 853 856 841 886 913 909 917 942 938 950 939 964 935 933 895 856 838 839 849 883 905 919 0 0 0 0 0 0 0 0 0 0 0 0 0 0 0 0 0 0 0 0 0 2898 2947 2894 2908 2890 2904 2958 2898 2862 2892 2878 2877 2915 2893 2915 2936 2878 2885 0 0 0 0 0 0 0 0 0 0 0 0 0 0 0 0 0 0 0 0 0 0 0 0 0 0 0 0 0 0 0 0 0 0 0 0 0 0 0 0 0 0 0 0 0 0 0 0 0 0 0 0 0 0 0
672 920 955 953 959 941 926 903 914 934 936 944 956 955 949 946 955 957 953 950 946 930 908 923 917 938 950 959 990 0 0 0 0 0 0 0 0 0 0 0 0 0 0 0 0 0 0 2914 2909 2899 2943 2893 2935 2897 2952 2903 2891 2904 2880 2916 2889 2918 2911 2888 2897 0 0 0 0 0 0 0 0 0 0 0 0 0 0 0 0 0 0 0 0 0 0 0 0 0 0 0 0 0 0 0 0 0 0 0 0 0 0 0 0 0 0 0 0 0 0 0 0 0 0 0 0 0 0 0
589 677 0 0 0 0 0 0 0 0 984 962 963 967 973 949 957 957 945 945 930 950 947 918 965 948 984 980 1016 1068 1037 0 0 0 0 0 0 0 0 0 0 0 0 0 0 0 0 2925 2899 2894 2899 2908 2853 2902 2913 2909 0 2886 2885 2879 2901 2876 2890 2922 2933 0 0 0 0 0 0 0 0 0 0 0 0 0 0 0 0 0 0 0 0 0 0 0 0 0 0 0 0 0 0 0 0 0 0 0 0 0 0 0 0 0 0 0 0 0 0 0 0 0 0 0 0 0 0 0
603 590 596 0 1153 1136 1129 1135 1142 1127 1159 1129 1155 1137 1138 1136 1118 1017 0 0 1032 1074 1061 1006 1028 1025 1119 1138 1114 1095 1107 0 0 0 0 0 0 0 0 0 0 0 0 0 0 0 0 2917 2933 2973 2908 2884 2883 2852 2936 2888 2936 2902 2868 2850 2897 2884 2908 2884 2888 0 0 0 0 0 0 0 0 0 0 0 0 0 0 0 0 0 0 0 0 0 0 0 0 0 0 0 0 0 0 0 0 0 0 0 0 0 0 0 0 0 0 0 0 0 0 0 0 0 0 0 0 0 0 0
565 574 573 616 0 0 0 0 0 0 0 0 0 0 0 0 1396 1027 1002 0 0 1146 1105 0 0 1106 1143 1152 1133 1135 1099 0 0 0 0 0 0 0 0 0 0 0 0 0 0 0 0 2948 2916 2866 2918 2904 2876 2937 2861 2868 2892 2910 2868 2870 2870 2911 2867 2893 2864 2837 0 0 0 0 0 0 0 0 0 0 0 0 0 0 0 0 0 0 0 0 0 0 0 0 0 0 0 0 0 0 0 0 0 0 0 0 0 0 0 0 0 0 0 0 0 0 0 0 0 0 0 0 0 0
571 602 618 624 628 0 0 0 0 0 0 0 0 0 0 0 0 1000 981 0 0 0 0 0 0 0 0 0 0 0 0 0 0 0 0 0 0 0 0 0 0 0 0 0 0 0 0 2922 2906 2902 2911 2905 2915 2887 2900 2917 2865 2882 2915 2914 2871 2895 2893 2919 2855 0 0 0 0 0 0 0 0 0 0 0 0 0 0 0 0 0 0 0 0 0 0 0 0 0 0 0 0 0 0 0 0 0 0 0 0 0 0 0 0 0 0 0 0 0 0 0 0 0 0 0 0 0 0 0
607 610 590 609 596 584 0 0 0 0 0 0 0 0 0 0 0 0 0 0 0 0 0 0 0 0 0 0 0 0 0 0 0 0 0 0 0 0 0 0 0 0 0 0 0 0 0 2929 2889 2906 2868 2893 2890 2915 2895 2903 2894 2841 2926 2885 2904 2865 2874 2906 2899 0 0 0 0 0 0 0 0 0 0 0 0 0 0 0 0 0 0 0 0 0 0 0 0 0 0 0 0 0 0 0 0 0 0 0 0 0 0 0 0 0 0 0 0 0 0 0 0 0 0 0 0 0 0 0
598 600 578 613 589 591 0 0 0 0 0 0 0 0 0 0 0 0 0 0 0 0 0 0 0 0 0 0 0 0 0 0 0 0 0 0 0 0 0 0 0 0 0 0 0 0 0 2923 2881 2878 2907 2954 2903 2874 2881 2871 2877 2894 2889 2909 2876 2872 2938 2904 2873 2887 0 0 0 0 0 0 0 0 0 0 0 0 0 0 0 0 0 0 0 0 0 0 0 0 0 0 0 0 0 0 0 0 0 0 0 0 0 0 0 0 0 0 0 0 0 0 0 0 0 0 0 0 0 0
599 594 610 627 616 601 0 0 0 0 0 0 0 0 0 0 0 0 0 0 0 0 0 0 0 0 0 0 0 0 0 0 0 0 0 0 0 0 0 0 0 0 0 0 0 0 0 2965 2871 2901 2890 2879 2919 2917 2920 2923 2910 2898 2877 2903 2878 2849 2911 2902 2856 2882 0 0 0 0 0 0 0 0 0 0 0 0 0 0 0 0 0 0 0 0 0 0 0 0 0 0 0 0 0 0 0 0 0 0 0 0 0 0 0 0 0 0 0 0 0 0 0 0 0 0 0 0 0 0
569 613 611 605 596 601 620 0 0 0 0 0 0 0 0 0 0 0 0 0 0 0 0 0 0 0 0 0 0 0 0 0 0 0 0 0 0 0 0 0 0 0 0 0 0 0 0 2945 2894 2924 2900 2919 2935 2927 2916 2915 2918 2926 2858 2866 2885 2905 2921 2922 2882 2906 0 0 0 0 0 0 0 0 0 0 0 0 0 0 0 0 0 0 0 0 0 0 0 0 0 0 0 0 0 0 0 0 0 0 0 0 0 0 0 0 0 0 0 0 0 0 0 0 0 0 0 0 0 0
578 596 608 597 591 599 589 0 0 0 0 0 0 0 0 0 2308 0 0 0 0 0 969 936 0 0 0 0 0 0 0 0 0 0 0 0 0 0 0 0 0 0 0 0 0 0 0 2942 2900 2881 2887 2911 2875 2890 2901 2908 2911 2900 2907 2934 2919 2920 2923 2914 2900 2917 0 0 0 0 0 0 0 0 0 0 0 0 0 0 0 0 0 0 0 0 0 0 0 0 0 0 0 0 0 0 0 0 0 0 0 0 0 0 0 0 0 0 0 0 0 0 0 0 0 0 0 0 0 0
585 587 576 608 583 611 575 0 0 0 0 0 0 0 0 0 0 0 0 0 0 0 0 0 0 0 0 0 0 0 0 0 0 0 0 0 0 0 0 0 0 0 0 0 0 0 0 2892 2873 2928 2883 2924 2937 2954 2941 2906 2910 2888 2890 2881 2867 2886 2915 2871 2881 2908 0 0 0 0 0 0 0 0 0 0 0 0 0 0 0 0 0 0 0 0 0 0 0 0 0 0 0 0 0 0 0 0 0 0 0 0 0 0 0 0 0 0 0 0 0 0 0 0 0 0 0 0 0 0
595 567 584 623 600 607 0 0 0 0 0 0 0 0 0 0 0 0 0 0 0 0 0 0 0 0 0 0 0 0 0 0 0 0 0 0 0 0 0 0 0 0 0 0 0 0 0 0 0 0 0 0 0 0 0 0 0 0 0 0 0 2952 3058 2870 2891 0 0 0 0 0 0 0 0 0 0 0 0 0 0 0 0 0 0 0 0 0 0 0 0 0 0 0 0 0 0 0 0 0 0 0 0 0 0 0 0 0 0 0 0 0 0 0 0 0 0 0 0 0 0 0
576 601 603 590 590 580 0 0 0 0 0 0 0 0 0 0 0 0 0 0 0 0 0 0 0 0 0 0 0 0 0 0 0 0 0 0 0 0 0 0 0 0 0 0 0 0 0 0 0 0 0 0 0 0 0 0 0 0 0 0 0 0 0 0 0 0 0 0 0 0 0 0 0 0 0 0 0 0 0 0 0 0 0 0 0 0 0 0 0 0 0 0 0 0 0 0 0 0 0 0 0 0 0 0 0 0 0 0 0 0 0 0 0 0 0 0 0 0 0 0
583 609 614 594 587 0 0 0 0 0 0 0 0 0 0 0 0 0 0 0 0 0 0 0 0 0 0 0 0 0 0 0 0 0 0 0 0 0 0 0 0 0 0 0 0 0 0 0 0 0 0 0 0 0 0 0 0 0 0 0 0 0 0 0 0 0 0 0 0 0 0 0 0 0 0 0 0 0 0 0 0 0 0 0 0 0 0 0 0 0 0 0 0 0 0 0 0 0 0 0 0 0 0 0 0 0 0 0 0 0 0 0 0 0 0 0 0 0 0 0
602 608 577 588 607 0 0 0 0 0 0 0 0 0 0 0 0 0 0 0 0 0 0 0 0 0 0 0 0 0 0 0 0 0 0 0 0 0 0 0 0 0 0 0 0 0 0 0 0 0 0 0 0 0 0 0 0 0 0 0 0 0 0 0 0 0 0 0 0 0 0 0 0 0 0 0 0 0 0 0 0 0 0 0 0 0 0 0 0 0 0 0 0 0 0 0 0 0 0 0 0 0 0 0 0 0 0 0 0 0 0 0 0 0 0 0 0 0 0 0
609 604 569 616 0 0 0 0 0 0 0 0 0 0 0 0 0 0 0 0 0 0 0 0 0 0 883 847 883 889 891 887 895 893 898 888 0 933 908 913 0 931 0 0 0 0 0 0 0 0 0 0 0 0 0 0 0 0 0 0 0 0 0 0 0 0 0 0 0 0 0 0 0 0 0 0 0 0 0 0 0 0 0 0 0 0 0 0 0 0 0 0 0 0 0 0 0 0 0 0 0 0 0 0 0 0 0 0 0 0 0 0 0 0 0 0 0 0 0 0
586 599 666 0 0 0 0 709 711 708 709 686 625 725 714 691 703 721 707 702 707 736 659 747 716 729 692 741 708 689 712 713 727 747 785 739 735 768 733 774 774 772 725 727 753 728 759 798 740 813 787 740 774 762 775 776 736 789 754 821 805 781 821 803 807 749 822 780 786 776 838 812 840 0 0 0 0 0 0 0 0 0 0 0 0 0 0 0 0 0 0 0 0 0 0 0 0 0 0 0 0 0 0 0 0 0 0 0 0 0 0 0 0 0 0 0 0 0 0 0
554 564 558 550 597 567 589 556 570 591 581 556 554 594 600 543 608 592 602 551 594 609 585 610 570 609 586 603 583 597 602 632 612 634 632 606 619 615 584 602 590 600 616 599 619 587 641 614 625 640 643 604 649 633 589 645 627 618 641 658 621 635 649 637 679 680 641 669 645 662 667 652 668 657 669 640 659 724 691 652 652 678 712 670 685 685 694 664 662 693 697 691 673 715 727 712 681 690 678 699 736 762 0 0 0 0 0 0 0 0 0 0 0 0 0 0 0 0 0 0
492 477 475 467 474 495 519 482 493 488 505 501 503 464 513 491 477 484 494 518 504 507 496 503 496 517 491 502 509 512 514 519 535 520 513 506 531 499 498 506 514 541 520 504 509 527 510 510 522 536 546 535 525 539 506 541 536 524 548 522 524 547 508 546 551 553 494 535 536 541 562 524 569 561 557 559 585 532 552 562 540 544 553 545 561 553 557 561 543 578 595 587 571 532 563 589 551 570 585 539 567 584 578 560 0 559 0 556 576 578 0 0 0 0 0 0 0 0 0 0
403 436 426 405 436 427 419 444 433 426 426 429 433 456 478 439 442 444 436 441 429 449 473 446 446 440 446 448 456 462 465 446 468 439 446 463 452 462 454 465 462 477 480 462 465 455 461 475 476 481 471 463 477 461 486 458 476 470 479 469 470 481 478 478 478 483 483 487 477 471 475 494 495 483 478 486 471 478 489 474 471 482 500 490 484 473 485 506 479 479 485 496 514 480 503 472 494 496 462 478 498 509 455 516 515 490 460 473 484 489 485 509 0 0 0 0 0 0 0 0
387 403 393 391 387 385 386 411 391 377 398 383 409 396 396 399 397 400 398 404 397 407 410 400 411 410 409 410 403 414 398 409 410 414 415 415 428 416 425 412 417 404 428 420 421 412 413 415 421 421 424 429 428 427 431 423 423 426 425 433 427 440 420 427 426 428 432 418 440 434 432 421 431 435 424 422 421 435 419 431 438 435 425 436 439 433 434 449 442 434 424 407 426 431 419 444 432 441 438 448 446 426 433 448 431 439 416 429 451 444 416 435 431 430 0 0 0 0 0 0
335 349 346 343 353 369 356 361 360 352 369 371 359 340 375 379 377 367 363 371 373 370 364 372 362 363 361 360 376 371 370 365 379 366 377 369 379 361 369 373 383 374 369 370 361 376 395 382 378 388 379 376 380 382 373 373 370 390 376 387 386 386 379 381 378 397 391 386 389 396 398 382 396 397 387 395 402 404 401 396 382 391 403 399 397 397 382 390 394 392 405 387 402 390 405 376 405 395 385 384 405 392 375 401 397 385 349 386 400 391 376 398 400 413 395 406 0 0 0 0
309 326 328 332 319 322 350 321 344 321 340 348 343 330 317 331 356 336 341 360 355 335 344 339 332 350 337 355 350 345 342 340 352 340 337 332 351 344 332 347 337 336 349 337 348 344 348 354 332 342 349 344 356 346 337 341 338 336 346 351 341 350 346 349 352 346 342 344 352 339 357 341 345 342 349 352 341 339 349 357 350 361 350 362 352 352 351 349 361 348 344 355 347 351 356 349 353 351 371 354 375 344 361 359 353 366 362 363 357 359 370 360 333 389 367 393 323 0 0 0
288 303 316 294 297 298 302 303 297 309 299 300 312 313 306 292 311 298 297 310 297 307 300 300 295 287 301 308 289 310 296 303 294 306 307 304 304 317 300 300 312 307 311 303 303 311 314 315 316 311 311 306 308 303 311 318 317 306 325 304 309 312 314 318 310 316 320 318 315 312 313 314 316 311 305 321 317 312 309 310 320 324 318 315 319 325 329 321 326 325 326 313 324 331 318 327 331 321 313 331 316 332 333 349 322 329 327 335 323 335 336 339 321 305 303 358 358 308 316 0
288 278 279 282 284 279 280 275 268 271 277 273 276 288 278 281 282 271 274 291 282 279 276 281 284 271 283 282 273 272 280 281 276 279 278 278 280 272 284 282 288 289 280 283 287 284 288 284 291 288 285 284 286 289 279 290 286 285 284 291 280 284 281 291 292 290 286 291 296 284 289 289 290 284 290 290 294 290 286 287 299 286 305 291 285 294 286 293 296 293 288 299 298 312 310 301 284 297 293 303 292 288 289 321 306 293 314 292 297 310 314 285 285 289 305 263 291 307 309 308
256 248 249 256 256 256 250 256 258 255 249 249 247 257 263 251 263 260 258 258 255 262 258 256 261 261 257 258 252 258 254 260 260 258 261 260 258 268 264 263 267 261 258 265 268 264 265 260 266 270 264 264 264 263 263 265 264 260 266 263 266 265 269 262 269 267 267 259 271 266 264 271 259 268 257 267 268 261 265 268 262 261 265 279 267 268 270 268 259 262 262 265 262 268 272 265 268 269 272 275 282 260 280 275 278 277 261 288 285 271 254 284 279 267 283 266 264 279 271 247
235 228 234 240 239 230 229 233 236 232 234 231 242 242 238 244 238 239 244 243 239 243 240 240 246 236 245 240 239 250 245 248 238 235 242 248 244 252 250 248 243 237 252 249 243 247 239 241 243 244 251 246 251 250 254 242 252 242 247 253 256 253 253 258 251 250 249 258 250 251 247 244 255 250 247 249 249 254 250 246 248 248 250 243 254 253 251 252 252 250 249 252 257 248 257 253 250 248 250 253 258 251 257 264 245 240 253 249 248 258 249 251 259 260 254 268 261 277 239 251
220 220 214 213 218 227 227 218 219 213 217 225 224 224 222 226 217 222 234 221 230 219 229 230 234 225 220 233 232 233 231 227 227 223 225 232 228 226 231 227 237 236 231 231 227 230 233 235 226 234 234 232 231 233 233 235 234 230 238 234 234 231 242 232 239 227 234 233 235 235 232 233 230 232 228 232 233 234 226 227 236 229 233 227 235 224 234 238 223 228 233 233 238 230 224 231 235 227 238 236 231 240 238 233 241 236 236 245 237 246 225 237 234 239 233 231 234 216 238 242
210 203 217 212 218 203 208 212 205 217 208 214 209 221 215 207 220 212 208 217 212 212 209 209 216 214 196 199 218 214 213 217 215 219 211 197 211 202 213 219 217 218 213 212 202 217 222 217 223 221 202 216 216 224 221 220 216 202 219 221 220 206 219 224 202 216 224 224 222 217 218 223 223 200 221 222 222 219 222 222 218 224 224 232 222 221 223 219 212 212 222 213 226 215 218 218 232 217 230 218 220 220 218 222 219 224 218 227 229 228 223 218 226 228 228 220 224 196 228 240
190 194 202 200 208 199 188 201 189 199 199 205 187 190 188 189 191 189 194 190 191 191 193 193 191 188 182 192 188 189 190 190 189 193 198 193 197 191 199 193 189 193 186 190 192 190 194 195 198 196 195 193 198 194 201 196 196 196 195 197 197 193 197 194 194 192 197 192 197 201 196 191 190 190 195 200 193 193 189 202 189 192 194 191 196 201 200 191 194 212 212 198 208 193 195 208 192 213 213 210 209 193 208 209 215 206 218 203 206 208 208 212 211 220 202 202 201 177 211 199
175 181 190 193 196 174 182 184 198 181 185 177 176 182 183 182 177 178 179 190 189 185 180 184 179 192 190 182 194 195 194 185 192 191 196 197 195 197 189 193 196 198 194 198 199 195 193 192 194 194 191 197 200 195 197 199 200 198 197 193 193 194 195 200 198 194 195 196 199 196 199 192 198 191 192 196 194 197 190 196 194 189 196 189 187 185 195 190 188 187 194 182 182 193 190 182 187 182 189 181 177 204 178 202 193 179 185 188 202 203 199 202 191 179 182 212 199 178 171 173
169 170 178 176 175 181 182 178 173 177 182 178 183 182 186 179 180 185 185 181 186 188 183 183 183 187 182 186 188 184 188 183 185 188 191 187 185 185 189 189 183 181 184 188 191 187 184 187 186 183 192 188 189 187 191 188 189 190 183 190 181 187 190 186 191 188 191 191 187 190 188 190 187 189 188 189 191 190 184 185 189 191 186 190 192 188 186 182 185 190 178 188 190 190 192 186 189 182 186 189 182 187 187 186 179 180 178 179 180 178 180 180 198 198 173 177 200 184 175 177
173 169 162 163 164 168 167 167 165 167 175 169 172 171 171 176 176 175 178 172 172 172 171 172 171 167 170 174 174 181 169 181 179 175 173 171 177 172 177 178 176 178 177 168 187 178 178 180 179 181 181 176 179 182 181 177 179 176 177 175 178 174 177 181 179 177 181 184 180 176 177 182 180 180 181 176 183 182 175 182 179 184 175 171 181 175 176 175 179 184 175 178 178 169 171 176 176 182 177 177 173 182 177 179 176 178 174 174 170 173 175 176 173 174 169 162 174 169 176 161
162 163 163 168 159 162 153 159 162 165 166 167 163 171 167 167 170 171 171 170 163 163 169 168 166 162 170 167 169 174 174 172 167 164 164 168 170 169 168 169 167 173 169 168 175 173 169 170 173 170 169 170 175 174 174 172 172 172 175 172 174 171 169 169 173 176 171 163 171 170 170 177 169 170 173 170 174 176 176 171 168 169 167 173 171 168 178 172 172 168 171 172 168 169 170 163 177 175 166 170 172 174 177 179 184 173 172 166 165 171 178 168 173 178 168 178 169 176 170 181
155 158 166 169 164 160 163 156 150 156 158 159 160 159 160 161 161 162 167 167 157 159 168 165 161 163 160 154 161 162 160 168 163 165 156 160 158 157 159 161 160 158 166 163 161 163 164 160 162 162 157 167 169 164 166 165 165 165 163 166 160 158 163 165 164 168 160 162 167 162 160 161 166 161 166 167 176 168 166 169 166 159 167 167 166 165 166 159 163 165 162 165 160 164 171 162 160 158 171 171 171 163 160 168 160 157 167 160 159 163 163 169 158 158 173 163 173 172 152 169
144 151 152 150 146 149 146 151 152 152 150 149 148 153 150 153 152 165 151 156 156 154 161 158 153 156 149 155 154 162 156 157 155 154 155 156 152 156 151 157 158 153 157 158 156 152 155 152 154 155 159 152 161 163 162 153 157 153 159 161 160 160 158 164 157 159 156 158 152 158 157 159 158 160 159 161 162 162 160 153 155 153 155 154 152 155 153 160 165 157 157 156 151 155 158 152 155 152 154 158 152 156 158 156 158 152 149 149 155 154 153 156 154 159 152 148 149 155 156 172
141 139 145 143 145 146 141 147 147 143 151 143 146 149 148 152 146 146 142 149 153 146 153 154 148 148 151 154 155 150 151 147 148 149 148 145 149 150 145 148 153 153 148 151 144 149 149 149 149 150 150 154 152 147 153 153 153 153 154 154 156 147 152 152 147 150 152 154 152 149 146 154 152 154 154 152 161 159 151 153 150 155 155 144 146 154 158 154 157 149 153 152 154 152 159 149 155 150 149 157 154 155 154 149 151 149 151 150 151 148 156 153 161 151 155 151 141 159 147 138
134 138 139 134 137 138 138 142 140 141 143 141 144 142 138 139 140 137 141 150 142 145 141 151 144 142 150 143 143 141 137 133 145 142 141 140 142 142 146 146 142 146 150 143 146 147 145 142 141 145 141 135 143 143 146 149 148 146 151 147 149 142 131 150 149 146 141 148 145 149 141 148 144 145 146 149 149 153 149 147 146 142 149 145 142 145 150 147 151 142 148 148 146 145 147 143 141 144 151 151 142 147 147 143 143 140 145 146 147 145 146 152 139 144 147 160 145 146 137 140
130 134 132 131 128 140 142 137 138 135 138 0 131 137 132 135 140 140 137 138 144 140 139 141 138 141 148 137 139 138 138 130 130 128 128 127 141 128 138 140 132 145 140 140 138 141 141 139 128 129 142 142 133 144 143 141 144 130 132 132 133 130 142 145 141 130 130 143 143 141 142 133 129 143 141 132 143 146 141 144 146 129 140 130 145 144 144 139 142 141 127 143 144 139 141 138 139 141 145 143 143 143 139 142 143 139 136 141 145 143 138 132 127 133 134 147 136 136 143 138
131 128 128 135 135 135 142 134 134 134 134 133 139 135 136 124 128 138 135 132 138 140 137 140 141 136 138 129 137 123 123 129 138 127 127 125 125 129 127 126 144 140 140 139 0 133 129 126 127 127 128 140 127 135 0 134 0 131 131 130 129 127 133 131 140 130 142 129 140 139 130 129 126 125 127 128 144 125 128 131 127 130 129 128 124 126 137 128 130 144 124 139 138 141 126 137 142 143 140 140 135 121 134 125 138 131 135 137 130 135 139 138 133 137 133 142 129 138 133 137
116 104 123 107 127 132 130 123 115 118 121 119 113 122 124 121 121 133 123 122 120 126 122 124 121 137 138 136 0 138 126 121 118 123 117 121 128 125 124 122 127 126 124 131 0 0 128 123 126 125 121 116 128 122 125 130 131 127 124 123 127 120 127 130 125 124 130 131 123 129 119 125 115 124 118 123 119 132 123 124 129 122 127 125 118 127 124 127 127 128 123 127 126 136 122 120 125 138 136 126 121 120 124 126 110 120 113 115 121 127 128 131 128 132 132 102 133 136 131 76
112 117 122 112 116 119 129 122 118 114 111 116 121 123 120 117 115 122 124 118 126 122 126 119 121 119 126 123 124 119 125 0 123 122 110 113 120 120 0 120 128 124 0 0 0 0 120 128 121 118 120 124 125 121 127 121 123 121 121 119 123 120 117 124 119 125 126 123 120 124 124 116 124 121 116 117 122 125 129 122 117 119 124 121 119 120 125 115 128 120 120 121 124 122 121 118 135 121 120 120 121 116 124 117 108 119 121 114 120 129 133 138 121 126 126 116 127 112 108 142
107 104 117 115 111 115 115 116 110 111 120 116 116 107 114 114 115 117 110 119 111 110 113 113 118 112 118 117 119 124 124 0 119 113 114 112 115 0 114 117 120 0 0 121 124 0 120 117 111 115 114 116 118 118 116 118 114 117 115 119 121 118 125 123 120 121 118 122 122 117 114 118 110 113 119 110 121 113 115 122 112 120 113 120 115 116 116 111 114 117 121 118 123 116 107 119 126 121 112 119 114 121 111 110 114 115 115 115 124 119 113 113 128 108 106 112 116 105 90 103
98 103 109 102 97 102 108 115 105 113 103 106 107 109 123 118 115 107 107 103 110 110 113 103 109 110 116 114 114 112 120 114 113 111 112 110 107 112 113 113 117 113 113 109 110 113 116 0 111 0 113 112 118 113 0 0 107 108 117 112 123 114 109 111 108 104 109 105 118 109 115 108 111 102 111 107 107 111 103 111 115 105 101 108 106 108 112 110 106 112 107 110 96 115 110 113 108 117 112 100 107 105 117 108 110 108 100 110 115 114 102 115 106 111 95 124 107 91 98 76
105 105 110 112 104 100 110 107 108 108 113 109 111 106 117 114 112 114 113 100 106 102 101 108 111 104 107 111 107 115 110 111 107 105 112 111 115 0 105 107 112 109 112 103 100 108 107 107 117 0 108 114 109 110 109 109 102 109 109 115 113 105 114 0 112 111 109 109 107 109 104 98 106 110 98 106 100 102 103 110 110 107 105 108 99 105 100 109 105 106 106 110 101 97 99 106 110 104 109 109 103 107 112 114 104 103 109 110 109 116 113 97 125 108 115 111 103 118 116 122
87 94 108 111 100 94 97 97 92 91 105 102 96 97 102 97 100 109 107 100 99 101 88 107 99 100 106 100 100 103 110 103 104 99 102 100 100 106 104 103 106 102 97 98 95 106 105 97 105 102 105 102 104 101 105 106 97 101 106 100 100 105 103 0 107 101 0 109 102 106 103 102 99 108 102 106 95 102 0 102 0 102 96 98 99 100 97 98 102 101 100 98 93 95 98 94 95 94 99 97 100 98 98 101 93 96 101 99 95 93 98 97 87 99 100 91 86 90 103 105
88 87 79 91 94 91 98 91 91 92 99 96 102 101 104 100 96 94 108 102 98 90 93 87 93 94 104 100 102 101 109 101 101 102 99 101 101 99 98 98 98 94 98 92 99 100 99 102 100 103 108 98 94 101 94 108 99 105 101 103 102 98 107 101 112 106 100 107 109 101 101 106 102 98 93 95 100 97 102 95 0 101 96 92 98 98 95 104 91 98 101 97 101 103 94 104 88 94 85 105 99 91 103 89 97 101 95 88 106 102 91 94 103 95 96 108 95 85 87 96
91 95 95 99 89 91 91 87 86 89 92 91 89 92 94 88 89 87 105 107 103 96 95 90 95 91 96 95 87 102 99 95 100 99 96 103 100 93 95 101 95 92 93 90 99 97 98 98 93 102 101 97 86 90 97 99 97 91 100 97 98 100 100 0 100 105 98 93 95 95 99 97 104 99 87 103 99 98 95 104 98 98 85 101 99 93 91 91 91 96 95 97 97 80 86 92 94 92 102 86 100 97 99 95 102 93 103 82 91 89 94 86 88 97 103 85 105 98 97 82
87 86 76 82 87 88 86 90 85 87 87 88 93 91 85 90 86 91 83 81 92 94 90 95 92 88 95 94 88 92 95 90 96 91 90 92 84 91 89 91 86 95 96 85 87 98 89 99 91 95 99 94 97 95 95 91 92 98 94 94 87 94 88 90 89 88 90 92 98 97 96 93 99 99 99 92 92 90 96 91 98 92 90 86 89 92 88 92 92 90 93 91 92 93 93 91 92 89 90 84 91 92 90 91 88 92 85 80 90 87 78 72 80 87 84 99 76 79 85 85
88 82 83 89 93 84 88 97 90 91 87 90 88 90 92 86 96 92 94 91 81 88 91 86 90 90 93 95 89 84 93 93 95 90 100 94 87 88 98 99 88 93 93 94 96 97 97 95 90 90 99 96 97 98 92 99 95 98 98 90 94 91 96 95 89 93 90 93 91 97 90 99 96 93 97 96 94 96 83 94 95 90 93 91 87 87 98 91 96 92 95 97 97 91 94 94 91 83 88 100 91 84 93 99 84 91 87 80 86 82 85 86 82 83 102 100 85 94 0 0
81 87 85 86 84 82 82 86 84 0 82 90 83 90 92 87 91 87 88 87 90 83 86 94 89 89 94 92 87 88 89 91 90 96 92 88 95 91 95 86 86 90 92 87 98 87 92 96 88 98 90 99 94 89 96 95 99 92 95 91 96 85 93 96 88 96 98 90 95 95 97 88 98 96 91 90 97 89 97 92 87 96 87 89 91 91 81 96 102 95 90 99 97 87 91 86 90 89 93 88 82 88 93 87 82 88 94 84 93 88 88 85 80 82 86 85 80 131 90 0
74 79 78 87 87 83 89 86 88 79 82 82 88 88 88 91 85 89 81 93 89 91 89 91 86 84 89 85 95 89 87 82 91 91 85 96 87 89 87 90 89 87 92 92 98 85 93 92 90 91 96 96 86 83 95 98 98 92 93 93 90 94 91 91 88 92 87 90 89 91 92 94 91 96 97 85 87 95 88 92 91 88 92 88 92 90 96 90 87 92 91 90 82 87 84 78 84 86 86 90 70 80 84 87 86 90 90 89 77 86 77 90 91 83 72 80 72 63 0 0
80 73 77 81 84 83 91 92 81 87 79 87 87 82 90 91 81 86 92 87 87 92 84 83 80 94 88 85 87 86 85 86 89 88 87 87 91 88 87 88 91 84 88 94 94 92 88 89 93 92 91 91 91 85 90 93 91 94 87 91 92 89 84 94 92 98 89 87 90 89 93 85 91 87 96 85 89 91 93 86 92 91 90 81 96 91 90 86 93 87 85 92 81 84 86 85 92 84 92 87 80 88 83 85 78 94 79 88 85 77 85 85 84 82 74 88 0 0 0 0
76 67 67 65 79 79 82 82 82 76 83 78 78 89 84 78 81 82 74 74 84 74 82 85 76 76 78 85 86 79 85 71 82 79 88 73 83 82 82 75 81 80 81 71 77 81 79 83 84 83 87 82 73 88 76 75 82 86 92 72 79 82 78 79 81 81 75 81 80 78 82 84 83 80 82 83 80 85 88 86 77 81 77 76 73 85 81 78 79 83 84 73 85 74 82 79 75 82 70 82 68 76 74 68 72 77 80 67 71 78 81 78 81 85 78 80 0 0 0 0
67 70 79 83 71 79 85 87 81 77 80 86 76 82 73 84 84 83 75 77 76 83 73 82 84 84 78 73 83 81 84 82 83 82 81 71 80 70 79 79 89 83 86 84 87 90 83 78 86 80 81 75 83 77 83 78 84 81 86 74 82 77 82 85 82 74 77 77 90 71 76 80 84 82 84 84 80 89 84 85 82 76 80 80 74 80 80 70 78 84 65 83 73 74 83 76 87 79 79 71 86 74 70 71 71 80 66 82 79 88 72 79 79 88 87 0 0 0 0 0
