0 0 0 0 0 0 0 0 0 0 0 0 0 0 0 0 0 0 0 0 0 0 0 0 0 0 0 0 0 0 0 0 0 0 0 0 0 0 0 0 0 0 0 0 0 0 0 0 0 0 0 0 0 0 0 0 0 0 0 0 0 0 0 0 0 0 0 0 0 0 0 0 0 0 0 0 0 0 0 0 0 0 0 0 0 0 0 0 0 0 0 0 0 0 0 0 0 0 0 0 0 0 0 0 0 0 0 0 0 0 0 0 0 0 0 0 0 0 0 0
0 0 0 0 0 0 0 0 0 0 0 0 0 0 0 0 0 0 0 0 0 0 0 0 0 0 0 0 0 0 0 0 0 0 0 0 0 0 0 0 0 0 0 0 0 0 0 0 0 0 0 0 0 0 0 0 0 0 0 0 0 0 0 0 0 0 0 0 0 0 0 0 0 0 0 0 0 0 0 0 0 0 0 0 0 0 0 0 0 0 0 0 0 0 0 0 0 0 0 0 0 0 0 0 0 0 0 0 0 0 0 0 0 0 0 0 0 0 0 0
0 0 0 0 0 0 0 0 0 0 0 0 0 0 0 0 0 1245 0 0 0 0 1264 0 0 0 0 0 0 0 0 0 0 0 0 0 0 0 0 0 0 0 0 0 0 0 0 0 0 0 0 0 0 0 0 0 0 0 0 0 0 0 0 0 0 0 0 0 0 0 0 0 0 0 0 0 0 0 0 0 0 0 0 0 0 0 0 0 0 0 0 0 0 0 0 0 0 0 0 0 0 0 0 0 0 0 0 0 0 0 0 0 0 0 0 0 0 0 0 0
0 0 0 0 0 0 0 0 0 0 0 1134 1157 1171 1208 0 1303 1282 0 0 0 1288 1243 0 0 0 0 0 0 0 0 0 0 0 0 0 0 0 0 0 0 0 0 0 0 0 0 0 0 0 0 0 0 0 0 0 0 0 0 0 0 0 0 0 0 0 0 0 0 0 0 0 0 0 0 0 0 0 0 0 0 0 0 0 0 0 0 0 0 0 0 0 0 0 0 0 0 0 0 0 0 0 0 0 0 0 0 0 0 0 0 0 0 0 0 0 0 0 0 0
0 0 0 0 0 0 0 0 1094 1122 1155 1149 1123 1138 1126 1164 1266 1267 1295 1269 1262 1287 1264 0 0 0 0 0 0 0 0 0 0 0 0 0 0 0 0 0 0 0 0 0 0 0 0 0 0 0 0 0 0 0 0 0 0 0 0 0 0 0 0 0 0 0 0 0 0 0 0 0 0 0 0 0 0 0 0 0 0 0 0 0 0 0 0 0 0 0 0 0 0 0 0 0 0 0 0 0 0 0 0 0 0 0 0 0 0 0 0 0 0 0 0 0 0 0 0 0
0 0 0 0 0 0 0 1103 1102 1135 1129 0 1164 1182 1180 1217 1310 1264 1256 1302 1293 1277 1274 1254 0 0 0 0 0 0 0 0 0 0 0 0 0 0 0 0 0 0 0 0 0 0 0 0 0 0 0 0 0 0 0 0 0 0 0 0 0 0 0 0 0 0 0 0 0 0 0 0 0 0 0 0 0 0 0 0 0 0 0 0 0 0 0 0 0 0 0 0 0 0 0 0 0 0 0 0 0 0 0 0 0 0 0 0 0 0 0 0 0 0 0 0 0 0 0 0
0 0 0 0 0 0 0 0 0 0 0 0 1208 1252 1271 1301 1297 1296 1288 1310 1278 1256 1252 1282 1308 0 0 0 0 0 0 1448 0 0 0 0 0 0 0 0 0 0 0 0 0 0 0 0 0 0 0 0 0 0 0 0 0 0 0 0 0 0 0 0 0 0 0 0 0 0 0 0 0 0 0 0 0 0 0 0 0 0 0 0 0 0 0 0 0 0 0 0 0 0 0 0 0 0 0 0 0 0 0 0 0 0 0 0 0 0 0 0 0 0 0 0 0 0 0 0
0 0 0 0 0 0 0 0 0 0 0 0 1273 1265 1272 1258 1290 1286 1283 1304 1294 1245 1277 1300 0 1337 1367 1366 1375 0 0 1390 0 0 0 0 0 0 0 0 0 0 0 0 0 0 0 0 0 0 0 0 0 0 0 0 0 0 0 0 0 0 0 0 0 0 0 0 0 0 0 0 0 0 0 0 0 0 0 0 0 0 0 0 0 0 0 0 0 0 0 0 0 0 0 0 0 0 0 0 0 0 0 0 0 0 0 0 0 0 0 0 0 0 0 0 0 0 0 0
0 0 0 0 0 0 0 0 0 0 0 0 1253 1271 1275 1298 1284 1270 1296 1283 1245 1246 1296 1274 0 0 1328 1351 1400 1377 1377 1406 0 0 0 0 0 0 0 0 0 0 0 0 0 0 0 0 0 0 0 0 0 0 0 0 0 0 0 0 0 0 0 0 0 0 0 0 0 0 0 0 0 0 0 0 0 0 0 0 0 0 0 0 0 0 0 0 0 0 0 0 0 0 0 0 0 0 0 0 0 0 0 0 0 0 0 0 0 0 0 0 0 0 0 0 0 0 0 0
0 0 0 0 0 0 0 0 0 0 0 0 0 0 1292 1305 1293 1276 1274 1269 1274 1267 1266 1272 1288 0 0 1360 1372 1396 1369 1442 1400 0 0 0 0 0 0 0 0 0 0 0 0 0 0 0 0 0 0 0 0 0 0 0 0 0 0 0 0 0 0 0 0 0 0 0 0 0 0 0 0 0 0 0 0 0 0 0 0 0 0 0 0 0 0 0 0 0 0 0 0 0 0 0 0 0 0 0 0 0 0 0 0 0 0 0 0 0 0 0 0 0 0 0 0 0 0 0
0 0 0 0 0 0 0 0 0 0 0 0 0 0 0 0 0 0 0 0 0 1255 1251 1253 1255 0 0 1324 1340 1349 1412 1368 1401 0 0 0 0 0 0 0 0 0 0 0 0 0 0 0 0 0 0 0 0 0 0 0 0 0 0 0 0 0 0 0 0 0 0 0 0 0 0 0 0 0 0 0 0 0 0 0 0 0 0 0 0 0 0 0 0 0 0 0 0 0 0 0 0 0 0 0 0 0 0 0 0 0 0 0 0 0 0 0 0 0 0 0 0 0 0 0
0 0 0 0 0 0 0 0 0 0 0 0 0 0 0 0 0 0 0 0 0 0 0 1338 1332 0 0 0 1328 1344 1355 1458 1448 0 0 0 0 0 0 0 0 0 0 0 0 0 0 0 0 0 0 0 0 0 0 0 0 0 0 0 0 0 0 0 0 0 0 0 0 0 0 0 0 0 0 0 0 0 0 0 0 0 0 0 0 0 0 0 0 0 0 0 0 0 0 0 0 0 0 0 0 0 0 0 0 0 0 1724 0 0 0 0 0 0 0 0 0 0 0 0
0 0 0 0 0 0 0 0 0 0 0 0 0 0 0 0 0 0 0 0 0 0 0 1385 1377 1310 1247 1315 1311 1323 1355 1366 1423 0 0 0 0 0 0 0 0 0 0 0 0 0 0 0 0 0 0 0 0 0 0 0 0 0 0 0 0 0 0 0 0 0 0 0 0 0 0 0 0 0 0 0 0 0 0 0 0 0 0 0 0 0 0 0 0 0 0 0 0 0 0 0 0 0 0 0 0 0 0 0 0 0 1694 1719 0 0 0 0 0 0 0 0 0 0 0 0
0 0 0 0 0 0 0 0 0 0 0 0 0 0 0 0 0 0 0 0 0 0 0 1365 1385 1362 1332 1304 1322 1342 1344 1387 1419 0 0 0 0 0 0 0 0 0 0 0 0 0 0 0 0 0 0 0 0 0 0 0 0 0 0 0 0 0 0 0 0 0 0 0 0 0 0 0 0 0 0 0 0 0 0 0 0 0 0 0 0 0 0 0 0 0 0 0 0 0 0 0 0 0 0 0 0 0 0 0 0 1739 1759 1758 1706 0 0 0 0 0 0 0 0 0 0 0
0 0 0 0 0 0 0 0 0 0 0 0 0 0 0 0 0 0 0 0 0 0 0 1367 1387 1396 1380 1355 1352 1353 1397 1431 1448 0 0 0 0 0 0 0 0 0 0 0 0 0 0 0 0 0 0 0 0 0 0 0 0 0 0 0 0 0 0 0 0 0 0 0 0 0 0 0 0 0 0 0 0 0 0 0 0 0 0 0 0 0 0 0 0 0 0 0 0 0 0 0 0 0 0 0 0 0 0 0 0 0 1758 0 1801 0 0 0 0 0 0 0 0 0 0 0
0 0 0 0 0 0 0 0 0 0 0 0 0 0 0 0 0 0 0 0 0 0 0 1359 1373 1371 1379 1396 1354 1346 1362 1440 1416 0 0 0 0 0 0 0 0 0 0 0 0 0 0 0 0 0 0 0 0 0 0 0 0 0 0 0 0 0 0 0 0 0 0 0 0 0 0 0 0 0 0 0 0 0 0 0 0 0 0 0 0 0 0 0 0 0 0 0 0 0 0 0 0 0 0 0 0 0 0 0 0 0 0 1723 1767 0 0 0 0 0 0 0 0 0 0 0
1256 1271 1280 1276 1293 1333 1321 0 0 0 0 0 0 0 0 0 0 0 0 0 0 0 0 0 1366 1369 1392 1384 1385 1393 1384 1418 1430 0 0 0 0 0 0 0 0 0 0 0 0 0 0 0 0 0 0 0 0 0 0 0 0 0 0 0 0 0 0 0 0 0 0 0 0 0 0 0 0 0 0 0 0 0 0 0 0 0 0 0 0 0 0 0 0 0 0 0 0 0 0 0 0 0 0 0 0 0 0 0 1746 1820 1763 1737 1726 1741 0 0 1720 0 0 0 0 0 0 0
1228 1278 1270 1282 1288 1314 1308 1307 1321 1360 1343 0 0 0 0 0 0 0 0 0 0 0 0 1392 1356 1356 1367 1350 1366 1381 1402 1415 1432 0 0 0 0 0 0 0 0 0 0 0 0 0 0 0 0 0 0 0 0 0 0 0 0 0 0 0 0 0 0 0 0 0 0 0 0 0 0 0 0 0 0 0 0 0 0 0 0 0 0 0 0 0 0 0 0 0 0 0 0 0 0 0 0 0 0 0 0 0 0 1754 1802 1755 1753 1716 1744 1739 1738 1676 0 0 0 0 0 0 0 0
1227 1256 1264 1271 1283 1289 1294 1310 1296 1301 1296 1332 1332 1341 1383 1407 0 0 0 0 0 0 0 0 0 1359 0 0 1356 0 0 1440 1405 0 0 0 0 0 0 0 0 0 0 0 0 0 0 0 0 0 0 0 0 0 0 0 0 0 0 0 0 0 0 0 0 0 0 0 0 0 0 0 0 0 0 0 0 0 0 0 0 0 0 0 0 0 0 0 0 0 0 0 0 0 0 0 0 0 0 0 0 0 0 1759 1720 1725 1711 1715 1689 0 1660 1642 0 0 0 0 0 0 0 0
0 0 0 0 1271 1291 1280 1299 1317 1303 1298 1317 1355 1367 1374 1395 1396 1399 1435 1450 0 0 0 0 0 0 0 0 0 0 0 1420 1423 1432 0 0 0 0 0 0 0 0 0 0 0 0 0 0 0 0 0 0 0 0 0 0 0 0 0 0 0 0 0 0 0 0 0 0 0 0 0 0 0 0 0 0 0 0 0 0 0 0 0 0 0 0 0 0 0 0 0 0 0 0 0 0 0 0 0 0 0 0 0 1734 1738 1702 1681 1669 1662 1662 1614 0 0 0 0 0 0 0 0 0
0 0 0 0 0 0 0 0 0 1328 1335 1335 1337 1350 1381 1381 1393 1401 1392 1440 1458 1467 0 0 0 0 0 0 0 0 0 1437 1468 1452 0 0 0 0 0 0 0 0 0 0 0 0 0 0 0 0 0 0 0 0 0 0 0 0 0 0 0 0 0 0 0 0 0 0 0 0 0 0 0 0 0 0 0 0 0 0 0 0 0 0 0 0 0 0 0 0 0 0 0 0 0 0 0 0 0 0 0 0 0 1769 1697 1661 1622 1630 1617 1565 1561 1604 1602 1538 1550 0 0 0 0 0
0 0 0 0 0 0 0 0 0 0 0 0 0 0 0 1367 1425 1427 1420 1445 1450 1488 0 0 0 0 0 0 0 0 0 0 1472 0 0 0 0 0 0 0 0 0 0 0 0 0 0 0 0 0 0 0 0 0 0 0 0 0 0 0 0 0 0 0 0 0 0 0 0 0 0 0 0 0 0 0 0 0 0 0 0 0 0 0 0 0 0 0 0 0 0 0 0 0 0 0 0 0 0 0 0 1758 1605 1590 1599 1579 1615 1580 1566 1608 1580 1583 1595 1603 1597 0 0 0 0 0
0 0 0 0 0 0 0 0 0 0 0 0 0 0 0 0 0 0 0 0 0 1461 0 0 0 0 0 0 0 0 0 0 0 0 0 0 0 0 0 0 0 0 0 0 0 0 0 0 0 0 0 0 0 0 0 0 0 0 0 0 0 0 0 0 0 0 0 0 0 0 0 0 0 0 0 0 0 0 0 0 0 0 0 0 0 0 0 0 0 0 0 0 0 0 0 0 0 0 0 0 0 1635 1617 1612 1612 1608 1609 1609 1614 1601 1588 1573 1601 1609 0 0 0 0 0 0
0 0 0 0 0 0 0 0 0 0 0 0 0 0 0 0 0 0 0 0 0 0 0 0 0 0 0 0 0 0 0 0 0 0 0 0 0 0 0 0 0 0 0 0 0 0 0 0 0 0 0 0 0 0 0 0 0 0 0 0 0 0 0 0 0 0 0 0 0 0 0 0 0 0 0 0 0 0 0 0 0 0 0 0 0 0 0 0 0 0 0 0 0 0 0 0 0 0 0 0 0 0 1593 1608 1628 1600 1592 1576 1585 1604 1593 1582 0 0 0 0 0 0 0 0
0 0 0 0 0 0 0 0 0 0 0 0 0 0 0 0 0 0 0 0 0 0 0 0 0 0 0 0 0 0 0 0 0 0 0 0 0 0 0 0 0 0 0 0 0 0 0 0 0 0 0 0 0 0 0 0 0 0 0 0 0 0 0 0 0 0 0 0 0 0 0 0 0 0 0 0 0 0 0 0 0 0 0 0 0 0 0 0 0 0 0 0 0 0 0 0 0 0 0 0 0 0 0 0 0 0 0 1613 0 0 0 0 0 0 0 0 0 0 0 0
0 0 0 0 0 0 0 0 0 0 0 0 0 0 0 0 0 0 0 0 0 0 0 0 0 0 0 0 0 0 0 0 0 0 0 0 0 0 0 0 0 0 0 0 0 0 0 0 0 0 0 0 0 0 0 0 0 0 0 0 0 0 0 0 0 0 0 0 0 0 0 0 0 0 0 0 0 0 0 0 0 0 0 0 0 0 0 0 0 0 0 0 0 0 0 0 0 0 0 0 0 0 0 0 0 0 0 0 0 0 0 0 0 0 0 0 0 0 0 0
576 562 0 0 0 0 0 0 0 0 0 0 0 0 0 0 0 0 0 0 0 0 0 0 0 1798 1841 0 0 0 0 0 0 0 0 0 0 0 0 0 0 0 0 0 0 0 0 2914 2987 2958 2889 2907 2950 2932 2879 2888 2862 2909 2944 2925 2928 2929 2888 2862 2939 2939 0 0 0 0 0 0 0 0 0 0 0 0 0 0 0 0 0 0 0 0 0 0 0 0 0 0 0 0 0 0 1682 0 0 0 0 0 0 0 0 0 0 0 0 0 0 0 0 0 0 0 0 0 0 0
575 573 606 614 619 636 0 0 0 0 0 0 0 0 0 0 0 0 0 0 0 0 0 0 0 0 0 1922 0 0 0 0 0 0 0 0 0 0 0 0 0 0 0 0 0 0 0 2946 2935 2951 2934 2908 2915 2927 2963 2950 2929 2894 2893 2910 2905 2959 2896 2893 2924 2934 0 0 0 0 0 0 0 0 0 0 0 0 0 0 0 0 0 0 0 0 0 0 0 0 0 0 0 0 0 0 0 0 0 0 0 0 0 0 0 0 0 0 0 0 0 0 0 0 0 0 0 0 0 0
579 593 592 605 614 629 648 646 687 0 0 0 0 0 0 0 0 0 0 0 0 0 0 0 0 0 0 0 0 0 0 0 0 0 0 0 0 0 0 0 0 0 0 0 0 0 0 2904 2904 2923 2884 2938 2894 2880 2867 2901 2865 2933 2913 2953 2859 2858 2932 2873 0 0 0 0 0 0 0 0 0 0 0 0 0 0 0 0 0 0 0 0 0 0 0 0 0 0 0 0 0 0 0 0 0 0 0 0 0 0 0 0 0 0 0 0 0 0 0 0 0 0 0 0 0 0 0 0
576 591 598 592 608 615 629 645 674 685 701 714 0 0 0 0 0 0 0 0 0 0 0 0 0 0 0 0 0 0 0 0 0 0 0 0 0 0 0 0 0 0 0 0 0 0 0 2905 2933 2888 2890 2925 2871 2923 2904 2914 2946 2932 2878 2886 2871 2897 2905 2894 2891 2916 0 0 0 0 0 0 0 0 0 0 0 0 0 0 0 0 0 0 0 0 0 0 0 0 0 0 0 0 0 0 0 0 0 0 0 0 0 0 0 0 0 0 0 0 0 0 0 0 0 0 0 0 0 0
569 601 606 616 630 632 631 646 666 678 695 696 719 711 781 0 0 0 0 0 0 0 0 0 0 0 0 0 0 0 0 0 0 0 0 0 0 0 0 0 0 0 0 0 0 0 0 2886 2940 2945 2920 2877 2865 2913 2896 2882 2889 2901 2917 2858 2920 2857 2883 2903 2906 2859 0 0 0 0 0 0 0 0 0 0 0 0 0 0 0 0 0 0 0 0 0 0 0 0 0 0 0 0 0 0 0 0 0 0 0 0 0 0 0 0 0 0 0 0 0 0 0 0 0 0 0 0 0 0
731 761 753 739 732 676 660 668 650 687 682 710 710 721 757 758 765 744 0 0 0 0 0 0 0 0 0 0 0 0 0 0 0 0 0 0 0 0 0 0 0 0 0 0 0 0 0 2925 2879 2877 2898 2954 2933 2914 2880 2929 2931 2881 2897 2906 2881 2889 2891 2892 2912 2948 0 0 0 0 0 0 0 0 0 0 0 0 0 0 0 0 0 0 0 0 0 0 0 0 0 0 0 0 0 0 0 0 0 0 0 0 0 0 0 0 0 0 0 0 0 0 0 0 0 0 0 0 0 0
777 813 826 832 837 817 831 835 830 786 757 745 704 748 753 723 777 789 802 821 836 0 0 0 0 0 0 0 0 0 0 0 0 0 0 0 0 0 0 0 0 0 0 0 0 0 0 2907 2911 2928 2935 2878 2884 2935 2949 2917 2852 2905 2887 2939 2916 2923 2878 2885 2917 2878 0 0 0 0 0 0 0 0 0 0 0 0 0 0 0 0 0 0 0 0 0 0 0 0 0 0 0 0 0 0 0 0 0 0 0 0 0 0 0 0 0 0 0 0 0 0 0 0 0 0 0 0 0 0
745 805 806 829 849 870 858 903 919 899 932 924 938 909 848 791 770 784 813 830 822 864 874 891 0 0 0 0 0 0 0 0 0 0 0 0 0 0 0 0 0 0 0 0 0 0 0 2932 2882 2935 2907 2902 2916 2919 2898 2933 2899 2897 2881 2839 2902 2865 2951 2895 2878 2885 0 0 0 0 0 0 0 0 0 0 0 0 0 0 0 0 0 0 0 0 0 0 0 0 0 0 0 0 0 0 0 0 0 0 0 0 0 0 0 0 0 0 0 0 0 0 0 0 0 0 0 0 0 0
612 0 833 846 841 868 871 876 889 903 927 946 950 950 942 956 932 911 908 844 836 831 856 896 903 936 0 0 0 0 0 0 0 0 0 0 0 0 0 0 0 0 0 0 0 0 0 2922 2943 2926 2902 2956 2879 2835 2897 2897 2874 2920 2947 2957 2867 2937 2914 2866 2899 0 0 0 0 0 0 0 0 0 0 0 0 0 0 0 0 0 0 0 0 0 0 0 0 0 0 0 0 0 0 0 0 0 0 0 0 0 0 0 0 0 0 0 0 0 0 0 0 0 0 0 0 0 0 0
611 902 929 932 950 924 917 909 924 945 930 947 952 947 950 948 960 949 955 946 941 933 910 916 906 928 961 961 1019 0 0 0 0 0 0 0 0 0 0 0 0 0 0 0 0 0 0 2948 2914 2935 2876 2918 2886 2923 2912 2872 2924 2923 2902 2921 2898 2922 2893 2942 2831 2951 0 0 0 0 0 0 0 0 0 0 0 0 0 0 0 0 0 0 0 0 0 0 0 0 0 0 0 0 0 0 0 0 0 0 0 0 0 0 0 0 0 0 0 0 0 0 0 0 0 0 0 0 0 0
618 730 0 0 0 0 0 0 0 0 954 942 969 981 969 952 952 946 951 968 962 941 942 931 944 978 977 999 1007 1057 1082 0 0 0 0 0 0 0 0 0 0 0 0 0 0 0 0 2910 2906 2904 2883 2947 2913 2857 2944 2955 2960 2859 2910 2923 2879 2957 2872 2863 2902 2857 0 0 0 0 0 0 0 0 0 0 0 0 0 0 0 0 0 0 0 0 0 0 0 0 0 0 0 0 0 0 0 0 0 0 0 0 0 0 0 0 0 0 0 0 0 0 0 0 0 0 0 0 0 0
567 580 580 0 1107 1146 1141 1139 1169 1137 1150 1149 1137 1155 1135 1134 1125 1064 0 0 1012 1082 1045 991 987 1004 1132 1147 1107 1113 1070 0 0 0 0 0 0 0 0 0 0 0 0 0 0 0 0 2919 3015 2939 2940 2907 2886 2900 2920 2904 2927 2903 2918 2884 2897 2905 2925 2872 2880 0 0 0 0 0 0 0 0 0 0 0 0 0 0 0 0 0 0 0 0 0 0 0 0 0 0 0 0 0 0 0 0 0 0 0 0 0 0 0 0 0 0 0 0 0 0 0 0 0 0 0 0 0 0 0
591 579 588 635 0 0 0 0 0 0 0 0 0 0 0 0 1427 1046 976 0 1078 1180 1106 0 0 1115 1165 1154 1162 1139 1109 0 0 0 0 0 0 0 0 0 0 0 0 0 0 0 0 2913 2899 2906 2930 2904 2926 2909 2915 2900 2935 2879 2917 2904 2887 2906 2884 2907 2941 2890 0 0 0 0 0 0 0 0 0 0 0 0 0 0 0 0 0 0 0 0 0 0 0 0 0 0 0 0 0 0 0 0 0 0 0 0 0 0 0 0 0 0 0 0 0 0 0 0 0 0 0 0 0 0
607 606 588 604 653 0 0 0 0 0 0 0 0 0 0 0 0 1001 967 0 0 0 0 0 0 0 0 0 0 0 0 0 0 0 0 0 0 0 0 0 0 0 0 0 0 0 0 2853 2906 2887 2860 2903 2922 2871 2940 2893 2878 2901 2889 2884 2904 2899 2914 2894 2857 0 0 0 0 0 0 0 0 0 0 0 0 0 0 0 0 0 0 0 0 0 0 0 0 0 0 0 0 0 0 0 0 0 0 0 0 0 0 0 0 0 0 0 0 0 0 0 0 0 0 0 0 0 0 0
564 578 612 590 614 606 0 0 0 0 0 0 0 0 0 0 0 0 0 0 0 0 0 0 0 0 0 0 0 0 0 0 0 0 0 0 0 0 0 0 0 0 0 0 0 0 0 2935 2893 2868 2847 2882 2874 2932 2933 2933 2881 2900 2899 2880 2889 2853 2871 2902 2863 0 0 0 0 0 0 0 0 0 0 0 0 0 0 0 0 0 0 0 0 0 0 0 0 0 0 0 0 0 0 0 0 0 0 0 0 0 0 0 0 0 0 0 0 0 0 0 0 0 0 0 0 0 0 0
565 577 603 611 609 594 0 0 0 0 0 0 0 0 0 0 0 0 0 0 0 0 0 0 0 0 0 0 0 0 0 0 0 0 0 0 0 0 0 0 0 0 0 0 0 0 0 2910 2928 2945 2951 2933 2942 2923 2873 2910 2943 2920 2901 2934 2928 2892 2920 2909 2915 2913 0 0 0 0 0 0 0 0 0 0 0 0 0 0 0 0 0 0 0 0 0 0 0 0 0 0 0 0 0 0 0 0 0 0 0 0 0 0 0 0 0 0 0 0 0 0 0 0 0 0 0 0 0 0
576 567 578 602 620 593 579 0 0 0 0 0 0 0 0 0 0 0 0 0 0 0 928 0 0 0 0 0 0 0 0 0 0 0 0 0 0 0 0 0 0 0 0 0 0 0 0 2917 2938 2899 2906 2891 2891 2876 2885 2888 2918 2887 2940 2895 2905 2924 2888 2926 2861 2929 0 0 0 0 0 0 0 0 0 0 0 0 0 0 0 0 0 0 0 0 0 0 0 0 0 0 0 0 0 0 0 0 0 0 0 0 0 0 0 0 0 0 0 0 0 0 0 0 0 0 0 0 0 0
579 599 611 602 614 599 602 0 0 0 0 0 0 0 0 0 0 0 0 0 0 0 0 0 0 0 0 0 0 0 0 0 0 0 0 0 0 0 0 0 0 0 0 0 0 0 0 2863 2888 2929 2918 2894 2925 2862 2879 2904 2923 2850 2874 2926 2876 2861 2905 2878 2912 0 0 0 0 0 0 0 0 0 0 0 0 0 0 0 0 0 0 0 0 0 0 0 0 0 0 0 0 0 0 0 0 0 0 0 0 0 0 0 0 0 0 0 0 0 0 0 0 0 0 0 0 0 0 0
579 616 564 606 618 602 601 0 0 0 0 0 0 0 0 0 2270 0 0 0 885 0 958 970 0 0 0 0 0 0 0 0 0 0 0 0 0 0 0 0 0 0 0 0 0 0 0 2910 2924 2870 2951 2900 2916 2870 2865 2874 2876 2879 2876 2914 2917 2886 2878 2897 2869 2859 0 0 0 0 0 0 0 0 0 0 0 0 0 0 0 0 0 0 0 0 0 0 0 0 0 0 0 0 0 0 0 0 0 0 0 0 0 0 0 0 0 0 0 0 0 0 0 0 0 0 0 0 0 0
592 607 587 607 652 589 570 0 0 0 0 0 0 0 0 0 0 0 0 0 0 0 0 0 0 0 0 0 0 0 0 0 0 0 0 0 0 0 0 0 0 0 0 0 0 0 0 2965 2912 2892 2898 2929 2915 2932 2901 2882 2912 2885 2891 2903 2901 2913 2887 2897 2879 2856 0 0 0 0 0 0 0 0 0 0 0 0 0 0 0 0 0 0 0 0 0 0 0 0 0 0 0 0 0 0 0 0 0 0 0 0 0 0 0 0 0 0 0 0 0 0 0 0 0 0 0 0 0 0
579 616 592 593 579 606 0 0 0 0 0 0 0 0 0 0 0 0 0 0 0 0 0 0 0 0 0 0 0 0 0 0 0 0 0 0 0 0 0 0 0 0 0 0 0 0 0 0 0 0 0 0 0 0 0 0 0 0 0 0 0 2942 2981 2905 2905 0 0 0 0 0 0 0 0 0 0 0 0 0 0 0 0 0 0 0 0 0 0 0 0 0 0 0 0 0 0 0 0 0 0 0 0 0 0 0 0 0 0 0 0 0 0 0 0 0 0 0 0 0 0 0
614 616 624 566 628 607 0 0 0 0 0 0 0 0 0 0 0 0 0 0 0 0 0 0 0 0 0 0 0 0 0 0 0 0 0 0 0 0 0 0 0 0 0 0 0 0 0 0 0 0 0 0 0 0 0 0 0 0 0 0 0 0 0 0 0 0 0 0 0 0 0 0 0 0 0 0 0 0 0 0 0 0 0 0 0 0 0 0 0 0 0 0 0 0 0 0 0 0 0 0 0 0 0 0 0 0 0 0 0 0 0 0 0 0 0 0 0 0 0 0
597 606 606 577 602 591 0 0 0 0 0 0 0 0 0 0 0 0 0 0 0 0 0 0 0 0 0 0 0 0 0 0 0 0 0 0 0 0 0 0 0 0 0 0 0 0 0 0 0 0 0 0 0 0 0 0 0 0 0 0 0 0 0 0 0 0 0 0 0 0 0 0 0 0 0 0 0 0 0 0 0 0 0 0 0 0 0 0 0 0 0 0 0 0 0 0 0 0 0 0 0 0 0 0 0 0 0 0 0 0 0 0 0 0 0 0 0 0 0 0
588 593 613 607 574 0 0 0 0 0 0 0 0 0 0 0 0 0 0 0 0 0 0 0 0 0 0 0 0 0 0 0 0 0 0 0 0 0 0 0 0 0 0 0 0 0 0 0 0 0 0 0 0 0 0 0 0 0 0 0 0 0 0 0 0 0 0 0 0 0 0 0 0 0 0 0 0 0 0 0 0 0 0 0 0 0 0 0 0 0 0 0 0 0 0 0 0 0 0 0 0 0 0 0 0 0 0 0 0 0 0 0 0 0 0 0 0 0 0 0
591 580 580 607 0 0 0 0 0 0 0 0 0 0 0 0 0 0 0 0 0 0 0 0 0 0 844 865 850 893 868 902 819 867 847 845 0 898 861 886 881 900 0 875 0 0 0 0 0 0 0 0 0 0 0 0 0 0 0 0 0 0 0 0 0 0 0 0 0 0 0 0 0 0 0 0 0 0 0 0 0 0 0 0 0 0 0 0 0 0 0 0 0 0 0 0 0 0 0 0 0 0 0 0 0 0 0 0 0 0 0 0 0 0 0 0 0 0 0 0
564 588 657 0 0 673 693 692 696 669 691 700 690 712 720 716 688 751 708 678 714 667 704 689 686 715 671 671 717 682 712 722 736 724 691 747 767 735 739 741 760 750 742 726 730 728 751 713 747 722 756 741 726 762 767 767 767 733 731 775 782 788 768 783 727 791 796 779 744 794 764 751 788 797 0 764 0 0 0 0 0 0 0 0 0 0 0 0 0 0 0 0 0 0 0 0 0 0 0 0 0 0 0 0 0 0 0 0 0 0 0 0 0 0 0 0 0 0 0 0
508 538 586 546 556 543 547 611 573 603 564 576 562 566 596 596 572 578 606 570 578 585 592 586 614 612 575 608 568 590 568 637 577 598 579 597 603 591 597 606 609 620 620 578 610 576 613 636 627 626 622 608 627 613 617 608 637 614 620 619 645 644 645 646 636 664 625 630 660 642 655 600 635 633 681 623 703 652 671 656 642 679 684 660 629 685 716 665 688 709 668 678 681 655 616 0 680 675 648 690 679 0 0 0 0 0 0 0 0 0 0 0 0 0 0 0 0 0 0 0
489 481 492 497 485 481 487 490 507 492 497 490 490 478 500 502 477 507 465 518 519 508 504 497 492 534 503 514 499 507 493 499 510 522 504 487 523 505 534 523 525 546 504 518 519 531 517 495 529 549 534 523 537 521 513 504 528 503 536 531 526 526 532 534 541 549 522 519 525 536 539 531 539 549 548 521 536 533 528 568 555 558 570 557 559 568 580 517 557 548 558 589 548 581 559 588 561 558 611 574 615 567 611 567 0 539 0 604 592 595 0 0 0 0 0 0 0 0 0 0
437 425 425 424 432 430 437 428 438 455 438 448 436 454 439 465 446 455 442 444 467 472 465 469 458 443 455 464 452 457 456 454 461 446 455 472 444 453 458 453 469 455 470 464 475 476 467 479 485 475 472 482 482 452 484 477 475 460 480 482 466 464 484 470 497 480 478 476 482 487 474 470 500 502 482 489 498 501 497 501 480 480 478 473 501 488 482 528 518 503 485 511 490 493 482 503 492 509 498 484 509 519 537 452 496 529 505 488 494 510 506 523 0 0 0 0 0 0 0 0
377 388 393 389 400 385 390 404 394 392 403 379 392 400 395 405 405 387 398 401 399 405 413 407 421 417 400 413 405 414 406 416 413 422 418 407 399 417 422 423 419 415 419 417 415 415 432 411 409 420 420 428 418 423 428 427 422 424 426 434 423 439 421 425 417 424 416 411 432 438 437 431 428 423 442 414 416 437 419 434 444 454 427 428 443 435 412 435 435 438 419 447 447 440 433 433 433 446 436 436 463 438 408 431 441 437 438 415 445 453 429 427 428 375 0 0 0 0 0 0
348 368 337 341 354 359 371 360 344 371 357 354 359 360 357 366 358 349 359 367 367 368 358 380 370 375 380 372 371 368 378 369 366 376 376 364 377 377 375 373 371 382 368 381 361 367 383 384 377 381 379 373 366 379 369 385 364 377 376 385 386 383 389 383 386 379 395 391 392 380 374 399 396 379 384 386 398 402 403 389 399 385 395 393 382 400 391 396 389 393 379 404 397 391 395 378 402 410 413 405 391 393 405 403 370 392 396 392 398 399 394 393 398 392 408 409 0 0 0 0
308 340 321 337 325 313 329 329 331 330 334 333 355 345 324 354 333 335 336 338 344 336 326 341 340 346 340 340 338 342 323 346 313 332 330 339 354 330 329 343 343 345 347 339 330 325 339 347 336 339 339 338 351 353 347 338 345 332 333 340 331 352 343 351 343 344 341 361 345 338 359 348 346 348 350 349 339 345 351 342 343 353 344 354 349 347 348 341 352 350 345 356 355 363 345 354 340 346 339 360 341 356 356 361 343 331 354 350 376 349 350 343 348 332 376 347 283 0 0 0
289 309 298 301 295 299 295 290 288 292 295 288 299 303 306 300 311 310 310 298 302 319 298 305 295 295 297 295 301 313 316 307 302 307 311 309 313 305 300 300 312 307 314 319 314 305 316 308 326 310 315 312 311 315 304 313 321 316 308 315 311 316 325 312 314 321 330 306 321 316 316 312 332 308 310 314 322 318 310 316 318 312 328 323 323 331 319 316 328 322 331 317 315 328 326 328 333 333 323 330 334 320 312 300 334 324 317 323 331 329 320 314 329 328 334 331 365 334 353 0
286 265 265 260 285 267 280 283 277 284 269 278 282 297 282 283 286 287 281 289 276 282 280 277 284 269 271 282 286 280 285 270 280 271 284 285 288 277 284 293 280 282 287 282 284 289 291 284 290 292 295 288 288 291 280 290 289 282 293 292 286 285 286 294 287 287 288 278 303 292 292 284 285 288 288 281 290 281 288 293 289 283 287 298 288 293 292 300 296 303 289 285 295 307 304 296 280 294 296 293 300 299 289 311 292 292 295 297 303 280 298 325 306 320 301 290 286 287 262 326
260 248 256 258 253 251 248 256 258 260 254 255 241 265 258 253 256 257 250 256 250 257 264 259 254 258 258 262 251 257 254 260 257 251 258 267 267 267 265 265 258 258 271 264 256 261 260 261 267 271 265 266 268 265 268 258 275 264 268 271 263 264 267 272 277 274 270 266 274 269 268 270 271 282 266 264 269 256 257 258 263 260 270 268 274 270 266 268 267 268 261 264 267 277 278 267 266 274 270 275 269 267 280 278 269 273 271 287 260 276 262 279 287 274 297 289 260 261 265 287
231 229 231 232 243 234 240 231 237 234 233 236 253 247 233 240 242 234 241 241 237 248 239 245 245 238 239 249 243 245 244 254 241 245 246 254 241 246 246 251 246 252 242 246 249 247 249 251 247 249 251 244 247 253 255 245 254 244 247 251 253 253 251 253 253 250 253 251 248 259 250 245 253 245 250 257 249 255 251 253 250 248 244 249 256 255 249 246 250 246 254 252 251 255 249 248 252 260 249 257 258 237 261 256 257 247 248 253 249 246 263 244 266 271 255 260 275 271 265 228
218 216 225 218 218 223 220 213 223 215 218 220 224 227 227 222 219 224 228 224 228 223 222 229 225 226 223 225 224 228 227 232 230 237 227 232 232 226 233 232 224 227 227 227 236 237 235 234 234 233 228 230 232 236 231 234 228 239 233 230 237 236 233 232 235 234 232 236 231 234 231 235 226 233 230 233 229 230 233 231 231 231 238 230 239 226 238 243 241 236 237 232 234 235 234 232 231 233 241 236 245 237 246 229 235 235 237 238 240 239 231 237 237 240 240 239 248 239 205 215
208 213 217 215 208 206 210 209 213 211 211 208 214 219 210 214 210 210 214 217 213 211 211 209 195 219 212 215 216 215 218 218 215 212 215 212 219 217 212 226 198 201 225 216 221 215 216 221 202 220 200 217 220 202 208 220 221 219 222 218 220 205 225 229 219 222 223 218 222 223 217 221 220 219 202 217 226 218 215 218 219 224 224 221 221 220 223 221 210 217 225 213 218 224 224 225 220 219 226 219 211 220 222 225 221 217 222 230 226 219 219 221 220 216 215 209 210 207 210 224
193 183 195 200 208 204 185 202 187 197 200 202 184 193 189 205 191 206 196 192 190 204 197 206 188 190 184 192 189 195 191 189 189 210 199 191 189 195 212 198 187 197 195 199 198 199 199 200 201 197 195 198 202 192 191 192 196 196 194 200 196 188 192 197 193 198 199 190 201 196 198 195 193 194 196 192 200 198 192 193 189 191 198 195 199 201 198 187 214 211 194 196 209 192 193 187 186 195 208 209 207 207 214 208 214 217 206 205 206 205 208 213 214 220 215 203 203 175 195 182
180 175 190 196 192 180 196 185 184 175 186 179 179 177 205 186 181 184 179 188 178 186 180 186 179 182 190 193 183 185 194 187 191 192 192 195 194 192 191 192 194 195 196 197 190 197 190 194 197 195 197 197 193 195 192 194 197 199 198 201 198 200 200 199 200 198 199 199 189 198 193 194 198 199 194 196 196 196 192 189 194 195 197 196 190 191 192 193 194 192 187 185 186 178 182 191 182 190 183 182 181 186 181 190 183 176 182 202 204 201 185 183 182 180 184 179 172 169 184 208
175 179 169 178 178 180 181 183 173 174 176 183 176 180 177 181 186 184 184 187 187 187 183 186 187 181 186 190 183 187 184 184 185 181 188 187 180 184 185 185 188 184 185 194 186 183 189 189 188 187 188 189 190 185 189 192 192 191 188 192 182 192 185 194 193 193 190 193 188 188 196 190 187 190 190 186 192 189 183 193 189 194 186 190 191 193 189 194 187 194 187 194 190 184 186 188 189 183 187 186 191 184 179 186 185 178 177 179 179 177 182 178 187 188 180 174 177 200 193 184
171 169 160 165 171 171 167 172 172 167 173 170 173 176 177 178 177 177 175 180 178 174 171 174 170 168 176 176 172 177 172 179 173 174 181 175 177 180 178 181 177 173 180 174 179 181 179 177 182 182 180 178 176 180 179 178 179 181 185 179 177 178 183 181 179 180 182 183 180 179 179 181 177 182 184 179 180 179 180 178 176 181 181 178 175 179 176 181 177 184 176 181 178 174 176 179 182 181 184 178 179 177 184 177 181 175 182 172 170 176 180 173 174 176 178 169 169 169 169 170
164 164 168 165 160 166 157 159 168 166 169 168 163 169 167 170 166 171 171 170 171 168 170 167 170 160 168 173 167 174 172 171 168 163 166 171 168 168 175 166 165 168 173 172 172 174 168 169 171 168 173 168 172 168 174 170 171 174 172 173 168 173 175 170 173 171 174 170 171 175 178 174 178 173 168 174 173 175 173 173 164 174 173 167 170 172 175 172 172 170 172 176 174 171 170 174 177 167 172 175 174 174 171 165 175 175 171 165 168 162 167 164 176 172 168 174 172 175 169 168
158 161 170 161 159 164 163 159 152 157 162 159 156 163 157 167 158 164 163 167 161 161 164 163 162 162 161 156 159 168 162 168 159 165 159 165 158 162 162 162 162 167 162 161 162 164 167 162 159 161 165 167 167 165 164 170 163 166 161 170 162 167 165 167 161 163 161 166 164 161 163 163 164 164 168 164 166 165 168 167 160 163 168 164 167 167 167 161 167 167 164 164 163 163 162 164 162 165 167 167 167 169 160 169 157 164 163 162 155 160 162 175 166 153 164 159 159 159 160 152
146 144 150 152 152 149 145 152 146 154 148 153 142 155 153 149 151 161 155 155 162 145 156 160 150 153 155 157 152 155 154 154 152 160 152 157 150 156 151 157 157 154 160 155 154 162 157 152 155 157 160 157 159 154 156 158 160 155 158 160 167 161 163 160 160 157 158 151 155 158 156 160 163 153 162 161 164 156 157 153 160 157 161 152 156 156 156 159 161 158 154 157 154 158 159 159 157 151 154 155 148 153 156 154 160 147 152 149 150 159 149 157 144 155 143 151 152 157 148 136
137 145 149 143 150 148 144 149 155 143 147 146 147 143 152 144 147 150 142 151 147 149 149 153 151 152 149 152 150 147 148 146 148 148 147 143 152 155 146 151 154 147 146 153 156 152 152 146 149 153 152 148 146 148 153 150 156 155 154 155 152 148 157 156 148 150 150 153 156 153 152 155 143 152 153 151 157 156 152 152 152 149 152 144 148 153 153 150 153 151 154 153 157 150 157 155 151 148 155 155 154 157 157 157 146 154 147 147 150 150 150 146 157 157 161 143 142 147 150 123
134 136 139 138 140 138 135 139 140 141 142 142 141 143 141 139 143 137 138 148 144 147 141 139 140 142 148 141 145 145 142 132 144 142 140 146 144 142 144 146 147 145 150 144 143 143 145 140 143 147 141 147 146 147 145 146 144 153 146 143 148 147 142 145 148 146 148 143 144 146 145 149 147 149 147 146 149 151 151 148 143 143 149 139 145 146 146 147 148 145 148 150 145 147 146 146 146 147 151 151 151 145 149 142 144 140 142 141 142 145 144 145 137 144 151 149 144 143 145 134
132 132 132 132 133 136 139 137 137 137 137 0 130 134 137 137 139 138 139 137 146 142 140 142 142 141 145 139 137 137 139 130 143 131 130 141 140 130 139 139 133 144 145 143 141 141 139 131 129 124 141 146 140 143 135 142 144 143 144 131 134 134 140 144 145 143 139 144 134 138 132 132 130 142 142 143 148 142 143 142 147 142 145 131 138 144 141 141 144 139 129 138 144 146 144 140 141 144 142 142 143 143 143 144 143 136 135 141 148 139 134 141 137 135 128 144 138 134 143 144
129 130 125 130 136 138 143 135 138 134 134 134 139 140 135 133 128 136 133 125 139 139 139 138 140 136 134 139 137 124 126 128 130 128 124 129 124 129 128 129 143 141 143 138 0 140 140 127 128 126 127 128 131 143 0 142 0 131 130 141 131 126 133 141 129 128 132 127 131 129 126 127 127 130 131 128 142 130 139 128 127 130 125 128 127 128 138 128 138 139 124 141 139 136 137 126 138 141 140 141 135 132 138 136 126 122 134 133 137 137 129 133 135 136 134 142 137 144 153 136
117 106 126 107 114 129 142 130 117 116 125 127 120 131 125 135 123 133 124 122 122 126 129 134 128 139 137 139 0 138 131 126 118 123 123 117 129 124 124 123 130 129 124 130 0 0 128 125 128 122 121 121 127 128 126 129 134 129 127 126 124 125 128 127 125 129 126 127 126 129 128 123 121 124 123 126 122 130 123 128 130 127 124 121 118 137 120 128 124 121 122 128 125 126 122 121 134 138 134 132 132 122 123 124 115 127 118 123 121 134 130 138 141 138 121 109 126 148 98 123
112 117 121 110 114 131 128 116 133 118 119 120 121 118 125 117 115 123 123 119 132 125 126 120 125 124 129 125 124 130 128 0 123 123 121 111 121 120 0 124 126 125 0 0 0 0 126 127 121 125 126 122 124 126 128 127 124 124 125 115 129 119 113 124 122 130 127 125 122 121 122 122 125 121 120 117 122 127 124 123 119 117 121 122 119 118 122 116 129 122 113 120 119 122 121 119 137 125 122 121 121 120 123 122 117 121 119 116 116 131 116 129 127 134 131 130 138 116 125 154
105 98 115 116 110 110 112 115 113 116 121 118 102 110 108 117 116 110 112 123 117 111 115 122 109 111 121 117 118 116 124 0 118 122 113 113 114 0 115 113 122 0 0 122 124 0 121 121 113 114 118 116 118 121 122 117 119 122 114 117 122 119 120 115 122 120 118 120 117 116 117 116 115 114 113 118 113 117 117 118 111 113 119 118 115 112 115 116 116 120 119 121 119 122 107 117 125 119 113 116 113 118 114 108 115 111 118 115 108 122 124 115 112 118 127 122 117 127 95 132
94 103 109 102 95 103 105 106 105 114 103 109 113 116 125 115 110 111 99 105 113 108 113 103 109 109 114 116 113 118 121 114 110 109 113 109 106 114 0 114 115 112 110 107 111 114 119 0 114 0 113 114 119 116 0 0 110 111 111 112 127 116 106 107 105 109 106 109 118 109 107 103 107 98 108 105 108 103 107 111 108 105 110 109 110 109 107 108 111 118 102 107 98 107 111 115 114 115 109 109 106 109 115 109 108 108 103 108 114 115 112 112 100 100 104 108 110 97 104 104
102 101 113 112 103 104 109 108 110 110 106 112 104 107 113 118 113 112 111 101 109 97 97 102 113 109 104 108 105 119 109 108 108 106 113 113 116 0 108 107 106 106 110 100 104 105 108 104 111 0 110 112 107 116 107 110 105 110 114 107 104 109 116 0 119 108 105 110 112 112 105 101 107 113 102 99 99 100 101 110 109 106 102 110 98 104 103 108 102 103 109 111 98 104 102 106 107 109 109 106 106 114 106 112 105 104 105 107 101 110 100 104 113 105 114 110 105 115 146 133
95 90 108 107 100 91 99 100 95 94 102 100 102 101 103 102 99 105 106 99 100 106 92 101 107 99 106 103 101 109 104 100 107 103 105 104 101 110 104 103 107 104 98 97 100 103 109 101 105 99 103 104 105 103 100 104 97 102 108 100 104 110 102 0 108 103 0 112 101 105 105 102 99 106 102 107 99 104 0 100 0 104 97 103 100 101 97 99 99 101 99 108 97 101 91 86 101 100 98 94 101 101 99 99 99 100 96 98 93 86 102 98 87 109 111 85 107 129 86 130
91 90 86 92 94 93 99 94 97 93 101 97 98 103 99 101 97 95 108 103 96 99 94 92 95 96 102 100 101 94 109 104 107 104 100 98 96 100 99 99 99 101 101 96 96 97 107 105 102 104 109 99 100 99 91 102 101 104 102 102 105 103 107 104 111 105 102 108 106 101 101 102 97 100 97 96 102 100 100 96 0 104 94 89 99 94 98 113 92 99 96 100 96 101 93 100 90 95 86 102 103 93 102 82 91 102 96 100 101 96 83 88 89 89 95 114 100 87 86 105
95 101 93 99 87 93 97 87 87 96 98 93 97 93 90 82 94 88 112 106 101 96 81 95 97 91 98 95 93 106 102 97 101 97 95 104 102 97 100 106 97 92 94 91 100 97 100 104 93 99 100 96 89 90 93 101 90 93 103 102 94 94 101 0 100 104 100 99 96 97 96 100 104 104 86 102 98 105 103 104 97 95 88 101 98 97 93 92 97 95 96 98 96 82 92 87 99 92 103 89 96 95 97 98 98 99 101 85 92 87 96 92 92 88 97 89 134 105 96 89
83 79 78 88 90 87 78 91 82 90 82 92 90 90 86 91 88 92 85 81 91 91 89 87 88 93 98 92 90 94 90 90 98 91 87 90 86 92 97 95 90 96 97 85 99 99 87 88 92 97 95 91 98 96 95 98 94 93 94 93 91 91 98 95 93 94 89 89 93 96 86 95 90 92 85 95 97 87 88 87 89 89 96 95 88 83 91 90 95 89 91 88 95 91 91 94 95 91 86 86 93 89 91 81 86 88 90 82 86 86 84 85 89 93 89 89 92 63 98 108
88 82 86 82 96 86 87 93 92 88 90 89 90 89 91 91 89 83 92 92 84 91 89 85 90 91 93 91 90 88 90 90 100 90 97 97 92 96 91 99 96 94 88 93 96 92 95 94 89 94 99 88 94 99 92 92 93 99 94 95 89 93 98 92 99 93 99 90 88 94 93 89 96 95 93 89 93 100 84 97 100 91 95 91 94 88 90 94 88 92 93 97 101 85 90 90 90 94 87 101 96 90 88 95 84 98 92 89 90 80 93 90 88 80 96 98 101 75 0 0
83 92 88 88 87 90 86 88 85 0 85 84 86 92 83 80 91 90 86 88 89 88 90 90 91 88 87 89 91 90 90 93 89 96 94 89 86 94 95 86 97 90 92 87 96 90 95 94 91 98 89 98 96 92 88 97 96 93 97 98 95 97 87 98 90 99 94 93 99 92 89 95 88 95 92 90 88 92 87 87 94 92 90 89 93 93 84 101 101 84 89 93 106 91 87 88 91 92 90 85 84 80 83 89 90 81 94 91 90 76 86 90 82 82 86 86 89 101 89 0
80 76 71 86 86 87 91 88 87 79 80 79 90 86 84 89 83 85 78 90 87 88 88 83 85 83 89 82 91 88 82 85 91 90 85 90 90 89 90 87 93 85 85 97 97 85 94 93 93 92 95 94 91 86 96 93 91 88 97 90 88 92 91 85 85 95 91 87 92 97 87 94 97 96 89 86 91 93 94 89 85 86 96 88 90 88 83 87 89 86 93 86 85 82 82 83 91 82 92 91 75 79 82 85 80 85 88 80 73 79 78 83 80 78 75 66 64 69 0 0
82 74 77 84 87 82 90 96 80 87 83 91 86 91 91 88 80 88 88 88 90 90 87 81 81 92 84 86 89 93 88 84 92 91 91 88 90 89 88 91 93 84 87 95 94 91 93 89 93 92 92 87 86 82 83 96 90 94 82 92 93 91 86 94 90 97 83 87 88 95 87 86 87 80 92 88 91 92 93 85 88 92 88 85 89 93 90 84 93 92 89 88 83 82 87 80 90 84 91 88 81 88 89 85 85 88 82 87 81 82 86 89 99 86 79 0 0 0 0 0
78 69 60 62 73 77 81 85 83 75 80 76 78 90 84 79 82 75 79 80 84 79 84 79 74 78 83 84 83 80 88 74 81 80 86 82 80 78 84 77 88 81 79 74 79 83 82 85 82 75 80 81 70 80 82 85 82 89 86 73 86 79 82 83 78 80 78 83 86 77 80 87 79 74 84 82 75 84 87 88 78 78 73 78 77 87 77 77 73 79 85 70 81 74 75 80 72 88 68 80 67 70 73 61 71 73 74 81 76 86 85 60 77 70 79 98 0 0 0 0
68 69 75 77 62 78 86 85 81 80 80 84 75 77 80 74 84 81 70 79 75 80 72 83 82 86 73 69 81 84 83 83 81 85 77 72 76 72 77 79 90 82 87 86 82 86 86 81 85 81 82 79 75 84 85 82 85 81 81 68 77 74 83 83 83 68 80 79 89 70 82 79 82 79 86 80 80 86 87 85 80 83 77 80 71 83 84 72 97 80 71 81 71 77 80 76 85 86 76 75 84 67 75 73 70 72 68 67 78 86 88 86 41 60 83 0 0 0 0 0
