0 0 0 0 0 0 0 0 0 0 0 0 0 0 0 0 0 0 0 0 0 0 0 0 0 0 0 0 0 0 0 0 0 0 0 0 0 0 0 0 0 0 0 0 0 0 0 0 0 0 0 0 0 0 0 0 0 0 0 0 0 0 0 0 0 0 0 0 0 0 0 0 0 0 0 0 0 0 0 0 0 0 0 0 0 0 0 0 0 0 0 0 0 0 0 0 0 0 0 0 0 0 0 0 0 0 0 0 0 0 0 0 0 0 0 0 0 0 0 0
0 0 0 0 0 0 0 0 0 0 0 0 0 0 0 0 0 0 0 0 0 0 0 0 0 0 0 0 0 0 0 0 0 0 0 0 0 0 0 0 0 0 0 0 0 0 0 0 0 0 0 0 0 0 0 0 0 0 0 0 0 0 0 0 0 0 0 0 0 0 0 0 0 0 0 0 0 0 0 0 0 0 0 0 0 0 0 0 0 0 0 0 0 0 0 0 0 0 0 0 0 0 0 0 0 0 0 0 0 0 0 0 0 0 0 0 0 0 0 0
0 0 0 0 0 0 0 0 0 0 0 0 0 0 0 0 0 1286 0 0 0 0 0 0 0 0 0 0 0 0 0 0 0 0 0 0 0 0 0 0 0 0 0 0 0 0 0 0 0 0 0 0 0 0 0 0 0 0 0 0 0 0 0 0 0 0 0 0 0 0 0 0 0 0 0 0 0 0 0 0 0 0 0 0 0 0 0 0 0 0 0 0 0 0 0 0 0 0 0 0 0 0 0 0 0 0 0 0 0 0 0 0 0 0 0 0 0 0 0 0
0 0 0 0 0 0 0 0 0 0 0 1154 1169 1127 0 0 1264 1296 0 0 0 1249 1250 0 0 0 0 0 0 0 0 0 0 0 0 0 0 0 0 0 0 0 0 0 0 0 0 0 0 0 0 0 0 0 0 0 0 0 0 0 0 0 0 0 0 0 0 0 0 0 0 0 0 0 0 0 0 0 0 0 0 0 0 0 0 0 0 0 0 0 0 0 0 0 0 0 0 0 0 0 0 0 0 0 0 0 0 0 0 0 0 0 0 0 0 0 0 0 0 0
0 0 0 0 0 0 0 0 1114 1178 1146 1167 1137 1146 1161 1226 1297 1259 1285 1268 1306 1241 1261 0 0 0 0 0 0 0 0 0 0 0 0 0 0 0 0 0 0 0 0 0 0 0 0 0 0 0 0 0 0 0 0 0 0 0 0 0 0 0 0 0 0 0 0 0 0 0 0 0 0 0 0 0 0 0 0 0 0 0 0 0 0 0 0 0 0 0 0 0 0 0 0 0 0 0 0 0 0 0 0 0 0 0 0 0 0 0 0 0 0 0 0 0 0 0 0 0
0 0 0 0 0 0 0 1120 1114 1164 1137 0 1150 1182 1176 1207 1287 1258 1277 1258 1273 1275 1252 1275 0 0 0 0 0 0 0 1359 0 0 0 0 0 0 0 0 0 0 0 0 0 0 0 0 0 0 0 0 0 0 0 0 0 0 0 0 0 0 0 0 0 0 0 0 0 0 0 0 0 0 0 0 0 0 0 0 0 0 0 0 0 0 0 0 0 0 0 0 0 0 0 0 0 0 0 0 0 0 0 0 0 0 0 0 0 0 0 0 0 0 0 0 0 0 0 0
0 0 0 0 0 0 0 0 0 0 0 0 1236 1233 1261 1295 1278 1295 1320 1280 1251 1266 1274 1267 0 0 0 0 0 0 0 1419 0 0 0 0 0 0 0 0 0 0 0 0 0 0 0 0 0 0 0 0 0 0 0 0 0 0 0 0 0 0 0 0 0 0 0 0 0 0 0 0 0 0 0 0 0 0 0 0 0 0 0 0 0 0 0 0 0 0 0 0 0 0 0 0 0 0 0 0 0 0 0 0 0 0 0 0 0 0 0 0 0 0 0 0 0 0 0 0
0 0 0 0 0 0 0 0 0 0 0 0 1247 1263 1251 1293 1260 1287 1283 1266 1244 1224 1268 1263 0 1297 1334 1342 1336 1387 0 1370 0 0 0 0 0 0 0 0 0 0 0 0 0 0 0 0 0 0 0 0 0 0 0 0 0 0 0 0 0 0 0 0 0 0 0 0 0 0 0 0 0 0 0 0 0 0 0 0 0 0 0 0 0 0 0 0 0 0 0 0 0 0 0 0 0 0 0 0 0 0 0 0 0 0 0 0 0 0 0 0 0 0 0 0 0 0 0 0
0 0 0 0 0 0 0 0 0 0 0 0 1259 1286 1267 1278 1312 1289 1271 1255 1286 1287 1268 1267 0 0 1383 1363 1345 1352 1370 1400 0 0 0 0 0 0 0 0 0 0 0 0 0 0 0 0 0 0 0 0 0 0 0 0 0 0 0 0 0 0 0 0 0 0 0 0 0 0 0 0 0 0 0 0 0 0 0 0 0 0 0 0 0 0 0 0 0 0 0 0 0 0 0 0 0 0 0 0 0 0 0 0 0 0 0 0 0 0 0 0 0 0 0 0 0 0 0 0
0 0 0 0 0 0 0 0 0 0 0 0 0 1285 1291 1284 1279 1266 1275 1271 1288 1252 1283 1252 0 0 0 1331 1317 1360 1370 1407 0 0 0 0 0 0 0 0 0 0 0 0 0 0 0 0 0 0 0 0 0 0 0 0 0 0 0 0 0 0 0 0 0 0 0 0 0 0 0 0 0 0 0 0 0 0 0 0 0 0 0 0 0 0 0 0 0 0 0 0 0 0 0 0 0 0 0 0 0 0 0 0 0 0 0 0 0 0 0 0 0 0 0 0 0 0 0 0
0 0 0 0 0 0 0 0 0 0 0 0 0 0 0 0 0 0 0 0 0 1284 1270 1267 1258 0 0 1335 1363 1352 1392 1423 1388 0 0 0 0 0 0 0 0 0 0 0 0 0 0 0 0 0 0 0 0 0 0 0 0 0 0 0 0 0 0 0 0 0 0 0 0 0 0 0 0 0 0 0 0 0 0 0 0 0 0 0 0 0 0 0 0 0 0 0 0 0 0 0 0 0 0 0 0 0 0 0 0 0 0 0 0 0 0 0 0 0 0 0 0 0 0 0
0 0 0 0 0 0 0 0 0 0 0 0 0 0 0 0 0 0 0 0 0 0 0 1352 1326 0 0 0 1357 1339 1344 1403 1434 0 0 0 0 0 0 0 0 0 0 0 0 0 0 0 0 0 0 0 0 0 0 0 0 0 0 0 0 0 0 0 0 0 0 0 0 0 0 0 0 0 0 0 0 0 0 0 0 0 0 0 0 0 0 0 0 0 0 0 0 0 0 0 0 0 0 0 0 0 0 0 0 0 0 1754 0 0 0 0 0 0 0 0 0 0 0 0
0 0 0 0 0 0 0 0 0 0 0 0 0 0 0 0 0 0 0 0 0 0 0 1379 1374 1304 1287 1300 1350 1355 1338 1407 1439 0 0 0 0 0 0 0 0 0 0 0 0 0 0 0 0 0 0 0 0 0 0 0 0 0 0 0 0 0 0 0 0 0 0 0 0 0 0 0 0 0 0 0 0 0 0 0 0 0 0 0 0 0 0 0 0 0 0 0 0 0 0 0 0 0 0 0 0 0 0 0 0 0 1740 1730 0 0 0 0 0 0 0 0 0 0 0 0
0 0 0 0 0 0 0 0 0 0 0 0 0 0 0 0 0 0 0 0 0 0 0 1376 1390 1367 1311 1310 1337 1355 1345 1421 1397 0 0 0 0 0 0 0 0 0 0 0 0 0 0 0 0 0 0 0 0 0 0 0 0 0 0 0 0 0 0 0 0 0 0 0 0 0 0 0 0 0 0 0 0 0 0 0 0 0 0 0 0 0 0 0 0 0 0 0 0 0 0 0 0 0 0 0 0 0 0 0 0 1738 1699 1776 1693 0 0 0 0 0 0 0 0 0 0 0
0 0 0 0 0 0 0 0 0 0 0 0 0 0 0 0 0 0 0 0 0 0 0 1374 1395 1383 1374 1335 1325 1342 1352 1396 1409 0 0 0 0 0 0 0 0 0 0 0 0 0 0 0 0 0 0 0 0 0 0 0 0 0 0 0 0 0 0 0 0 0 0 0 0 0 0 0 0 0 0 0 0 0 0 0 0 0 0 0 0 0 0 0 0 0 0 0 0 0 0 0 0 0 0 0 0 0 0 0 0 1783 1717 0 1677 0 0 0 0 0 0 0 0 0 0 0
0 0 0 0 0 0 0 0 0 0 0 0 0 0 0 0 0 0 0 0 0 0 0 1354 1360 1383 1403 1367 1372 1348 1342 1402 1442 0 0 0 0 0 0 0 0 0 0 0 0 0 0 0 0 0 0 0 0 0 0 0 0 0 0 0 0 0 0 0 0 0 0 0 0 0 0 0 0 0 0 0 0 0 0 0 0 0 0 0 0 0 0 0 0 0 0 0 0 0 0 0 0 0 0 0 0 0 0 0 0 1714 0 1700 1726 0 0 0 0 1664 0 0 0 0 0 0
1264 1294 1271 1294 1312 1307 1313 0 0 0 0 0 0 0 0 0 0 0 0 0 0 0 0 0 1363 1364 1387 1362 1380 1385 1370 1423 1421 0 0 0 0 0 0 0 0 0 0 0 0 0 0 0 0 0 0 0 0 0 0 0 0 0 0 0 0 0 0 0 0 0 0 0 0 0 0 0 0 0 0 0 0 0 0 0 0 0 0 0 0 0 0 0 0 0 0 0 0 0 0 0 0 0 0 0 0 0 0 0 1792 1827 1720 1753 1665 1686 0 1755 0 0 0 0 0 0 0 0
1267 1249 1267 1254 1279 1306 1309 1316 1301 1328 1353 0 0 0 0 0 0 0 0 0 0 0 0 1363 1348 1363 1357 1347 1365 1365 1402 1442 1404 0 0 0 0 0 0 0 0 0 0 0 0 0 0 0 0 0 0 0 0 0 0 0 0 0 0 0 0 0 0 0 0 0 0 0 0 0 0 0 0 0 0 0 0 0 0 0 0 0 0 0 0 0 0 0 0 0 0 0 0 0 0 0 0 0 0 0 0 0 0 1801 1747 1762 1745 1718 1704 1710 1653 1627 0 0 0 0 0 0 0 0
1250 1259 1260 1293 1275 1305 1304 1321 1315 1335 1329 1343 1360 1370 1402 1402 0 0 0 0 0 0 0 0 0 1386 0 0 1393 0 0 1437 1415 0 0 0 0 0 0 0 0 0 0 0 0 0 0 0 0 0 0 0 0 0 0 0 0 0 0 0 0 0 0 0 0 0 0 0 0 0 0 0 0 0 0 0 0 0 0 0 0 0 0 0 0 0 0 0 0 0 0 0 0 0 0 0 0 0 0 0 0 0 0 1766 1768 1741 1707 1673 1693 1660 1676 1720 0 0 0 0 0 0 0 0
0 0 0 0 1268 1297 1288 1303 1332 1328 1365 1358 1351 1383 1383 1410 1399 1428 1426 1444 1489 0 0 0 0 0 0 0 0 0 0 1430 1428 1423 0 0 0 0 0 0 0 0 0 0 0 0 0 0 0 0 0 0 0 0 0 0 0 0 0 0 0 0 0 0 0 0 0 0 0 0 0 0 0 0 0 0 0 0 0 0 0 0 0 0 0 0 0 0 0 0 0 0 0 0 0 0 0 0 0 0 0 0 1776 1757 1724 1736 1705 1694 1690 1622 0 0 0 0 0 0 0 0 0 0
0 0 0 0 0 0 0 0 0 1334 1335 1358 1376 1376 1372 1381 1412 1418 1445 1416 1441 1464 0 0 0 0 0 0 0 0 0 1456 1476 1496 0 0 0 0 0 0 0 0 0 0 0 0 0 0 0 0 0 0 0 0 0 0 0 0 0 0 0 0 0 0 0 0 0 0 0 0 0 0 0 0 0 0 0 0 0 0 0 0 0 0 0 0 0 0 0 0 0 0 0 0 0 0 0 0 0 0 0 0 0 1721 1679 1642 1587 1633 1549 1584 1576 1595 1609 1592 1585 0 0 0 0 0
0 0 0 0 0 0 0 0 0 0 0 0 0 0 0 1417 1373 1421 1419 1435 1439 1488 0 0 0 0 0 0 0 0 0 0 1463 0 0 0 0 0 0 0 0 0 0 0 0 0 0 0 0 0 0 0 0 0 0 0 0 0 0 0 0 0 0 0 0 0 0 0 0 0 0 0 0 0 0 0 0 0 0 0 0 0 0 0 0 0 0 0 0 0 0 0 0 0 0 0 0 0 0 0 0 1748 1637 1589 1577 1591 1583 1601 1612 1577 1569 1582 1566 1621 1577 0 0 0 0 0
0 0 0 0 0 0 0 0 0 0 0 0 0 0 0 0 0 0 0 0 0 1454 0 0 0 0 0 0 0 0 0 0 0 0 0 0 0 0 0 0 0 0 0 0 0 0 0 0 0 0 0 0 0 0 0 0 0 0 0 0 0 0 0 0 0 0 0 0 0 0 0 0 0 0 0 0 0 0 0 0 0 0 0 0 0 0 0 0 0 0 0 0 0 0 0 0 0 0 0 0 0 1612 1609 1599 1627 1601 1601 1607 1598 1623 1604 1598 1622 1627 0 0 0 0 0 0
0 0 0 0 0 0 0 0 0 0 0 0 0 0 0 0 0 0 0 0 0 0 0 0 0 0 0 0 0 0 0 0 0 0 0 0 0 0 0 0 0 0 0 0 0 0 0 0 0 0 0 0 0 0 0 0 0 0 0 0 0 0 0 0 0 0 0 0 0 0 0 0 0 0 0 0 0 0 0 0 0 0 0 0 0 0 0 0 0 0 0 0 0 0 0 0 0 0 0 0 0 0 1603 1553 1594 1606 1595 1576 1598 1586 1579 1587 0 0 0 0 0 0 0 0
0 0 0 0 0 0 0 0 0 0 0 0 0 0 0 0 0 0 0 0 0 0 0 0 0 0 0 0 0 0 0 0 0 0 0 0 0 0 0 0 0 0 0 0 0 0 0 0 0 0 0 0 0 0 0 0 0 0 0 0 0 0 0 0 0 0 0 0 0 0 0 0 0 0 0 0 0 0 0 0 0 0 0 0 0 0 0 0 0 0 0 0 0 0 0 0 0 0 0 0 0 0 0 0 0 0 1594 1574 0 0 0 0 0 0 0 0 0 0 0 0
0 0 0 0 0 0 0 0 0 0 0 0 0 0 0 0 0 0 0 0 0 0 0 0 0 0 0 0 0 0 0 0 0 0 0 0 0 0 0 0 0 0 0 0 0 0 0 0 0 0 0 0 0 0 0 0 0 0 0 0 0 0 0 0 0 0 0 0 0 0 0 0 0 0 0 0 0 0 0 0 0 0 0 0 0 0 0 0 0 0 0 0 0 0 0 0 0 0 0 0 0 0 0 0 0 0 0 0 0 0 0 0 0 0 0 0 0 0 0 0
576 549 0 0 0 0 0 0 0 0 0 0 0 0 0 0 0 0 0 0 0 0 0 0 0 1822 1851 0 0 0 0 0 0 0 0 0 0 0 0 0 0 0 0 0 0 0 0 2936 2881 2900 2981 2941 2897 2901 2890 2899 2931 2919 2900 2901 2918 2883 2937 2861 2912 2906 0 0 0 0 0 0 0 0 0 0 0 0 0 0 0 0 0 0 0 0 0 0 0 0 0 0 0 0 0 0 1730 0 0 0 0 0 0 0 0 0 0 0 0 0 0 0 0 0 0 0 0 0 0 0
546 586 593 586 592 658 0 0 0 0 0 0 0 0 0 0 0 0 0 0 0 0 0 0 0 0 0 1922 1954 0 0 0 0 0 0 0 0 0 0 0 0 0 0 0 0 0 0 2861 2953 2912 2909 2920 2919 2953 2896 3001 2975 2911 2918 2939 2917 2935 2876 2906 2899 2911 0 0 0 0 0 0 0 0 0 0 0 0 0 0 0 0 0 0 0 0 0 0 0 0 0 0 0 0 0 0 0 0 0 0 0 0 0 0 0 0 0 0 0 0 0 0 0 0 0 0 0 0 0 0
580 583 589 595 620 629 649 683 694 0 0 0 0 0 0 0 0 0 0 0 0 0 0 0 0 0 0 0 0 0 0 0 0 0 0 0 0 0 0 0 0 0 0 0 0 0 0 2850 2895 2922 2888 2933 2887 2887 2862 2890 2887 2883 2853 2898 2881 2938 2850 2869 2851 0 0 0 0 0 0 0 0 0 0 0 0 0 0 0 0 0 0 0 0 0 0 0 0 0 0 0 0 0 0 0 0 0 0 0 0 0 0 0 0 0 0 0 0 0 0 0 0 0 0 0 0 0 0 0
595 585 595 613 616 631 642 660 668 693 711 699 0 0 0 0 0 0 0 0 0 0 0 0 0 0 0 0 0 0 0 0 0 0 0 0 0 0 0 0 0 0 0 0 0 0 0 2900 2861 2919 2923 2955 2901 2911 2890 2914 2875 2918 2921 2890 2865 2880 2917 2917 2846 0 0 0 0 0 0 0 0 0 0 0 0 0 0 0 0 0 0 0 0 0 0 0 0 0 0 0 0 0 0 0 0 0 0 0 0 0 0 0 0 0 0 0 0 0 0 0 0 0 0 0 0 0 0 0
618 613 604 605 636 623 629 657 668 667 673 712 699 729 733 0 0 0 0 0 0 0 0 0 0 0 0 0 0 0 0 0 0 0 0 0 0 0 0 0 0 0 0 0 0 0 0 2912 2919 2857 2924 2868 2914 2896 2865 2896 2863 2857 2888 2924 2897 2904 2907 2901 2869 2906 0 0 0 0 0 0 0 0 0 0 0 0 0 0 0 0 0 0 0 0 0 0 0 0 0 0 0 0 0 0 0 0 0 0 0 0 0 0 0 0 0 0 0 0 0 0 0 0 0 0 0 0 0 0
748 766 779 756 713 663 635 650 634 677 679 680 703 732 747 758 766 815 0 0 0 0 0 0 0 0 0 0 0 0 0 0 0 0 0 0 0 0 0 0 0 0 0 0 0 0 0 2941 2926 2947 2874 2926 2890 2923 2923 2906 2928 2892 2896 2903 2911 2946 2917 2925 2837 2936 0 0 0 0 0 0 0 0 0 0 0 0 0 0 0 0 0 0 0 0 0 0 0 0 0 0 0 0 0 0 0 0 0 0 0 0 0 0 0 0 0 0 0 0 0 0 0 0 0 0 0 0 0 0
771 794 814 819 827 842 831 831 789 799 740 729 728 732 719 768 750 791 784 807 859 0 0 0 0 0 0 0 0 0 0 0 0 0 0 0 0 0 0 0 0 0 0 0 0 0 0 2907 2930 2978 2929 2936 2976 2907 2917 2968 2944 2903 2979 2952 2902 2890 2918 2879 2941 2916 0 0 0 0 0 0 0 0 0 0 0 0 0 0 0 0 0 0 0 0 0 0 0 0 0 0 0 0 0 0 0 0 0 0 0 0 0 0 0 0 0 0 0 0 0 0 0 0 0 0 0 0 0 0
779 803 804 817 849 825 872 885 904 916 930 915 948 910 834 822 772 786 801 818 817 867 869 929 0 0 0 0 0 0 0 0 0 0 0 0 0 0 0 0 0 0 0 0 0 0 0 2901 2868 2937 2927 2926 2913 2947 2928 2905 2900 2929 2980 2898 2872 2899 2916 2849 2913 2885 0 0 0 0 0 0 0 0 0 0 0 0 0 0 0 0 0 0 0 0 0 0 0 0 0 0 0 0 0 0 0 0 0 0 0 0 0 0 0 0 0 0 0 0 0 0 0 0 0 0 0 0 0 0
653 0 802 830 848 848 879 891 908 916 932 953 947 950 945 959 933 938 902 867 823 856 855 902 915 956 940 0 0 0 0 0 0 0 0 0 0 0 0 0 0 0 0 0 0 0 0 2939 2971 2911 2915 2957 2944 2925 2878 2941 2909 2945 2888 2883 2865 2931 2903 2946 2910 2901 0 0 0 0 0 0 0 0 0 0 0 0 0 0 0 0 0 0 0 0 0 0 0 0 0 0 0 0 0 0 0 0 0 0 0 0 0 0 0 0 0 0 0 0 0 0 0 0 0 0 0 0 0 0
648 914 938 945 937 939 941 927 931 927 941 965 960 952 960 948 959 956 947 950 941 931 896 903 915 924 942 962 1024 0 0 0 0 0 0 0 0 0 0 0 0 0 0 0 0 0 0 2933 2879 2886 2946 2909 2891 2913 2879 2908 2924 2886 2869 2903 2844 2876 2896 2910 2948 2870 0 0 0 0 0 0 0 0 0 0 0 0 0 0 0 0 0 0 0 0 0 0 0 0 0 0 0 0 0 0 0 0 0 0 0 0 0 0 0 0 0 0 0 0 0 0 0 0 0 0 0 0 0 0
578 670 0 0 0 0 0 0 0 0 954 969 991 961 991 957 971 961 956 953 950 954 955 947 968 972 990 982 1000 1049 1043 0 0 0 0 0 0 0 0 0 0 0 0 0 0 0 0 2874 2914 2883 2868 2918 2877 2920 2918 2895 2913 2880 2868 2902 2910 2915 2867 2870 2874 2900 0 0 0 0 0 0 0 0 0 0 0 0 0 0 0 0 0 0 0 0 0 0 0 0 0 0 0 0 0 0 0 0 0 0 0 0 0 0 0 0 0 0 0 0 0 0 0 0 0 0 0 0 0 0
557 575 623 0 1129 1154 1165 1152 1130 1138 1174 1148 1158 1142 1146 1140 1109 1034 0 0 1027 1074 1065 985 993 1016 1109 1118 1094 1113 1067 0 0 0 0 0 0 0 0 0 0 0 0 0 0 0 0 2906 2913 2891 2882 2959 2888 2887 2904 2909 2915 2889 2895 2847 2887 2894 2867 2902 2905 0 0 0 0 0 0 0 0 0 0 0 0 0 0 0 0 0 0 0 0 0 0 0 0 0 0 0 0 0 0 0 0 0 0 0 0 0 0 0 0 0 0 0 0 0 0 0 0 0 0 0 0 0 0 0
582 604 598 614 0 0 0 0 0 0 0 0 0 0 0 0 1376 1031 968 0 0 1128 1076 0 0 1090 1174 1139 1148 1155 1148 0 0 0 0 0 0 0 0 0 0 0 0 0 0 0 0 2915 2944 2948 2881 2894 2894 2937 2948 2886 2854 2898 2846 2923 2920 2897 2869 2857 2856 0 0 0 0 0 0 0 0 0 0 0 0 0 0 0 0 0 0 0 0 0 0 0 0 0 0 0 0 0 0 0 0 0 0 0 0 0 0 0 0 0 0 0 0 0 0 0 0 0 0 0 0 0 0 0
592 585 588 599 623 0 0 0 0 0 0 0 0 0 0 0 0 983 1006 0 0 0 0 984 0 0 0 0 0 0 0 0 0 0 0 0 0 0 0 0 0 0 0 0 0 0 0 2857 2898 2931 2870 2936 2916 2883 2882 2894 2892 2875 2891 2900 2874 2853 2895 2887 2867 2823 0 0 0 0 0 0 0 0 0 0 0 0 0 0 0 0 0 0 0 0 0 0 0 0 0 0 0 0 0 0 0 0 0 0 0 0 0 0 0 0 0 0 0 0 0 0 0 0 0 0 0 0 0 0
576 572 612 598 627 570 0 0 0 0 0 0 0 0 0 0 0 0 0 0 0 0 0 0 0 0 0 0 0 0 0 0 0 0 0 0 0 0 0 0 0 0 0 0 0 0 0 2902 2936 2945 2909 2914 2946 2897 2930 2922 2933 2907 2867 2915 2903 2911 2901 2890 2912 0 0 0 0 0 0 0 0 0 0 0 0 0 0 0 0 0 0 0 0 0 0 0 0 0 0 0 0 0 0 0 0 0 0 0 0 0 0 0 0 0 0 0 0 0 0 0 0 0 0 0 0 0 0 0
603 598 603 614 594 609 0 0 0 0 0 0 0 0 0 0 0 0 0 0 0 0 0 0 0 0 0 0 0 0 0 0 0 0 0 0 0 0 0 0 0 0 0 0 0 0 0 2927 2949 2934 2842 2887 2940 2873 2916 2897 2847 2948 2899 2933 2922 2856 2895 2872 2887 2894 0 0 0 0 0 0 0 0 0 0 0 0 0 0 0 0 0 0 0 0 0 0 0 0 0 0 0 0 0 0 0 0 0 0 0 0 0 0 0 0 0 0 0 0 0 0 0 0 0 0 0 0 0 0
566 593 615 600 607 591 0 0 0 0 0 0 0 0 0 0 0 0 0 0 0 0 0 0 0 0 0 0 0 0 0 0 0 0 0 0 0 0 0 0 0 0 0 0 0 0 0 2963 2950 2925 2908 2930 2918 2914 2907 2924 2864 2877 2914 2922 2898 2909 2917 2889 2889 0 0 0 0 0 0 0 0 0 0 0 0 0 0 0 0 0 0 0 0 0 0 0 0 0 0 0 0 0 0 0 0 0 0 0 0 0 0 0 0 0 0 0 0 0 0 0 0 0 0 0 0 0 0 0
568 604 601 651 617 630 650 0 0 0 0 0 0 0 0 0 0 0 0 0 0 0 974 0 0 0 0 0 0 0 0 0 0 0 0 0 0 0 0 0 0 0 0 0 0 0 0 2904 2899 2918 2915 2899 2924 2877 2887 2901 2912 2886 2888 2872 2877 2892 2887 2871 2864 0 0 0 0 0 0 0 0 0 0 0 0 0 0 0 0 0 0 0 0 0 0 0 0 0 0 0 0 0 0 0 0 0 0 0 0 0 0 0 0 0 0 0 0 0 0 0 0 0 0 0 0 0 0 0
606 618 615 626 634 602 644 0 0 0 0 0 0 0 0 0 2244 0 0 0 0 0 966 958 0 0 0 0 0 0 0 0 0 0 0 0 0 0 0 0 0 0 0 0 0 0 0 2909 2850 2900 2844 2911 2902 2878 2897 2895 2843 2876 2846 2887 2874 2883 2844 2895 2876 2842 0 0 0 0 0 0 0 0 0 0 0 0 0 0 0 0 0 0 0 0 0 0 0 0 0 0 0 0 0 0 0 0 0 0 0 0 0 0 0 0 0 0 0 0 0 0 0 0 0 0 0 0 0 0
614 603 627 593 605 625 645 0 0 0 0 0 0 0 0 0 0 0 0 0 0 0 0 0 0 0 0 0 0 0 0 0 0 0 0 0 0 0 0 0 0 0 0 0 0 0 0 2897 2902 2828 2872 2899 2895 2876 2873 2830 2882 2889 2924 2895 2894 2869 2909 2890 2889 2851 0 0 0 0 0 0 0 0 0 0 0 0 0 0 0 0 0 0 0 0 0 0 0 0 0 0 0 0 0 0 0 0 0 0 0 0 0 0 0 0 0 0 0 0 0 0 0 0 0 0 0 0 0 0
603 591 608 600 609 630 0 0 0 0 0 0 0 0 0 0 0 0 0 0 0 0 0 0 0 0 0 0 0 0 0 0 0 0 0 0 0 0 0 0 0 0 0 0 0 0 0 0 0 0 0 0 0 0 0 0 0 0 0 0 0 2908 3050 2891 2857 0 0 0 0 0 0 0 0 0 0 0 0 0 0 0 0 0 0 0 0 0 0 0 0 0 0 0 0 0 0 0 0 0 0 0 0 0 0 0 0 0 0 0 0 0 0 0 0 0 0 0 0 0 0 0
596 610 599 612 580 614 0 0 0 0 0 0 0 0 0 0 0 0 0 0 0 0 0 0 0 0 0 0 0 0 0 0 0 0 0 0 0 0 0 0 0 0 0 0 0 0 0 0 0 0 0 0 0 0 0 0 0 0 0 0 0 0 0 0 0 0 0 0 0 0 0 0 0 0 0 0 0 0 0 0 0 0 0 0 0 0 0 0 0 0 0 0 0 0 0 0 0 0 0 0 0 0 0 0 0 0 0 0 0 0 0 0 0 0 0 0 0 0 0 0
593 587 610 609 606 0 0 0 0 0 0 0 0 0 0 0 0 0 0 0 0 0 0 0 0 0 0 0 0 0 0 0 0 0 0 0 0 0 0 0 0 0 0 0 0 0 0 0 0 0 0 0 0 0 0 0 0 0 0 0 0 0 0 0 0 0 0 0 0 0 0 0 0 0 0 0 0 0 0 0 0 0 0 0 0 0 0 0 0 0 0 0 0 0 0 0 0 0 0 0 0 0 0 0 0 0 0 0 0 0 0 0 0 0 0 0 0 0 0 0
618 616 610 624 584 0 0 0 0 0 0 0 0 0 0 0 0 0 0 0 0 0 0 0 0 0 0 0 0 0 0 0 0 0 0 0 0 0 0 0 0 0 0 0 0 0 0 0 0 0 0 0 0 0 0 0 0 0 0 0 0 0 0 0 0 0 0 0 0 0 0 0 0 0 0 0 0 0 0 0 0 0 0 0 0 0 0 0 0 0 0 0 0 0 0 0 0 0 0 0 0 0 0 0 0 0 0 0 0 0 0 0 0 0 0 0 0 0 0 0
564 578 572 610 0 0 0 0 0 0 0 0 0 0 0 0 0 0 0 0 0 0 0 0 0 0 837 846 845 853 863 848 856 0 882 873 0 852 901 889 869 892 0 0 0 0 0 0 0 0 0 0 0 0 0 0 0 0 0 0 0 0 0 0 0 0 0 0 0 0 0 0 0 0 0 0 0 0 0 0 0 0 0 0 0 0 0 0 0 0 0 0 0 0 0 0 0 0 0 0 0 0 0 0 0 0 0 0 0 0 0 0 0 0 0 0 0 0 0 0
587 578 599 0 0 0 676 670 703 680 696 692 741 717 708 676 689 699 683 670 692 729 728 714 708 699 704 701 694 714 712 714 751 701 753 716 707 768 738 725 721 793 677 714 724 761 750 697 737 747 763 754 751 793 752 812 759 764 769 747 759 794 767 784 734 774 787 798 821 766 764 786 820 769 0 0 0 0 0 0 0 0 0 0 0 0 0 0 0 0 0 0 0 0 0 0 0 0 0 0 0 0 0 0 0 0 0 0 0 0 0 0 0 0 0 0 0 0 0 0
579 535 585 565 563 574 574 600 575 581 583 586 572 598 573 572 605 595 606 605 599 560 591 559 575 620 561 608 605 593 587 616 604 633 597 606 575 627 620 636 596 566 609 626 639 597 621 611 607 643 632 623 628 667 633 657 648 615 680 655 620 652 642 669 652 625 685 659 639 668 645 674 672 686 636 670 652 648 660 657 657 699 673 697 703 676 695 708 702 685 652 690 688 714 665 678 730 647 742 699 767 744 0 0 0 0 0 0 0 0 0 0 0 0 0 0 0 0 0 0
514 478 519 485 506 477 489 505 488 497 525 494 507 504 512 524 477 495 511 487 512 486 532 495 527 518 524 515 503 517 520 508 530 488 531 517 521 509 511 526 540 517 525 508 530 527 545 546 524 544 518 540 523 527 520 542 544 501 527 539 558 528 547 545 559 522 540 551 555 550 531 555 517 544 562 566 564 560 533 566 562 552 549 553 540 591 532 558 571 565 589 574 587 569 572 599 546 574 541 567 580 617 583 568 0 621 0 603 603 626 0 0 0 0 0 0 0 0 0 0
431 400 425 464 418 428 437 436 448 436 443 463 465 453 464 461 445 446 451 444 450 451 463 444 442 439 442 456 456 458 457 473 467 466 451 466 457 482 462 446 478 472 477 476 456 477 468 487 484 480 465 481 463 467 485 472 486 495 484 486 478 474 475 479 485 474 480 459 473 485 465 476 486 463 485 495 488 478 478 503 486 477 495 484 470 513 501 514 478 482 487 477 503 474 479 497 481 495 520 539 476 532 494 505 508 532 524 508 502 520 528 567 0 0 0 0 0 0 0 0
387 399 388 394 401 390 401 384 388 385 396 391 394 392 404 379 412 395 407 397 409 413 400 402 403 396 406 410 400 399 406 409 410 423 406 415 411 423 417 412 411 408 421 416 418 425 424 412 412 414 420 426 416 418 430 420 425 428 422 427 407 434 425 432 426 430 412 431 420 429 427 434 420 414 422 417 410 431 442 427 439 424 442 430 428 443 434 431 428 424 423 445 438 434 439 430 439 429 430 441 439 439 426 429 453 429 422 414 432 444 415 409 424 400 0 0 0 0 0 0
345 342 341 337 344 363 344 355 361 342 351 351 354 354 362 365 357 364 362 359 352 362 369 368 364 365 366 363 361 347 360 375 362 374 371 360 376 373 368 366 373 367 369 371 362 367 385 357 377 382 384 383 380 365 376 377 372 368 373 382 382 387 367 380 370 387 377 382 392 382 386 379 389 387 373 369 394 378 390 400 377 395 403 378 391 402 386 374 391 407 385 392 382 384 388 379 384 383 392 393 392 392 381 388 376 393 374 393 389 402 398 399 377 392 355 356 0 0 0 0
308 326 331 324 309 317 328 341 338 337 319 326 336 340 342 339 342 334 325 330 342 349 335 334 363 364 326 328 346 354 339 335 328 344 340 353 355 334 325 335 340 335 344 342 326 344 346 346 342 347 353 343 341 346 347 335 343 335 339 343 345 345 346 342 344 345 343 347 334 344 350 363 333 345 351 348 339 356 342 342 354 350 353 352 343 342 363 354 350 355 361 359 357 360 371 351 344 336 368 345 352 348 347 354 356 355 369 356 369 363 348 358 372 371 345 386 343 0 0 0
285 282 308 293 302 294 293 314 280 310 299 282 290 303 300 305 297 295 297 296 287 283 313 302 297 294 297 296 287 301 297 304 292 298 309 304 315 313 307 305 312 306 305 303 313 305 307 308 307 311 307 306 316 309 299 316 309 313 314 306 308 309 313 319 315 316 323 317 311 318 310 318 323 315 303 311 315 311 309 311 308 317 318 310 308 313 334 326 324 315 321 319 316 307 313 326 312 319 323 325 316 330 303 334 324 327 313 319 316 319 316 329 290 301 312 272 298 285 297 0
274 270 268 279 279 283 280 288 279 283 278 275 281 278 283 288 276 286 283 293 273 285 275 274 292 279 283 281 296 278 281 279 284 277 278 280 279 282 279 284 280 283 283 285 284 291 292 292 293 292 290 283 291 286 280 283 286 284 282 289 286 284 282 294 288 292 283 290 301 290 288 284 290 288 290 283 287 287 288 288 293 296 292 282 296 280 298 295 294 295 300 295 297 295 301 296 281 299 307 286 301 308 296 299 292 299 295 293 304 315 301 282 301 295 289 247 291 289 286 300
256 256 260 266 270 253 248 256 263 248 252 253 256 256 269 253 269 267 263 258 262 265 257 257 262 254 259 268 254 255 259 265 260 266 257 266 264 265 276 261 268 265 270 269 260 271 266 266 263 270 269 276 268 273 271 268 267 262 263 269 267 266 274 269 276 268 271 269 265 270 270 273 270 265 265 273 272 272 280 268 267 259 271 274 278 270 266 264 268 264 272 268 267 260 270 262 270 276 277 272 290 263 273 279 278 278 271 281 279 278 269 269 300 308 283 264 304 279 269 289
234 237 234 233 242 225 241 230 235 237 238 229 245 243 242 243 236 243 247 238 242 253 245 240 246 237 237 241 241 243 241 252 248 242 245 255 255 246 254 251 245 243 245 249 253 252 249 248 248 258 242 252 251 248 246 247 250 248 253 249 254 257 249 256 248 255 252 250 252 250 249 249 247 249 244 251 255 253 248 252 253 248 252 252 253 252 255 255 255 252 256 247 251 248 246 250 250 252 255 256 252 251 255 253 258 247 257 252 251 250 255 247 257 264 232 246 242 272 256 249
216 219 220 212 217 228 225 214 225 220 222 226 228 227 226 224 220 228 227 224 228 224 235 229 230 226 227 228 227 230 224 230 227 237 233 235 223 231 227 235 230 232 237 230 241 235 233 235 235 236 229 232 226 234 229 228 231 232 238 234 235 237 236 236 236 240 235 234 237 232 234 235 232 236 226 240 230 231 230 235 240 234 231 234 233 235 241 241 229 233 232 234 229 235 228 244 232 238 248 242 245 242 243 241 236 236 240 235 238 238 231 247 236 245 239 234 245 246 226 248
211 207 218 214 214 204 209 202 211 218 213 213 206 220 216 218 214 209 209 216 212 210 216 210 210 218 217 219 210 214 218 217 213 212 217 217 212 214 214 219 214 223 215 216 219 197 203 220 220 220 219 217 219 206 206 219 225 221 215 228 221 221 220 225 220 215 221 219 217 222 204 216 221 217 221 223 223 218 224 221 220 220 228 228 222 224 225 222 222 218 228 211 223 225 226 222 229 219 228 226 217 208 222 230 227 235 225 221 224 227 222 226 221 235 238 226 224 231 229 197
177 182 197 201 202 196 200 187 198 197 185 205 201 191 189 204 186 192 207 204 190 186 190 206 185 188 190 187 186 191 190 188 191 184 198 191 193 197 189 192 186 195 188 198 199 194 197 191 198 193 195 200 189 194 190 196 189 193 198 196 198 193 200 197 192 197 193 192 200 200 194 194 194 192 196 189 189 190 190 187 192 191 214 199 193 202 195 192 190 213 189 198 207 207 190 187 186 186 212 197 209 206 205 194 212 208 212 200 203 207 202 206 212 213 203 180 198 174 195 185
174 181 174 192 178 180 179 183 176 180 184 179 178 186 182 183 183 178 187 180 190 181 183 186 190 180 191 193 186 185 182 191 194 189 185 190 195 189 193 191 197 193 194 197 196 198 194 189 197 199 192 198 191 195 195 199 197 198 197 191 195 198 197 201 199 195 198 196 199 197 201 194 198 198 195 194 197 198 198 196 194 192 194 195 192 188 192 192 194 183 187 181 185 192 191 181 186 189 187 183 188 186 186 204 204 182 182 203 193 186 206 196 185 181 187 202 187 196 197 197
168 168 178 177 171 172 172 180 181 180 179 185 179 184 177 183 182 187 181 176 182 182 187 189 180 184 185 186 185 188 188 184 183 186 188 182 187 181 187 185 191 184 186 181 191 189 189 188 188 183 184 191 187 186 181 193 183 187 191 185 182 188 189 192 190 188 190 189 188 185 189 182 187 188 188 191 191 190 190 185 193 186 184 184 192 194 185 187 188 189 183 185 182 189 188 189 186 188 184 185 178 177 186 186 177 183 179 177 181 176 178 175 181 179 168 172 192 196 174 180
172 166 163 168 169 166 166 174 163 164 171 171 176 171 177 173 169 179 180 186 175 174 173 170 171 167 171 174 170 174 172 179 175 172 175 174 180 175 180 180 180 175 180 173 180 183 178 178 180 187 180 179 176 178 180 176 177 181 179 175 174 178 178 181 179 180 176 182 178 175 178 179 177 185 178 178 181 178 181 181 178 188 175 176 176 177 178 180 180 176 174 180 179 174 182 185 178 180 180 176 179 179 179 180 175 176 169 174 174 180 168 166 173 168 169 161 166 157 170 173
166 169 165 162 163 167 161 159 171 164 166 169 168 168 165 172 169 172 173 173 171 169 169 173 170 162 173 172 172 174 171 169 167 169 166 166 171 168 177 169 167 172 168 165 179 174 168 169 174 174 170 170 175 175 173 173 171 175 173 177 168 176 179 169 174 174 173 173 168 169 175 176 170 174 169 173 170 176 172 175 168 168 173 171 166 176 180 172 177 173 172 176 167 173 167 168 176 171 166 178 174 176 173 174 182 176 179 164 167 168 176 174 175 174 174 168 176 165 156 209
156 155 167 160 165 162 160 158 156 160 167 164 157 165 162 167 163 163 165 164 158 166 171 164 160 159 159 162 161 161 164 168 160 164 159 161 161 160 162 160 156 165 163 164 162 161 160 162 159 172 161 168 166 165 165 168 167 169 166 167 160 166 166 168 163 164 165 160 164 157 165 164 163 160 169 166 167 169 170 163 161 161 167 165 164 169 166 163 165 166 167 161 161 164 165 166 157 163 168 171 167 169 158 165 171 159 161 164 162 160 156 177 157 162 172 156 153 156 156 148
143 147 148 148 148 150 146 153 156 160 147 151 152 154 150 149 150 161 159 160 149 154 150 157 155 158 147 155 154 158 159 152 155 156 154 156 151 157 148 159 160 154 160 159 160 154 158 152 154 157 157 155 159 161 156 157 156 158 157 159 159 153 158 160 157 156 158 158 159 158 157 160 161 159 156 163 165 166 157 153 156 158 158 159 160 156 157 159 162 154 159 157 156 158 158 156 153 157 156 158 155 156 158 156 158 156 153 148 157 158 156 156 153 155 160 151 156 161 160 167
137 139 144 145 147 144 146 146 145 145 153 151 147 148 144 149 151 153 146 155 147 149 152 151 149 149 146 144 152 144 147 148 148 145 151 151 153 150 147 152 156 150 156 153 152 150 148 150 155 150 152 155 150 150 151 150 153 151 150 153 153 150 154 154 149 150 152 153 156 153 150 160 147 159 154 154 160 158 155 152 152 154 146 146 149 154 151 152 155 154 152 154 155 152 154 152 145 148 155 157 152 158 154 155 149 149 152 149 150 160 160 157 162 151 160 141 148 162 163 126
134 135 136 136 135 139 139 135 143 139 139 145 140 140 136 137 147 136 141 147 142 144 143 148 138 140 147 143 143 139 139 127 143 145 139 141 139 141 145 144 145 146 147 145 142 149 145 144 146 143 144 142 142 145 145 133 141 154 149 130 146 142 144 148 147 148 148 148 146 143 148 146 148 144 147 147 148 153 150 147 143 143 149 127 143 142 146 148 148 146 141 146 145 145 145 145 143 144 150 148 146 145 147 142 143 138 141 139 140 140 134 142 130 138 140 138 151 135 145 145
130 133 133 132 136 141 140 140 138 140 139 0 134 137 132 136 135 136 141 139 144 142 141 138 136 145 144 140 138 138 124 128 130 129 141 138 140 131 136 138 131 143 141 138 138 129 141 138 138 129 142 141 140 141 144 144 143 146 134 144 134 129 141 144 141 139 141 143 142 138 126 144 142 142 140 143 145 138 138 146 143 143 141 140 138 140 144 141 142 140 137 142 142 142 138 141 140 143 141 140 138 141 139 143 139 138 138 144 143 138 142 121 130 139 125 139 131 127 138 125
132 125 132 134 133 135 142 132 135 139 130 132 145 138 135 134 134 137 137 133 139 142 142 137 139 136 140 137 138 125 128 129 137 130 129 128 126 128 124 125 142 141 138 129 0 138 130 131 131 125 127 132 132 132 0 141 0 133 138 139 133 130 141 141 127 129 142 127 142 140 126 126 132 139 131 127 134 128 131 130 137 140 138 138 127 128 129 124 139 139 137 136 137 138 139 126 139 143 141 139 137 122 125 138 135 120 134 129 137 133 137 134 129 134 136 134 131 144 135 152
125 101 123 107 123 117 136 128 117 111 119 117 118 124 123 124 121 134 123 120 121 125 122 134 122 140 134 138 0 129 129 123 119 119 122 116 131 125 124 119 124 128 123 130 0 0 129 124 128 121 120 121 130 127 125 127 129 124 129 129 123 123 127 126 125 125 130 130 121 126 120 122 123 129 117 119 122 127 125 124 123 128 121 127 123 126 117 128 125 128 128 135 133 122 123 120 122 138 134 126 121 124 133 124 111 122 119 130 119 131 128 137 141 136 129 123 127 132 104 126
108 116 121 114 116 118 132 117 129 121 120 129 118 123 119 122 110 122 122 123 125 125 125 123 123 125 131 126 125 123 127 0 125 118 116 117 123 120 0 120 128 124 0 0 0 0 124 122 120 120 124 123 126 123 125 126 129 124 119 124 125 121 116 125 125 128 128 124 119 120 122 118 127 125 122 121 119 125 127 121 118 118 122 122 117 122 124 120 126 124 122 121 121 123 121 123 135 127 119 123 121 123 124 118 113 115 120 119 129 121 126 134 126 135 123 116 131 129 130 159
108 99 110 115 110 113 118 115 116 111 117 115 108 112 106 117 112 110 111 121 116 109 110 113 113 112 119 115 118 118 121 0 120 119 112 111 115 0 114 118 120 0 0 120 123 0 119 118 112 116 116 119 122 120 123 118 114 121 116 118 121 122 124 117 116 118 120 122 120 115 113 118 110 116 113 112 116 114 112 121 113 118 117 119 115 116 119 122 117 117 117 117 115 115 107 120 121 117 113 119 117 123 113 108 113 115 125 117 109 120 114 130 128 115 130 133 113 114 96 110
97 105 110 105 100 101 116 114 102 111 111 104 103 111 120 115 116 111 106 101 115 112 116 105 111 109 115 116 119 117 120 116 111 115 117 115 107 114 0 112 114 110 109 109 112 120 115 0 114 0 114 113 117 113 0 0 107 109 119 114 123 118 107 114 112 108 110 110 119 113 117 113 110 100 107 108 109 109 106 113 112 105 106 106 115 110 111 114 110 112 108 106 99 116 117 122 114 115 110 110 105 109 115 109 111 108 100 112 111 118 109 132 101 129 101 109 99 125 107 97
102 97 110 110 109 106 113 111 114 110 106 113 108 112 116 114 113 110 114 98 107 100 98 105 113 108 111 112 105 118 109 107 107 110 113 112 116 0 109 107 108 109 108 98 110 107 108 107 113 0 108 111 109 116 111 113 107 104 114 108 106 110 116 0 118 106 106 113 112 108 104 106 108 112 105 102 107 103 104 111 106 106 105 110 102 109 100 111 109 103 119 105 99 103 100 113 108 109 109 109 106 117 112 114 107 104 107 107 111 114 99 98 123 105 111 116 96 115 128 125
91 88 103 106 101 95 98 95 93 90 104 96 98 99 106 102 92 103 110 98 104 102 87 104 103 102 102 97 98 105 105 100 106 101 104 101 104 109 102 100 105 102 96 102 98 101 105 98 102 102 107 102 104 104 102 102 99 102 108 104 103 109 106 0 110 107 0 109 105 107 103 103 101 108 103 108 97 102 0 101 0 103 98 97 94 100 100 101 95 102 105 107 92 96 95 90 95 93 100 95 99 99 97 97 95 97 101 91 92 81 98 102 85 104 102 91 121 104 92 117
95 92 87 92 96 96 97 93 97 91 97 101 100 99 100 96 96 97 102 96 97 86 94 90 93 96 102 97 105 101 103 107 100 105 100 102 103 101 97 96 102 101 95 96 102 101 105 104 102 103 108 99 95 100 95 103 102 103 103 101 105 102 109 101 107 101 105 108 105 99 100 105 102 97 95 97 106 99 99 98 0 102 99 90 98 97 100 108 93 88 103 95 101 103 91 105 95 97 87 103 97 96 100 96 99 101 98 96 102 94 90 85 102 85 87 111 128 89 85 119
89 97 91 98 90 92 95 86 85 87 92 91 91 85 91 83 93 86 100 106 102 93 93 92 92 91 97 92 91 100 100 96 102 96 97 99 101 101 94 107 94 93 97 90 102 91 97 103 95 97 100 97 84 90 93 97 92 94 97 100 91 94 98 0 100 101 95 91 99 95 97 103 100 99 88 103 98 93 98 106 94 96 84 109 103 94 92 91 93 89 93 91 102 81 89 89 94 88 100 84 96 96 93 92 98 95 104 81 87 87 84 89 89 86 89 84 116 104 94 69
85 82 78 81 77 83 81 92 86 88 85 86 91 88 84 85 91 90 87 81 92 91 93 90 89 89 97 91 91 97 89 88 95 92 92 93 91 94 94 90 88 96 95 88 90 97 94 90 91 97 93 92 95 96 97 90 96 91 97 93 86 96 97 94 91 97 95 89 93 95 91 93 89 92 88 93 92 87 89 97 94 90 97 94 84 83 93 94 89 89 93 92 94 87 89 94 93 88 89 87 91 82 92 78 86 84 90 91 84 89 86 81 89 86 79 82 89 78 83 111
90 79 86 87 95 94 93 99 83 91 84 91 90 90 87 91 90 82 88 85 84 96 91 93 92 91 93 95 89 87 94 91 97 91 98 86 87 95 89 96 92 94 92 97 96 98 95 94 90 93 95 90 89 87 92 98 93 91 92 100 91 92 92 93 93 91 90 90 87 91 93 99 97 95 94 90 94 94 88 87 99 89 99 96 95 93 92 98 95 93 98 96 98 91 89 89 88 83 89 106 92 89 88 98 91 92 96 92 83 82 87 82 89 94 99 88 106 99 0 0
80 89 87 83 86 90 77 87 79 0 82 90 89 83 79 81 90 89 91 86 89 83 92 93 92 94 89 88 88 95 88 93 94 92 94 93 95 97 96 93 86 87 95 90 96 89 91 98 89 98 91 96 98 87 91 98 96 93 96 91 93 98 94 95 87 88 86 92 94 94 88 85 97 97 92 92 87 90 89 84 96 93 87 88 94 95 94 94 97 94 91 92 102 85 90 84 92 92 93 87 91 88 84 91 81 81 86 90 99 87 90 88 86 80 89 84 84 92 85 0
77 81 76 87 84 87 95 89 87 79 83 84 82 88 88 87 80 89 84 85 91 89 91 88 87 88 93 82 91 89 87 89 93 91 84 92 93 89 88 91 91 94 91 95 86 86 96 92 92 90 92 86 91 89 98 97 94 93 92 89 91 95 92 90 88 97 86 85 92 94 88 97 95 89 96 86 97 94 90 93 93 84 88 88 89 92 92 90 90 78 91 86 82 85 84 77 89 88 88 88 73 84 90 89 87 85 86 87 68 93 82 91 86 80 88 83 88 66 0 0
81 78 77 83 86 88 94 95 82 88 83 90 84 83 90 88 83 89 88 87 78 92 90 77 82 84 86 86 95 92 90 85 88 91 87 82 86 89 88 89 91 90 88 95 96 88 92 91 95 85 92 88 85 87 83 93 93 87 83 93 97 89 83 93 93 97 88 86 90 89 91 89 93 83 91 88 90 92 95 84 89 89 87 79 95 96 93 86 89 91 91 90 81 84 88 91 89 85 95 84 83 91 89 86 77 90 81 85 89 80 89 96 92 87 79 108 0 0 79 0
79 64 66 65 79 80 82 82 80 76 83 77 73 82 84 80 76 79 81 74 82 74 81 73 73 67 78 80 86 76 90 72 79 83 86 74 84 82 83 77 88 79 79 70 78 81 83 85 85 79 82 80 75 85 81 78 89 85 86 72 82 80 77 77 82 80 77 75 80 79 81 76 80 72 79 81 79 84 86 87 73 80 71 79 73 86 83 78 76 86 85 68 84 78 79 79 72 83 67 77 72 75 76 62 79 68 74 77 77 75 78 76 66 64 89 32 0 0 0 0
67 70 75 78 72 81 85 86 82 77 82 86 72 77 81 81 80 83 81 78 80 81 74 77 84 80 78 74 84 87 85 80 83 83 86 76 84 77 84 78 89 79 84 84 85 87 78 78 86 85 83 72 76 78 79 77 82 78 82 69 84 78 76 84 85 78 75 75 88 72 79 80 85 80 79 84 85 86 84 85 81 83 81 78 76 83 83 74 86 82 71 86 73 71 85 76 88 83 77 77 82 70 69 76 70 80 66 77 61 87 88 76 81 81 83 0 0 0 0 0
