0 0 0 0 0 0 0 0 0 0 0 0 0 0 0 0 0 0 0 0 0 0 0 0 0 0 0 0 0 0 0 0 0 0 0 0 0 0 0 0 0 0 0 0 0 0 0 0 0 0 0 0 0 0 0 0 0 0 0 0 0 0 0 0 0 0 0 0 0 0 0 0 0 0 0 0 0 0 0 0 0 0 0 0 0 0 0 0 0 0 0 0 0 0 0 0 0 0 0 0 0 0 0 0 0 0 0 0 0 0 0 0 0 0 0 0 0 0 0 0
0 0 0 0 0 0 0 0 0 0 0 0 0 0 0 0 0 0 0 0 0 0 0 0 0 0 0 0 0 0 0 0 0 0 0 0 0 0 0 0 0 0 0 0 0 0 0 0 0 0 0 0 0 0 0 0 0 0 0 0 0 0 0 0 0 0 0 0 0 0 0 0 0 0 0 0 0 0 0 0 0 0 0 0 0 0 0 0 0 0 0 0 0 0 0 0 0 0 0 0 0 0 0 0 0 0 0 0 0 0 0 0 0 0 0 0 0 0 0 0
0 0 0 0 0 0 0 0 0 0 0 0 0 0 0 0 0 1304 0 0 0 0 1249 0 0 0 0 0 0 0 0 0 0 0 0 0 0 0 0 0 0 0 0 0 0 0 0 0 0 0 0 0 0 0 0 0 0 0 0 0 0 0 0 0 0 0 0 0 0 0 0 0 0 0 0 0 0 0 0 0 0 0 0 0 0 0 0 0 0 0 0 0 0 0 0 0 0 0 0 0 0 0 0 0 0 0 0 0 0 0 0 0 0 0 0 0 0 0 0 0
0 0 0 0 0 0 0 0 0 0 0 1151 1149 1127 1187 0 1287 1319 0 0 0 1256 1284 1289 0 0 0 0 0 0 0 0 0 0 0 0 0 0 0 0 0 0 0 0 0 0 0 0 0 0 0 0 0 0 0 0 0 0 0 0 0 0 0 0 0 0 0 0 0 0 0 0 0 0 0 0 0 0 0 0 0 0 0 0 0 0 0 0 0 0 0 0 0 0 0 0 0 0 0 0 0 0 0 0 0 0 0 0 0 0 0 0 0 0 0 0 0 0 0 0
0 0 0 0 0 0 0 0 1092 1123 1146 1125 1148 1189 1135 0 1301 1279 1299 0 1222 1259 1262 0 0 0 0 0 0 0 0 0 0 0 0 0 0 0 0 0 0 0 0 0 0 0 0 0 0 0 0 0 0 0 0 0 0 0 0 0 0 0 0 0 0 0 0 0 0 0 0 0 0 0 0 0 0 0 0 0 0 0 0 0 0 0 0 0 0 0 0 0 0 0 0 0 0 0 0 0 0 0 0 0 0 0 0 0 0 0 0 0 0 0 0 0 0 0 0 0
0 0 0 0 0 0 0 1100 1095 1120 0 0 1139 1142 1180 1185 1242 1273 1279 0 1288 1258 1284 1267 0 0 0 0 0 0 0 0 0 0 0 0 0 0 0 0 0 0 0 0 0 0 0 0 0 0 0 0 0 0 0 0 0 0 0 0 0 0 0 0 0 0 0 0 0 0 0 0 0 0 0 0 0 0 0 0 0 0 0 0 0 0 0 0 0 0 0 0 0 0 0 0 0 0 0 0 0 0 0 0 0 0 0 0 0 0 0 0 0 0 0 0 0 0 0 0
0 0 0 0 0 0 0 0 0 0 0 0 1217 1259 1242 1260 1281 1287 1298 1279 1283 1290 1257 1293 0 0 0 0 0 0 0 1413 0 0 0 0 0 0 0 0 0 0 0 0 0 0 0 0 0 0 0 0 0 0 0 0 0 0 0 0 0 0 0 0 0 0 0 0 0 0 0 0 0 0 0 0 0 0 0 0 0 0 0 0 0 0 0 0 0 0 0 0 0 0 0 0 0 0 0 0 0 0 0 0 0 0 0 0 0 0 0 0 0 0 0 0 0 0 0 0
0 0 0 0 0 0 0 0 0 0 0 0 1236 1225 1250 1276 1255 1268 1250 1250 1224 1256 1230 1234 0 1316 1312 1368 1309 1316 0 1415 0 0 0 0 0 0 0 0 0 0 0 0 0 0 0 0 0 0 0 0 0 0 0 0 0 0 0 0 0 0 0 0 0 0 0 0 0 0 0 0 0 0 0 0 0 0 0 0 0 0 0 0 0 0 0 0 0 0 0 0 0 0 0 0 0 0 0 0 0 0 0 0 0 0 0 0 0 0 0 0 0 0 0 0 0 0 0 0
0 0 0 0 0 0 0 0 0 0 0 0 1259 1268 1272 1302 1273 1293 1269 1293 1274 1289 1253 1272 0 0 1363 1389 1395 1358 1388 1431 0 0 0 0 0 0 0 0 0 0 0 0 0 0 0 0 0 0 0 0 0 0 0 0 0 0 0 0 0 0 0 0 0 0 0 0 0 0 0 0 0 0 0 0 0 0 0 0 0 0 0 0 0 0 0 0 0 0 0 0 0 0 0 0 0 0 0 0 0 0 0 0 0 0 0 0 0 0 0 0 0 0 0 0 0 0 0 0
0 0 0 0 0 0 0 0 0 0 0 0 0 0 1285 1283 1288 1294 1284 1303 1286 1287 1288 1248 1338 0 0 1383 1371 1359 1385 1446 1427 0 0 0 0 0 0 0 0 0 0 0 0 0 0 0 0 0 0 0 0 0 0 0 0 0 0 0 0 0 0 0 0 0 0 0 0 0 0 0 0 0 0 0 0 0 0 0 0 0 0 0 0 0 0 0 0 0 0 0 0 0 0 0 0 0 0 0 0 0 0 0 0 0 0 0 0 0 0 0 0 0 0 0 0 0 0 0
0 0 0 0 0 0 0 0 0 0 0 0 0 0 0 0 0 0 0 0 0 1259 1270 1274 1254 0 0 1363 1358 1346 1346 1408 1398 0 0 0 0 0 0 0 0 0 0 0 0 0 0 0 0 0 0 0 0 0 0 0 0 0 0 0 0 0 0 0 0 0 0 0 0 0 0 0 0 0 0 0 0 0 0 0 0 0 0 0 0 0 0 0 0 0 0 0 0 0 0 0 0 0 0 0 0 0 0 0 0 0 0 0 0 0 0 0 0 0 0 0 0 0 0 0
0 0 0 0 0 0 0 0 0 0 0 0 0 0 0 0 0 0 0 0 0 0 0 1371 1311 0 0 0 1340 1339 1353 1431 1442 0 0 0 0 0 0 0 0 0 0 0 0 0 0 0 0 0 0 0 0 0 0 0 0 0 0 0 0 0 0 0 0 0 0 0 0 0 0 0 0 0 0 0 0 0 0 0 0 0 0 0 0 0 0 0 0 0 0 0 0 0 0 0 0 0 0 0 0 0 0 0 0 0 0 1747 0 0 0 0 0 0 0 0 0 0 0 0
0 0 0 0 0 0 0 0 0 0 0 0 0 0 0 0 0 0 0 0 0 0 0 1358 1362 1312 1306 1330 1316 1348 1316 1410 1429 0 0 0 0 0 0 0 0 0 0 0 0 0 0 0 0 0 0 0 0 0 0 0 0 0 0 0 0 0 0 0 0 0 0 0 0 0 0 0 0 0 0 0 0 0 0 0 0 0 0 0 0 0 0 0 0 0 0 0 0 0 0 0 0 0 0 0 0 0 0 0 0 0 1748 1702 1714 0 0 0 0 0 0 0 0 0 0 0
0 0 0 0 0 0 0 0 0 0 0 0 0 0 0 0 0 0 0 0 0 0 0 1399 1379 1365 1321 1297 1325 1323 1341 1415 1408 0 0 0 0 0 0 0 0 0 0 0 0 0 0 0 0 0 0 0 0 0 0 0 0 0 0 0 0 0 0 0 0 0 0 0 0 0 0 0 0 0 0 0 0 0 0 0 0 0 0 0 0 0 0 0 0 0 0 0 0 0 0 0 0 0 0 0 0 0 0 0 0 1736 1767 0 1718 0 0 0 0 0 0 0 0 0 0 0
0 0 0 0 0 0 0 0 0 0 0 0 0 0 0 0 0 0 0 0 0 0 0 1379 1378 1366 1369 1343 1330 1328 1351 1436 1411 0 0 0 0 0 0 0 0 0 0 0 0 0 0 0 0 0 0 0 0 0 0 0 0 0 0 0 0 0 0 0 0 0 0 0 0 0 0 0 0 0 0 0 0 0 0 0 0 0 0 0 0 0 0 0 0 0 0 0 0 0 0 0 0 0 0 0 0 0 0 0 0 1782 1757 0 1713 0 0 0 0 0 0 0 0 0 0 0
0 0 0 0 0 0 0 0 0 0 0 0 0 0 0 0 0 0 0 0 0 0 0 1336 1362 1367 1370 1378 1360 1324 1334 1400 1419 0 0 0 0 0 0 0 0 0 0 0 0 0 0 0 0 0 0 0 0 0 0 0 0 0 0 0 0 0 0 0 0 0 0 0 0 0 0 0 0 0 0 0 0 0 0 0 0 0 0 0 0 0 0 0 0 0 0 0 0 0 0 0 0 0 0 0 0 0 0 0 0 0 0 1682 1712 0 0 0 0 0 0 0 0 0 0 0
1285 1252 1285 1272 1297 1297 1307 0 0 0 0 0 0 0 0 0 0 0 0 0 0 0 0 0 1378 1369 1386 1361 1375 1356 1371 1442 1438 0 0 0 0 0 0 0 0 0 0 0 0 0 0 0 0 0 0 0 0 0 0 0 0 0 0 0 0 0 0 0 0 0 0 0 0 0 0 0 0 0 0 0 0 0 0 0 0 0 0 0 0 0 0 0 0 0 0 0 0 0 0 0 0 0 0 0 0 0 0 0 1775 1734 1758 1714 1712 1662 0 1685 1690 0 0 0 0 0 0 0
1255 1262 1282 1266 1278 1289 1308 1315 1318 1311 1362 0 0 0 0 0 0 0 0 0 0 0 0 1372 1353 1356 1372 1344 1364 1353 1376 1404 1405 0 0 0 0 0 0 0 0 0 0 0 0 0 0 0 0 0 0 0 0 0 0 0 0 0 0 0 0 0 0 0 0 0 0 0 0 0 0 0 0 0 0 0 0 0 0 0 0 0 0 0 0 0 0 0 0 0 0 0 0 0 0 0 0 0 0 0 0 0 0 1743 1740 1691 1745 1714 1706 1672 1672 1683 0 0 0 0 0 0 0 0
1256 1264 1258 1262 1296 1288 1312 1297 1319 1345 1360 1362 1368 1397 1407 1390 0 0 0 0 0 0 0 0 0 1370 0 0 1357 0 0 1444 1423 0 0 0 0 0 0 0 0 0 0 0 0 0 0 0 0 0 0 0 0 0 0 0 0 0 0 0 0 0 0 0 0 0 0 0 0 0 0 0 0 0 0 0 0 0 0 0 0 0 0 0 0 0 0 0 0 0 0 0 0 0 0 0 0 0 0 0 0 0 0 1763 1749 1724 1668 1739 1690 1680 1674 1680 0 0 0 0 0 0 0 0
0 0 0 0 1271 1288 1310 1300 1328 1327 1333 1344 1343 1371 1409 1409 1406 1418 1447 1455 1458 0 0 0 0 0 0 0 0 0 0 1422 1427 1422 0 0 0 0 0 0 0 0 0 0 0 0 0 0 0 0 0 0 0 0 0 0 0 0 0 0 0 0 0 0 0 0 0 0 0 0 0 0 0 0 0 0 0 0 0 0 0 0 0 0 0 0 0 0 0 0 0 0 0 0 0 0 0 0 0 0 0 0 1796 1786 1721 1716 1733 1660 1690 1700 0 0 0 0 0 0 0 0 0 0
0 0 0 0 0 0 0 0 0 1292 1343 1350 1372 1375 1392 1376 1401 1423 1420 1448 1486 1495 0 0 0 0 0 0 0 0 0 1444 1484 1462 0 0 0 0 0 0 0 0 0 0 0 0 0 0 0 0 0 0 0 0 0 0 0 0 0 0 0 0 0 0 0 0 0 0 0 0 0 0 0 0 0 0 0 0 0 0 0 0 0 0 0 0 0 0 0 0 0 0 0 0 0 0 0 0 0 0 0 0 0 0 1693 1659 1579 1620 1573 1591 1595 1587 1590 1547 0 0 0 0 0 0
0 0 0 0 0 0 0 0 0 0 0 0 0 0 0 1392 1380 1417 1431 1439 1438 1470 0 0 0 0 0 0 0 0 0 0 1505 0 0 0 0 0 0 0 0 0 0 0 0 0 0 0 0 0 0 0 0 0 0 0 0 0 0 0 0 0 0 0 0 0 0 0 0 0 0 0 0 0 0 0 0 0 0 0 0 0 0 0 0 0 0 0 0 0 0 0 0 0 0 0 0 0 0 0 0 0 1627 1630 1608 1573 1594 1618 1572 1608 1563 1550 1542 1597 0 0 0 0 0 0
0 0 0 0 0 0 0 0 0 0 0 0 0 0 0 0 0 0 0 0 0 1470 0 0 0 0 0 0 0 0 0 0 0 0 0 0 0 0 0 0 0 0 0 0 0 0 0 0 0 0 0 0 0 0 0 0 0 0 0 0 0 0 0 0 0 0 0 0 0 0 0 0 0 0 0 0 0 0 0 0 0 0 0 0 0 0 0 0 0 0 0 0 0 0 0 0 0 0 0 0 0 1604 1626 1594 1578 1611 1579 1574 1625 1615 1616 1600 1593 1561 0 0 0 0 0 0
0 0 0 0 0 0 0 0 0 0 0 0 0 0 0 0 0 0 0 0 0 0 0 0 0 0 0 0 0 0 0 0 0 0 0 0 0 0 0 0 0 0 0 0 0 0 0 0 0 0 0 0 0 0 0 0 0 0 0 0 0 0 0 0 0 0 0 0 0 0 0 0 0 0 0 0 0 0 0 0 0 0 0 0 0 0 0 0 0 0 0 0 0 0 0 0 0 0 0 0 0 0 0 1592 1588 1570 1569 1603 1580 1580 1591 1553 0 0 0 0 0 0 0 0
0 0 0 0 0 0 0 0 0 0 0 0 0 0 0 0 0 0 0 0 0 0 0 0 0 0 0 0 0 0 0 0 0 0 0 0 0 0 0 0 0 0 0 0 0 0 0 0 0 0 0 0 0 0 0 0 0 0 0 0 0 0 0 0 0 0 0 0 0 0 0 0 0 0 0 0 0 0 0 0 0 0 0 0 0 0 0 0 0 0 0 0 0 0 0 0 0 0 0 0 0 0 0 0 0 0 1552 1596 1602 0 0 0 0 0 0 0 0 0 0 0
0 0 0 0 0 0 0 0 0 0 0 0 0 0 0 0 0 0 0 0 0 0 0 0 0 0 0 0 0 0 0 0 0 0 0 0 0 0 0 0 0 0 0 0 0 0 0 0 0 0 0 0 0 0 0 0 0 0 0 0 0 0 0 0 0 0 0 0 0 0 0 0 0 0 0 0 0 0 0 0 0 0 0 0 0 0 0 0 0 0 0 0 0 0 0 0 0 1695 0 0 0 0 0 0 0 0 0 0 0 0 0 0 0 0 0 0 0 0 0 0
570 575 0 0 0 0 0 0 0 0 0 0 0 0 0 0 0 0 0 0 0 0 0 0 0 1886 1864 0 0 0 0 0 0 0 0 0 0 0 0 0 0 0 0 0 0 0 0 2952 2964 2900 2905 2888 2872 2891 2918 2905 2884 2917 2928 2905 0 2873 2922 2858 2893 2909 0 0 0 0 0 0 0 0 0 0 0 0 0 0 0 0 0 0 0 0 0 0 0 0 0 0 0 0 0 0 1759 0 0 0 0 0 0 0 0 0 0 0 0 0 0 0 0 0 0 0 0 0 0 0
569 576 594 594 614 643 0 0 0 0 0 0 0 0 0 0 0 0 0 0 0 0 0 0 0 0 1884 1922 1937 0 0 0 0 0 0 0 0 0 0 0 0 0 0 0 0 0 0 2901 2912 2921 2872 2922 2879 2880 2899 2914 2888 2894 2929 2814 2854 2847 2885 2875 2858 2855 0 0 0 0 0 0 0 0 0 0 0 0 0 0 0 0 0 0 0 0 0 0 0 0 0 0 0 0 0 0 0 0 0 0 0 0 0 0 0 0 0 0 0 0 0 0 0 0 0 0 0 0 0 0
562 583 596 593 618 638 638 647 663 0 0 0 0 0 0 0 0 0 0 0 0 0 0 0 0 0 0 0 0 0 0 0 0 0 0 0 0 0 0 0 0 0 0 0 0 0 0 2918 2964 2920 2980 2953 2900 2886 2895 2925 2865 2899 2918 2871 2964 2905 2898 2959 2883 0 0 0 0 0 0 0 0 0 0 0 0 0 0 0 0 0 0 0 0 0 0 0 0 0 0 0 0 0 0 0 0 0 0 0 0 0 0 0 0 0 0 0 0 0 0 0 0 0 0 0 0 0 0 0
583 587 590 597 620 634 634 635 669 685 674 678 0 0 0 0 0 0 0 0 0 0 0 0 0 0 0 0 0 0 0 0 0 0 0 0 0 0 0 0 0 0 0 0 0 0 0 2905 2908 2931 2980 2906 2929 2890 2878 2924 2914 2931 2937 2951 2907 2890 2943 2881 2938 0 0 0 0 0 0 0 0 0 0 0 0 0 0 0 0 0 0 0 0 0 0 0 0 0 0 0 0 0 0 0 0 0 0 0 0 0 0 0 0 0 0 0 0 0 0 0 0 0 0 0 0 0 0 0
603 584 597 587 639 638 638 631 662 649 682 693 675 725 702 0 0 0 0 0 0 0 0 0 0 0 0 0 0 0 0 0 0 0 0 0 0 0 0 0 0 0 0 0 0 0 0 2929 2933 2905 2954 2923 2905 2913 2918 2917 2879 2891 2907 2943 2909 2939 2926 2914 2899 2934 0 0 0 0 0 0 0 0 0 0 0 0 0 0 0 0 0 0 0 0 0 0 0 0 0 0 0 0 0 0 0 0 0 0 0 0 0 0 0 0 0 0 0 0 0 0 0 0 0 0 0 0 0 0
780 761 742 769 700 641 643 664 670 683 673 694 722 752 746 742 793 764 0 0 0 0 0 0 0 0 0 0 0 0 0 0 0 0 0 0 0 0 0 0 0 0 0 0 0 0 0 2947 2937 2930 2937 2879 2957 2929 2889 2917 2905 2942 2874 2916 2907 2926 2892 2907 2940 2878 0 0 0 0 0 0 0 0 0 0 0 0 0 0 0 0 0 0 0 0 0 0 0 0 0 0 0 0 0 0 0 0 0 0 0 0 0 0 0 0 0 0 0 0 0 0 0 0 0 0 0 0 0 0
785 795 810 821 831 837 823 866 829 787 775 740 691 755 729 754 755 766 811 816 831 0 0 0 0 0 0 0 0 0 0 0 0 0 0 0 0 0 0 0 0 0 0 0 0 0 0 2903 2857 2920 2880 2912 2892 2883 2880 2867 2891 2887 2904 2861 2934 2899 2928 2874 2914 2863 0 0 0 0 0 0 0 0 0 0 0 0 0 0 0 0 0 0 0 0 0 0 0 0 0 0 0 0 0 0 0 0 0 0 0 0 0 0 0 0 0 0 0 0 0 0 0 0 0 0 0 0 0 0
803 816 836 845 865 875 888 883 909 923 916 920 935 912 868 795 787 806 787 839 830 881 874 904 0 0 0 0 0 0 0 0 0 0 0 0 0 0 0 0 0 0 0 0 0 0 0 2909 2916 2861 2939 2928 2888 2851 2895 2863 2900 2846 2902 2863 2825 2847 2888 2860 2871 2857 0 0 0 0 0 0 0 0 0 0 0 0 0 0 0 0 0 0 0 0 0 0 0 0 0 0 0 0 0 0 0 0 0 0 0 0 0 0 0 0 0 0 0 0 0 0 0 0 0 0 0 0 0 0
632 0 811 844 883 864 868 903 926 922 945 942 943 953 947 950 942 941 920 860 831 854 858 882 902 942 0 0 0 0 0 0 0 0 0 0 0 0 0 0 0 0 0 0 0 0 0 2881 2924 2956 2930 2887 2917 2939 2890 2922 2877 2920 2888 2866 2881 2924 2890 2840 2871 2862 0 0 0 0 0 0 0 0 0 0 0 0 0 0 0 0 0 0 0 0 0 0 0 0 0 0 0 0 0 0 0 0 0 0 0 0 0 0 0 0 0 0 0 0 0 0 0 0 0 0 0 0 0 0
677 936 949 955 927 937 930 909 907 934 947 948 965 950 947 951 950 952 940 944 942 934 915 922 947 965 973 1013 1013 0 0 0 0 0 0 0 0 0 0 0 0 0 0 0 0 0 0 2905 2929 2906 2891 2869 2875 2887 2915 2891 2869 2912 2882 2847 2859 2846 2855 2893 2883 2881 0 0 0 0 0 0 0 0 0 0 0 0 0 0 0 0 0 0 0 0 0 0 0 0 0 0 0 0 0 0 0 0 0 0 0 0 0 0 0 0 0 0 0 0 0 0 0 0 0 0 0 0 0 0
564 695 0 0 0 0 0 0 0 0 961 989 986 972 943 965 948 951 950 937 951 937 945 951 955 961 979 992 1042 1032 1107 0 0 0 0 0 0 0 0 0 0 0 0 0 0 0 0 2925 2932 2920 2902 2942 2879 2927 2957 2938 2893 2856 2928 2911 2883 2890 2897 2961 2894 2862 0 0 0 0 0 0 0 0 0 0 0 0 0 0 0 0 0 0 0 0 0 0 0 0 0 0 0 0 0 0 0 0 0 0 0 0 0 0 0 0 0 0 0 0 0 0 0 0 0 0 0 0 0 0
612 576 616 0 1159 1146 1142 1165 1144 1140 1144 1142 1148 1159 1142 1146 1125 1035 0 0 1014 1043 1053 958 989 1030 1135 1116 1101 1097 1089 0 0 0 0 0 0 0 0 0 0 0 0 0 0 0 0 2961 2916 2902 2950 2945 2979 2908 2973 2948 2961 2922 2944 2917 2909 2928 2918 2920 2924 2882 0 0 0 0 0 0 0 0 0 0 0 0 0 0 0 0 0 0 0 0 0 0 0 0 0 0 0 0 0 0 0 0 0 0 0 0 0 0 0 0 0 0 0 0 0 0 0 0 0 0 0 0 0 0
574 580 637 575 0 0 0 0 0 0 0 0 0 0 0 0 1336 1011 929 0 0 1139 1089 0 0 1133 1140 1171 1145 1142 1110 0 0 0 0 0 0 0 0 0 0 0 0 0 0 0 0 2929 2892 2944 2970 2942 2942 2915 2894 2922 2901 2900 2904 2911 2906 2923 2914 2921 2918 0 0 0 0 0 0 0 0 0 0 0 0 0 0 0 0 0 0 0 0 0 0 0 0 0 0 0 0 0 0 0 0 0 0 0 0 0 0 0 0 0 0 0 0 0 0 0 0 0 0 0 0 0 0 0
572 606 590 591 610 0 0 0 0 0 0 0 0 0 0 0 0 954 950 0 0 0 0 0 0 0 0 0 0 0 0 0 0 0 0 0 0 0 0 0 0 0 0 0 0 0 0 2938 2933 2960 2902 2941 2967 2868 2876 2927 2900 2907 2875 2920 2934 2922 2889 2934 2914 0 0 0 0 0 0 0 0 0 0 0 0 0 0 0 0 0 0 0 0 0 0 0 0 0 0 0 0 0 0 0 0 0 0 0 0 0 0 0 0 0 0 0 0 0 0 0 0 0 0 0 0 0 0 0
574 596 586 602 621 589 0 0 0 0 0 0 0 0 0 0 0 0 0 0 0 0 0 0 0 0 0 0 0 0 0 0 0 0 0 0 0 0 0 0 0 0 0 0 0 0 0 2875 2884 2884 2909 2860 2915 2930 2867 2933 2884 2887 2920 2903 2920 2878 2892 2890 2894 0 0 0 0 0 0 0 0 0 0 0 0 0 0 0 0 0 0 0 0 0 0 0 0 0 0 0 0 0 0 0 0 0 0 0 0 0 0 0 0 0 0 0 0 0 0 0 0 0 0 0 0 0 0 0
598 592 622 642 599 599 0 0 0 0 0 0 0 0 0 0 0 0 0 0 0 0 974 0 0 0 0 0 0 0 0 0 0 0 0 0 0 0 0 0 0 0 0 0 0 0 0 2873 2900 2833 2900 2902 2854 2900 2859 2891 2881 2819 2879 2904 2930 2851 2842 2876 2871 2900 0 0 0 0 0 0 0 0 0 0 0 0 0 0 0 0 0 0 0 0 0 0 0 0 0 0 0 0 0 0 0 0 0 0 0 0 0 0 0 0 0 0 0 0 0 0 0 0 0 0 0 0 0 0
586 587 621 589 630 616 0 0 0 0 0 0 0 0 0 0 0 0 0 0 0 0 957 0 0 0 0 0 0 0 0 0 0 0 0 0 0 0 0 0 0 0 0 0 0 0 0 2899 2898 2902 2879 2881 2909 2912 2907 2868 2916 2871 2889 2920 2878 2874 2895 2899 2890 0 0 0 0 0 0 0 0 0 0 0 0 0 0 0 0 0 0 0 0 0 0 0 0 0 0 0 0 0 0 0 0 0 0 0 0 0 0 0 0 0 0 0 0 0 0 0 0 0 0 0 0 0 0 0
594 618 598 632 644 646 658 0 0 0 0 0 0 0 0 0 0 0 0 0 0 0 0 0 0 0 0 0 0 0 0 0 0 0 0 0 0 0 0 0 0 0 0 0 0 0 0 2870 2857 2844 2890 2874 2848 2867 2826 2856 2861 2874 2873 2846 2854 2868 2830 2871 2856 2852 0 0 0 0 0 0 0 0 0 0 0 0 0 0 0 0 0 0 0 0 0 0 0 0 0 0 0 0 0 0 0 0 0 0 0 0 0 0 0 0 0 0 0 0 0 0 0 0 0 0 0 0 0 0
592 589 600 599 604 622 566 0 0 0 0 0 0 0 0 0 2301 0 0 0 963 0 0 969 0 0 0 0 0 0 0 0 0 0 0 0 0 0 0 0 0 0 0 0 0 0 0 2925 2921 2894 2952 2902 2888 2929 2906 2866 2940 2898 2866 2857 2887 2864 2898 2841 2875 2875 0 0 0 0 0 0 0 0 0 0 0 0 0 0 0 0 0 0 0 0 0 0 0 0 0 0 0 0 0 0 0 0 0 0 0 0 0 0 0 0 0 0 0 0 0 0 0 0 0 0 0 0 0 0
564 573 571 597 584 572 568 0 0 0 0 0 0 0 0 0 0 0 0 0 0 0 0 0 0 0 0 0 0 0 0 0 0 0 0 0 0 0 0 0 0 0 0 0 0 0 0 2953 2925 2902 2930 2892 2919 2953 2890 2887 2902 2878 2916 2905 2874 2924 2880 2929 2899 2941 0 0 0 0 0 0 0 0 0 0 0 0 0 0 0 0 0 0 0 0 0 0 0 0 0 0 0 0 0 0 0 0 0 0 0 0 0 0 0 0 0 0 0 0 0 0 0 0 0 0 0 0 0 0
566 609 574 612 599 578 0 0 0 0 0 0 0 0 0 0 0 0 0 0 0 0 0 0 0 0 0 0 0 0 0 0 0 0 0 0 0 0 0 0 0 0 0 0 0 0 0 0 0 0 0 0 0 0 0 0 0 0 0 0 0 2957 3015 2896 2868 0 0 0 0 0 0 0 0 0 0 0 0 0 0 0 0 0 0 0 0 0 0 0 0 0 0 0 0 0 0 0 0 0 0 0 0 0 0 0 0 0 0 0 0 0 0 0 0 0 0 0 0 0 0 0
598 589 576 608 597 628 0 0 0 0 0 0 0 0 0 0 0 0 0 0 0 0 0 0 0 0 0 0 0 0 0 0 0 0 0 0 0 0 0 0 0 0 0 0 0 0 0 0 0 0 0 0 0 0 0 0 0 0 0 0 0 0 0 0 0 0 0 0 0 0 0 0 0 0 0 0 0 0 0 0 0 0 0 0 0 0 0 0 0 0 0 0 0 0 0 0 0 0 0 0 0 0 0 0 0 0 0 0 0 0 0 0 0 0 0 0 0 0 0 0
611 601 590 610 601 582 0 0 0 0 0 0 0 0 0 0 0 0 0 0 0 0 0 0 0 0 0 0 0 0 0 0 0 0 0 0 0 0 0 0 0 0 0 0 0 0 0 0 0 0 0 0 0 0 0 0 0 0 0 0 0 0 0 0 0 0 0 0 0 0 0 0 0 0 0 0 0 0 0 0 0 0 0 0 0 0 0 0 0 0 0 0 0 0 0 0 0 0 0 0 0 0 0 0 0 0 0 0 0 0 0 0 0 0 0 0 0 0 0 0
592 596 597 599 574 0 0 0 0 0 0 0 0 0 0 0 0 0 0 0 0 0 0 0 0 0 0 0 0 0 0 0 0 0 0 0 0 0 0 0 0 0 0 0 0 0 0 0 0 0 0 0 0 0 0 0 0 0 0 0 0 0 0 0 0 0 0 0 0 0 0 0 0 0 0 0 0 0 0 0 0 0 0 0 0 0 0 0 0 0 0 0 0 0 0 0 0 0 0 0 0 0 0 0 0 0 0 0 0 0 0 0 0 0 0 0 0 0 0 0
601 611 632 636 0 0 0 0 0 0 0 0 0 0 0 0 0 0 0 0 0 0 0 0 0 0 861 851 898 869 873 859 931 901 856 906 0 883 876 929 910 954 0 0 0 0 0 0 0 0 0 0 0 0 0 0 0 0 0 0 0 0 0 0 0 0 0 0 0 0 0 0 0 0 0 0 0 0 0 0 0 0 0 0 0 0 0 0 0 0 0 0 0 0 0 0 0 0 0 0 0 0 0 0 0 0 0 0 0 0 0 0 0 0 0 0 0 0 0 0
618 581 641 0 0 0 676 716 731 744 691 748 715 712 720 741 667 707 693 741 722 722 699 738 722 736 710 717 732 800 768 780 736 795 746 784 779 754 739 763 712 735 797 764 761 816 767 788 786 789 821 776 789 795 821 774 797 765 762 801 782 780 776 815 838 807 872 829 761 832 844 822 827 0 810 0 0 0 0 0 0 0 0 0 0 0 0 0 0 0 0 0 0 0 0 0 0 0 0 0 0 0 0 0 0 0 0 0 0 0 0 0 0 0 0 0 0 0 0 0
565 578 598 605 567 552 606 539 566 561 559 580 582 556 579 596 588 565 622 593 595 596 587 582 581 588 599 616 588 571 595 559 600 628 580 598 597 627 599 610 647 605 606 620 635 591 632 618 611 598 623 622 628 632 633 663 650 645 614 622 638 646 643 632 665 635 606 622 673 615 651 655 667 662 680 628 665 658 691 659 694 651 642 669 684 682 659 684 694 694 717 696 725 723 710 0 732 657 695 707 685 703 0 0 0 0 0 0 0 0 0 0 0 0 0 0 0 0 0 0
504 505 494 458 469 501 484 512 502 487 496 492 520 483 485 514 492 526 485 525 524 496 513 502 496 493 501 480 502 505 495 525 500 526 533 517 542 508 514 502 507 517 522 517 534 511 537 498 514 531 514 542 542 540 533 528 542 527 531 545 525 533 534 537 550 545 532 540 537 544 554 536 518 591 513 541 578 558 568 577 539 562 577 554 579 546 598 529 592 552 571 570 589 577 603 575 584 562 582 590 572 556 633 550 0 587 601 584 596 560 503 0 0 0 0 0 0 0 0 0
417 425 440 411 397 411 434 439 425 449 432 432 439 455 431 436 437 440 453 445 461 462 438 461 451 455 447 452 467 450 453 451 460 453 460 453 441 458 465 457 455 459 474 457 481 469 462 464 465 463 483 486 491 481 479 471 462 472 473 461 481 483 483 473 468 476 494 479 483 478 470 477 480 477 469 490 484 460 481 476 492 489 500 487 482 461 499 484 476 525 490 488 506 519 481 488 502 503 516 515 488 460 485 529 497 522 473 489 487 492 500 491 0 0 0 0 0 0 0 0
398 384 398 390 380 389 380 411 393 388 406 388 399 400 393 392 392 393 405 391 395 405 400 413 403 412 408 411 392 415 397 411 404 417 416 409 416 420 409 416 408 414 418 415 408 420 417 422 424 424 423 426 435 422 433 422 423 426 437 427 425 419 427 419 421 423 411 422 433 428 428 421 422 426 429 415 429 432 423 429 439 417 441 429 433 430 429 436 422 431 427 421 448 449 427 427 439 431 417 443 440 417 414 427 423 406 415 435 436 421 440 433 432 413 0 0 0 0 0 0
338 359 345 346 364 364 351 350 358 356 353 351 356 354 357 361 353 353 365 371 358 370 358 375 367 364 361 358 378 369 369 383 356 371 362 360 376 375 369 364 367 368 363 375 367 369 387 381 379 381 363 390 380 374 380 370 392 376 368 380 390 390 385 386 385 388 397 383 385 389 389 384 399 388 396 392 399 381 398 387 402 402 391 394 399 388 396 386 385 395 401 390 390 378 416 394 387 393 381 381 384 377 386 393 384 407 372 400 398 396 400 408 387 388 439 391 0 0 0 0
325 315 322 331 326 327 353 352 343 355 342 345 316 343 342 336 338 358 353 335 357 345 339 340 346 336 332 348 343 366 337 349 340 356 352 340 347 346 330 347 339 350 340 348 348 346 347 348 348 350 363 341 339 345 338 352 354 343 350 337 346 352 354 345 348 354 361 347 342 358 367 352 351 356 358 356 348 360 350 352 353 352 351 357 345 364 354 354 363 359 358 353 369 370 350 349 361 382 372 372 372 362 374 362 344 345 371 391 383 383 378 366 365 336 358 388 338 0 0 0
282 280 296 296 291 293 293 293 300 294 309 294 297 294 293 302 301 291 297 297 300 307 306 304 292 286 293 304 301 299 294 304 296 312 302 307 310 311 308 305 301 308 307 314 300 305 310 317 306 313 311 308 313 306 309 303 312 314 307 312 310 315 315 303 310 314 312 301 321 307 310 312 310 305 308 323 306 307 326 307 316 315 304 312 320 324 311 325 314 322 312 317 315 311 313 317 318 309 314 334 300 316 336 314 343 343 306 329 319 310 311 337 324 337 314 322 333 322 328 0
272 270 279 281 291 283 279 282 277 293 282 284 288 284 286 296 278 280 277 287 283 282 272 280 284 278 283 284 295 282 276 283 282 276 276 282 287 290 293 297 277 282 292 280 283 273 287 288 288 284 285 280 283 287 282 291 286 291 290 288 292 284 295 288 290 289 290 284 292 285 295 297 292 286 294 287 289 286 294 291 291 295 296 295 291 296 297 294 287 291 297 291 303 295 311 294 292 294 292 300 293 300 303 295 296 298 300 303 297 299 309 301 319 295 292 324 346 297 319 349
255 247 256 258 263 255 256 259 266 256 256 255 250 261 265 259 263 251 253 253 255 263 254 254 261 258 256 258 252 262 260 263 258 263 260 262 262 268 261 263 267 259 272 267 263 265 263 261 269 269 265 263 269 268 269 264 256 265 260 261 258 264 268 262 273 264 270 263 266 267 263 274 275 274 266 267 270 268 264 265 268 264 264 263 268 265 270 268 267 272 268 259 271 269 266 262 269 279 273 282 267 270 272 276 273 280 271 284 283 260 265 270 277 260 289 274 290 255 276 279
236 233 232 235 234 238 245 233 232 236 231 229 248 254 235 239 238 236 242 244 242 244 243 245 242 240 239 243 248 245 242 244 251 237 243 252 239 237 249 250 246 241 244 250 235 248 245 255 251 252 248 253 248 251 247 242 250 248 246 253 255 251 252 251 242 256 251 250 252 253 254 246 243 251 256 252 254 258 249 252 245 248 248 251 256 254 253 253 247 245 247 247 255 249 247 253 251 252 251 253 259 244 249 251 246 251 260 253 252 254 250 242 250 249 259 254 265 260 288 255
212 215 213 217 209 225 225 223 218 214 221 223 224 227 222 231 224 225 234 223 226 224 231 228 223 228 226 231 228 223 228 227 225 232 236 237 229 229 227 232 236 233 233 232 227 232 234 234 233 231 229 227 232 234 228 235 230 230 237 232 231 239 234 232 238 232 230 234 232 233 231 230 232 233 229 232 232 229 227 231 233 233 235 234 235 228 232 237 229 230 233 231 230 230 229 225 228 238 238 241 239 236 241 231 238 228 235 237 235 239 233 240 239 239 237 235 226 211 215 219
204 203 219 219 214 205 208 205 205 207 216 209 212 224 212 214 205 215 215 224 212 207 211 210 211 216 216 213 212 212 215 212 216 211 209 215 221 215 214 221 222 226 213 214 204 200 222 203 224 217 219 217 202 203 220 221 221 219 226 219 220 220 219 223 219 219 224 219 227 220 221 219 223 201 203 218 222 216 214 217 216 222 223 227 221 222 223 223 217 215 219 219 227 195 221 222 213 217 230 232 222 221 220 219 217 220 215 222 238 228 222 225 221 224 240 228 211 232 218 213
192 195 194 195 202 195 202 198 199 183 198 198 185 196 189 188 191 207 194 191 185 192 194 191 186 189 187 189 184 197 192 194 193 187 197 196 187 194 189 194 188 195 200 189 197 192 193 197 204 200 190 191 190 199 193 203 200 196 195 197 202 198 199 192 192 199 200 191 197 196 194 199 191 196 190 195 192 197 194 193 192 193 195 198 198 202 197 188 196 211 217 193 210 207 192 188 192 207 198 210 205 207 213 211 214 210 218 211 205 209 210 218 211 215 215 204 197 196 197 214
178 182 194 193 181 176 180 185 177 181 184 176 178 179 183 180 179 184 183 180 191 183 184 186 191 191 190 193 183 193 194 190 192 192 193 197 195 189 193 189 194 199 199 199 197 196 192 201 197 196 194 194 193 198 195 200 199 190 197 201 194 196 198 199 198 195 190 197 198 194 198 197 198 200 196 196 194 196 186 199 196 196 189 187 197 190 191 196 194 182 183 186 183 190 190 191 188 183 186 181 186 190 204 192 191 184 188 190 202 204 185 201 203 196 200 184 188 171 194 207
177 179 178 179 177 177 173 180 178 183 181 177 178 184 184 182 183 186 181 185 186 183 189 189 181 185 182 187 191 188 182 183 188 186 186 187 190 185 183 189 182 184 190 192 187 190 187 193 192 193 190 192 188 192 187 193 191 195 188 187 180 186 183 188 185 190 191 189 188 188 190 191 189 188 191 187 193 190 187 193 190 196 186 186 187 192 184 186 191 189 185 182 186 189 189 188 185 188 190 189 184 176 184 180 179 176 186 177 181 173 187 173 187 171 173 180 181 195 177 186
172 165 160 171 173 170 170 174 169 168 168 176 176 170 177 175 175 177 178 175 172 174 172 175 171 167 175 176 169 179 175 181 178 178 173 176 178 180 178 179 173 177 178 174 181 178 180 179 182 181 178 184 175 180 178 183 179 182 176 182 176 182 184 180 177 179 185 186 183 179 179 180 177 180 182 183 183 184 183 184 179 184 179 180 183 179 182 179 178 181 170 177 175 172 177 178 175 177 181 185 178 178 182 184 174 175 164 177 178 171 176 179 171 170 174 176 170 196 173 169
165 163 164 159 164 165 158 159 167 163 166 162 163 168 167 170 167 169 175 169 169 166 170 168 173 162 169 171 175 166 177 175 167 167 166 171 167 171 170 170 167 166 177 169 176 172 171 174 173 173 168 172 172 172 174 169 175 172 174 173 173 171 174 172 171 171 177 175 173 170 172 170 173 173 174 174 178 171 174 171 168 172 168 167 167 174 174 167 177 173 166 166 174 173 175 171 171 171 167 178 171 179 173 163 181 176 179 169 170 170 171 171 174 172 168 170 179 166 167 154
157 153 166 157 164 159 162 156 157 157 161 159 155 159 166 162 159 167 166 166 164 163 163 162 163 166 161 158 157 164 166 168 162 164 159 163 162 158 163 159 163 165 166 158 164 167 165 160 160 165 158 163 168 161 165 166 164 167 164 170 164 167 163 164 167 165 165 163 164 162 165 160 163 163 160 167 166 165 167 168 161 161 169 164 163 163 165 162 161 162 158 161 159 161 160 163 167 161 166 161 163 166 158 168 158 164 157 161 162 152 167 168 156 157 174 150 178 169 153 173
141 143 150 146 150 146 148 151 154 153 145 150 149 150 156 146 149 156 152 161 151 156 151 157 154 161 151 157 161 158 153 155 156 153 152 157 150 161 150 158 157 156 162 155 160 159 158 152 159 158 158 163 162 159 156 155 155 158 160 161 162 156 161 155 159 161 159 155 158 161 158 159 159 162 156 162 159 158 153 151 155 157 162 155 156 153 157 159 162 157 159 159 156 155 159 156 154 155 155 157 159 156 153 152 160 156 147 152 150 156 152 158 155 155 159 150 159 151 141 141
140 138 148 144 146 143 142 145 150 146 153 151 148 147 147 144 145 143 146 152 152 151 154 151 152 152 148 154 148 148 146 147 143 148 147 148 148 155 149 149 155 155 150 147 146 150 148 153 146 155 155 156 150 154 156 146 149 155 155 156 151 152 153 154 147 154 153 153 157 151 153 155 149 154 152 151 155 160 153 149 158 156 150 148 151 150 154 156 156 151 149 155 160 148 156 149 150 149 154 157 155 153 161 153 154 148 148 145 147 153 151 150 153 154 156 151 134 148 158 136
139 135 137 135 135 138 134 141 139 139 142 144 141 142 138 140 144 140 138 145 138 145 140 146 142 145 147 143 141 144 138 140 144 143 138 144 138 143 147 144 144 146 146 147 146 147 150 143 147 148 128 144 144 143 145 147 145 149 149 151 142 146 143 150 146 147 150 149 145 143 141 148 150 142 146 145 150 151 146 149 143 140 148 144 140 146 146 147 150 143 147 148 144 147 147 145 141 144 150 149 144 150 149 143 142 143 141 146 139 144 144 140 145 134 148 148 148 149 142 137
133 134 130 135 132 141 139 138 139 141 138 0 133 139 139 137 136 138 143 141 143 141 145 140 142 142 145 137 141 140 139 138 131 129 140 131 140 131 142 140 133 145 142 141 140 131 132 131 126 130 131 142 141 144 145 145 144 146 147 130 135 134 142 148 143 141 131 143 144 140 132 142 142 142 143 140 148 144 144 145 147 144 140 139 142 139 145 138 142 141 138 144 143 144 138 142 140 146 139 146 144 142 140 143 139 136 138 138 147 133 136 146 133 137 138 143 140 131 152 144
127 134 124 134 133 136 143 130 134 141 133 134 138 135 140 134 134 138 136 133 139 141 142 140 141 138 133 136 129 123 126 125 141 127 130 129 126 128 124 129 139 142 140 130 0 139 129 126 130 124 129 127 132 132 0 143 0 128 131 140 134 128 130 134 139 128 140 127 142 131 132 130 128 130 131 126 142 141 132 131 126 132 128 139 137 125 137 126 130 145 125 141 139 137 128 129 142 138 143 140 123 124 135 139 137 120 135 135 137 135 140 133 132 140 133 137 130 131 128 136
116 107 127 109 124 130 140 132 129 110 124 118 122 132 122 124 122 134 133 122 121 129 128 127 127 136 137 138 0 136 130 123 120 125 119 124 129 125 123 121 125 129 125 130 130 0 130 123 127 121 127 121 125 127 126 128 132 129 129 118 126 123 129 122 125 129 126 130 122 126 123 124 126 124 121 121 118 130 130 126 131 127 123 126 118 124 118 125 127 128 125 126 128 137 122 121 132 136 133 137 131 121 123 125 118 117 120 115 120 121 127 128 134 134 139 125 137 133 125 118
106 117 111 111 113 115 121 120 117 116 119 115 116 121 120 116 108 124 121 118 133 125 126 124 123 123 131 128 128 123 131 0 125 124 117 113 124 122 0 122 129 123 0 0 0 0 123 124 124 119 121 118 124 122 121 126 119 119 123 123 127 120 116 123 121 127 128 122 123 120 121 121 126 124 118 121 118 127 125 121 120 119 125 123 117 122 127 117 126 122 121 116 122 126 117 120 135 126 123 121 123 117 123 119 110 117 117 116 118 129 118 130 129 141 111 115 137 111 103 114
112 94 110 113 112 109 117 116 116 113 119 120 116 113 114 114 113 115 110 119 116 108 107 119 119 115 119 119 114 120 123 0 118 116 117 113 111 0 112 117 123 0 0 121 128 0 120 118 118 113 116 119 118 119 119 119 120 114 114 118 119 117 122 114 117 124 117 120 115 116 115 120 116 115 113 112 116 117 113 123 113 115 112 118 116 115 118 119 115 120 118 117 117 114 103 120 123 116 113 118 117 121 116 108 117 110 114 120 108 115 109 112 119 124 114 133 108 113 96 102
95 103 108 103 95 98 115 110 103 110 110 109 108 112 120 114 113 112 103 110 111 104 108 103 112 107 112 115 116 113 117 115 115 114 113 113 107 116 0 114 112 114 114 109 108 113 115 0 112 0 114 109 118 117 0 0 109 109 116 110 126 115 106 112 106 111 106 112 117 107 112 112 113 104 108 110 103 108 101 116 111 107 110 106 115 108 115 104 106 119 110 108 102 115 108 113 110 115 107 109 106 114 113 107 114 113 104 110 107 109 111 118 100 111 92 113 90 98 97 141
104 94 107 111 109 103 112 109 109 111 106 112 109 109 112 119 116 112 111 101 109 96 101 103 112 107 110 115 109 113 111 105 109 105 115 112 114 0 105 105 111 105 112 99 103 108 107 109 114 0 105 111 110 116 106 110 106 109 111 111 106 109 114 0 118 108 109 108 112 112 106 104 107 114 102 102 104 101 104 109 108 101 109 111 96 104 102 109 108 103 99 110 100 101 102 109 104 109 106 108 102 116 106 114 108 102 109 102 94 116 109 97 113 117 107 106 111 116 113 100
85 89 108 101 97 92 99 97 98 95 102 100 97 100 107 105 99 103 99 97 101 100 89 102 103 102 108 101 102 103 105 106 104 102 104 100 104 105 102 106 105 103 95 96 104 103 105 100 105 97 105 102 106 104 99 107 100 103 104 102 105 105 106 0 107 107 0 110 102 105 105 103 97 108 104 108 98 103 0 101 0 103 97 101 101 104 95 99 98 102 101 103 94 95 99 95 101 98 101 97 95 101 100 106 100 104 95 94 107 89 102 95 90 109 98 97 94 111 81 119
93 92 88 94 95 96 96 90 94 90 97 100 98 99 99 99 97 99 110 96 96 94 100 93 96 99 102 99 105 98 102 105 109 102 102 102 102 100 100 101 100 108 103 94 96 99 103 101 101 103 112 98 100 105 102 100 103 108 102 102 107 100 105 101 114 103 105 109 106 100 101 107 106 98 103 99 103 96 101 96 0 107 101 89 101 97 100 108 98 97 104 96 100 100 99 103 89 95 94 101 100 94 100 91 97 109 106 96 105 102 84 86 107 89 90 111 110 86 107 129
91 96 94 101 91 88 92 85 87 96 93 99 96 93 94 89 95 99 105 106 99 95 81 87 94 88 99 94 91 98 97 97 102 100 97 101 98 95 95 105 93 95 90 92 103 97 99 99 92 107 101 95 86 92 99 102 91 95 96 95 98 94 98 0 100 104 96 97 100 95 99 98 103 100 88 105 98 97 98 105 89 99 87 106 97 94 90 92 93 98 96 95 92 84 90 88 98 87 103 91 96 100 98 95 100 93 94 88 91 90 90 99 88 87 105 101 99 94 81 70
85 80 79 83 80 87 78 89 80 91 82 88 93 91 88 92 90 86 81 81 91 94 92 90 95 86 97 88 92 96 88 87 94 92 90 96 88 94 93 94 92 86 98 85 89 97 89 90 92 98 92 95 90 95 97 90 94 98 97 94 88 94 86 93 88 93 92 92 94 97 86 93 98 94 85 96 98 90 98 89 88 92 86 95 91 88 88 95 92 91 93 90 91 93 94 92 95 93 91 93 92 84 89 82 92 83 88 90 83 82 90 88 73 87 79 99 79 81 77 144
93 84 82 83 87 86 90 100 87 88 87 88 86 86 89 94 87 91 92 87 86 90 95 94 90 91 94 90 91 84 96 91 94 92 99 91 88 95 88 101 89 93 90 91 97 95 90 92 92 93 97 88 94 88 98 97 92 89 96 93 96 93 96 91 87 95 97 96 90 91 89 88 98 96 93 90 96 96 83 91 93 94 98 92 87 87 95 93 89 90 98 100 99 91 94 92 87 83 87 105 91 90 86 90 84 97 91 82 83 83 84 87 81 89 81 85 84 87 0 0
77 85 87 86 85 90 85 89 84 0 84 88 86 85 82 89 88 89 84 86 92 91 87 99 85 94 93 84 90 95 85 94 92 93 93 90 96 96 96 95 98 97 91 85 98 95 90 96 86 88 93 97 92 87 94 97 97 93 89 97 92 84 95 97 89 89 96 92 95 93 97 95 94 93 92 90 85 88 90 95 96 92 96 90 93 88 94 92 99 92 88 92 101 88 87 88 82 89 94 86 82 88 90 91 92 81 92 89 82 84 87 89 80 82 76 79 81 77 83 0
81 85 79 88 82 85 99 88 85 78 81 80 87 87 88 87 79 88 80 83 89 87 90 87 82 87 89 87 91 86 87 85 90 88 87 94 88 89 87 91 92 90 94 91 97 87 93 97 93 91 97 96 91 88 92 94 93 90 98 92 89 96 90 86 87 93 89 90 87 91 88 96 89 96 94 84 90 95 88 92 88 88 93 89 89 88 90 88 90 86 91 92 85 92 80 82 88 86 91 88 77 76 90 89 91 92 90 88 73 79 81 89 90 84 86 77 84 50 0 0
80 75 82 75 83 82 91 93 90 89 82 91 87 82 90 87 80 88 92 87 88 88 91 81 84 93 88 88 88 90 85 86 84 89 90 83 85 86 84 88 92 81 88 96 92 86 94 88 94 93 88 81 83 86 82 90 90 93 87 91 94 91 84 96 94 92 86 88 87 89 85 86 94 93 90 86 88 94 96 82 89 86 84 86 90 93 88 84 90 91 89 87 79 84 85 87 84 84 92 86 81 92 86 83 83 87 91 86 88 76 85 87 90 82 82 83 0 0 0 0
75 73 65 61 79 80 81 83 82 73 79 77 83 87 79 80 79 79 73 79 87 75 77 78 74 72 82 81 78 79 89 75 85 79 89 74 82 77 82 75 78 80 82 75 77 87 79 90 86 86 87 84 72 80 81 81 83 86 87 69 82 77 79 78 82 80 75 80 77 79 81 84 79 80 84 80 78 82 87 86 75 76 79 77 74 91 83 77 72 83 89 68 83 75 79 78 75 90 73 79 71 73 74 62 75 71 73 72 68 88 79 59 68 62 74 69 0 0 0 0
71 71 79 84 74 82 84 82 82 78 78 84 70 79 77 84 85 87 74 80 77 82 73 78 83 84 80 76 85 83 84 84 85 81 81 71 76 75 78 80 89 83 85 88 89 90 84 77 85 84 85 81 81 82 85 86 84 81 84 73 86 82 82 78 82 84 84 76 90 72 80 81 83 85 85 88 80 87 84 83 81 77 83 82 70 78 82 77 90 83 72 80 73 75 85 76 91 76 73 79 91 71 72 74 73 79 73 81 88 91 72 93 88 129 110 0 0 0 0 0
