0 0 0 0 0 0 0 0 0 0 0 0 0 0 0 0 0 0 0 0 0 0 0 0 0 0 0 0 0 0 0 0 0 0 0 0 0 0 0 0 0 0 0 0 0 0 0 0 0 0 0 0 0 0 0 0 0 0 0 0 0 0 0 0 0 0 0 0 0 0 0 0 0 0 0 0 0 0 0 0 0 0 0 0 0 0 0 0 0 0 0 0 0 0 0 0 0 0 0 0 0 0 0 0 0 0 0 0 0 0 0 0 0 0 0 0 0 0 0 0
0 0 0 0 0 0 0 0 0 0 0 0 0 0 0 0 0 0 0 0 0 0 0 0 0 0 0 0 0 0 0 0 0 0 0 0 0 0 0 0 0 0 0 0 0 0 0 0 0 0 0 0 0 0 0 0 0 0 0 0 0 0 0 0 0 0 0 0 0 0 0 0 0 0 0 0 0 0 0 0 0 0 0 0 0 0 0 0 0 0 0 0 0 0 0 0 0 0 0 0 0 0 0 0 0 0 0 0 0 0 0 0 0 0 0 0 0 0 0 0
0 0 0 0 0 0 0 0 0 0 0 0 0 0 0 0 1272 1266 0 0 0 0 0 0 0 0 0 0 0 0 0 0 0 0 0 0 0 0 0 0 0 0 0 0 0 0 0 0 0 0 0 0 0 0 0 0 0 0 0 0 0 0 0 0 0 0 0 0 0 0 0 0 0 0 0 0 0 0 0 0 0 0 0 0 0 0 0 0 0 0 0 0 0 0 0 0 0 0 0 0 0 0 0 0 0 0 0 0 0 0 0 0 0 0 0 0 0 0 0 0
0 0 0 0 0 0 0 0 0 0 0 1151 1118 1135 1151 0 1263 1260 1300 0 0 0 1239 0 0 0 0 0 0 0 0 0 0 0 0 0 0 0 0 0 0 0 0 0 0 0 0 0 0 0 0 0 0 0 0 0 0 0 0 0 0 0 0 0 0 0 0 0 0 0 0 0 0 0 0 0 0 0 0 0 0 0 0 0 0 0 0 0 0 0 0 0 0 0 0 0 0 0 0 0 0 0 0 0 0 0 0 0 0 0 0 0 0 0 0 0 0 0 0 0
0 0 0 0 0 0 0 0 1126 1123 1121 1149 1146 1169 1180 0 1265 1269 1315 0 1254 1260 1240 0 0 0 0 0 0 0 0 0 0 0 0 0 0 0 0 0 0 0 0 0 0 0 0 0 0 0 0 0 0 0 0 0 0 0 0 0 0 0 0 0 0 0 0 0 0 0 0 0 0 0 0 0 0 0 0 0 0 0 0 0 0 0 0 0 0 0 0 0 0 0 0 0 0 0 0 0 0 0 0 0 0 0 0 0 0 0 0 0 0 0 0 0 0 0 0 0
0 0 0 0 0 0 0 1117 1103 1113 0 0 1196 1153 1198 1214 1236 1274 1272 1295 1260 1260 1275 1275 0 0 0 0 0 0 0 0 0 0 0 0 0 0 0 0 0 0 0 0 0 0 0 0 0 0 0 0 0 0 0 0 0 0 0 0 0 0 0 0 0 0 0 0 0 0 0 0 0 0 0 0 0 0 0 0 0 0 0 0 0 0 0 0 0 0 0 0 0 0 0 0 0 0 0 0 0 0 0 0 0 0 0 0 0 0 0 0 0 0 0 0 0 0 0 0
0 0 0 0 0 0 0 0 0 0 0 0 1221 1231 1235 1267 1305 1299 1270 1275 1249 1236 1232 1291 0 0 0 0 0 0 0 1401 0 0 0 0 0 0 0 0 0 0 0 0 0 0 0 0 0 0 0 0 0 0 0 0 0 0 0 0 0 0 0 0 0 0 0 0 0 0 0 0 0 0 0 0 0 0 0 0 0 0 0 0 0 0 0 0 0 0 0 0 0 0 0 0 0 0 0 0 0 0 0 0 0 0 0 0 0 0 0 0 0 0 0 0 0 0 0 0
0 0 0 0 0 0 0 0 0 0 0 0 1249 1264 1282 1274 1261 1263 1288 1269 1247 1250 1254 1280 1259 1317 1358 1350 1372 1316 0 1396 0 0 0 0 0 0 0 0 0 0 0 0 0 0 0 0 0 0 0 0 0 0 0 0 0 0 0 0 0 0 0 0 0 0 0 0 0 0 0 0 0 0 0 0 0 0 0 0 0 0 0 0 0 0 0 0 0 0 0 0 0 0 0 0 0 0 0 0 0 0 0 0 0 0 0 0 0 0 0 0 0 0 0 0 0 0 0 0
0 0 0 0 0 0 0 0 0 0 0 0 1274 1260 1269 1287 1284 1279 1279 1283 1250 1255 1282 1269 0 0 1325 1346 1381 1341 1357 1413 0 0 0 0 0 0 0 0 0 0 0 0 0 0 0 0 0 0 0 0 0 0 0 0 0 0 0 0 0 0 0 0 0 0 0 0 0 0 0 0 0 0 0 0 0 0 0 0 0 0 0 0 0 0 0 0 0 0 0 0 0 0 0 0 0 0 0 0 0 0 0 0 0 0 0 0 0 0 0 0 0 0 0 0 0 0 0 0
0 0 0 0 0 0 0 0 0 0 0 0 0 0 1242 1269 1283 1274 1265 1248 1253 1251 1251 1266 1250 0 0 1313 1324 1347 1359 1410 1412 0 0 0 0 0 0 0 0 0 0 0 0 0 0 0 0 0 0 0 0 0 0 0 0 0 0 0 0 0 0 0 0 0 0 0 0 0 0 0 0 0 0 0 0 0 0 0 0 0 0 0 0 0 0 0 0 0 0 0 0 0 0 0 0 0 0 0 0 0 0 0 0 0 0 0 0 0 0 0 0 0 0 0 0 0 0 0
0 0 0 0 0 0 0 0 0 0 0 0 0 0 0 0 0 0 0 0 0 1281 1266 1257 1250 0 0 1329 1348 1376 1360 1419 1466 0 0 0 0 0 0 0 0 0 0 0 0 0 0 0 0 0 0 0 0 0 0 0 0 0 0 0 0 0 0 0 0 0 0 0 0 0 0 0 0 0 0 0 0 0 0 0 0 0 0 0 0 0 0 0 0 0 0 0 0 0 0 0 0 0 0 0 0 0 0 0 0 0 0 0 0 0 0 0 0 0 0 0 0 0 0 0
0 0 0 0 0 0 0 0 0 0 0 0 0 0 0 0 0 0 0 0 0 0 0 1315 1285 0 0 1312 1313 1344 1340 1397 1427 0 0 0 0 0 0 0 0 0 0 0 0 0 0 0 0 0 0 0 0 0 0 0 0 0 0 0 0 0 0 0 0 0 0 0 0 0 0 0 0 0 0 0 0 0 0 0 0 0 0 0 0 0 0 0 0 0 0 0 0 0 0 0 0 0 0 0 0 0 0 0 0 0 0 1786 0 0 0 0 0 0 0 0 0 0 0 0
0 0 0 0 0 0 0 0 0 0 0 0 0 0 0 0 0 0 0 0 0 0 0 1395 1388 1304 1318 1339 1359 1386 1339 1385 1433 0 0 0 0 0 0 0 0 0 0 0 0 0 0 0 0 0 0 0 0 0 0 0 0 0 0 0 0 0 0 0 0 0 0 0 0 0 0 0 0 0 0 0 0 0 0 0 0 0 0 0 0 0 0 0 0 0 0 0 0 0 0 0 0 0 0 0 0 0 0 0 0 0 1757 1740 0 0 0 0 0 0 0 0 0 0 0 0
0 0 0 0 0 0 0 0 0 0 0 0 0 0 0 0 0 0 0 0 0 0 0 1372 1379 1389 1350 1311 1378 1344 1369 1391 1436 0 0 0 0 0 0 0 0 0 0 0 0 0 0 0 0 0 0 0 0 0 0 0 0 0 0 0 0 0 0 0 0 0 0 0 0 0 0 0 0 0 0 0 0 0 0 0 0 0 0 0 0 0 0 0 0 0 0 0 0 0 0 0 0 0 0 0 0 0 0 0 0 1742 1769 0 1763 0 0 0 0 0 0 0 0 0 0 0
0 0 0 0 0 0 0 0 0 0 0 0 0 0 0 0 0 0 0 0 0 0 0 1364 1369 1388 1365 1317 1333 1322 1340 1423 1443 0 0 0 0 0 0 0 0 0 0 0 0 0 0 0 0 0 0 0 0 0 0 0 0 0 0 0 0 0 0 0 0 0 0 0 0 0 0 0 0 0 0 0 0 0 0 0 0 0 0 0 0 0 0 0 0 0 0 0 0 0 0 0 0 0 0 0 0 0 0 0 0 1772 1722 0 0 0 0 0 0 0 0 0 0 0 0 0
0 0 0 0 0 0 0 0 0 0 0 0 0 0 0 0 0 0 0 0 0 0 0 1357 1363 1378 1378 1388 1389 1344 1347 1462 1449 0 0 0 0 0 0 0 0 0 0 0 0 0 0 0 0 0 0 0 0 0 0 0 0 0 0 0 0 0 0 0 0 0 0 0 0 0 0 0 0 0 0 0 0 0 0 0 0 0 0 0 0 0 0 0 0 0 0 0 0 0 0 0 0 0 0 0 0 0 0 0 0 1726 0 1707 1731 0 0 0 0 0 0 0 0 0 0 0
1265 1285 1271 1296 1309 1352 1310 0 0 0 0 0 0 0 0 0 0 0 0 0 0 0 0 0 1365 1376 1387 1408 1371 1390 1358 1413 1443 0 0 0 0 0 0 0 0 0 0 0 0 0 0 0 0 0 0 0 0 0 0 0 0 0 0 0 0 0 0 0 0 0 0 0 0 0 0 0 0 0 0 0 0 0 0 0 0 0 0 0 0 0 0 0 0 0 0 0 0 0 0 0 0 0 0 0 0 0 0 0 1783 1741 1745 1718 1684 1662 0 1672 1739 0 0 0 0 0 0 0
1257 1244 1264 1265 1274 1294 1297 1300 1326 1332 1366 0 0 0 0 0 0 0 0 0 0 0 0 1390 1342 1371 1355 1361 1371 1353 1378 1408 1395 0 0 0 0 0 0 0 0 0 0 0 0 0 0 0 0 0 0 0 0 0 0 0 0 0 0 0 0 0 0 0 0 0 0 0 0 0 0 0 0 0 0 0 0 0 0 0 0 0 0 0 0 0 0 0 0 0 0 0 0 0 0 0 0 0 0 0 0 0 0 0 1747 1754 1725 1703 1708 1689 1654 1683 0 0 0 0 0 0 0 0
1268 1240 1261 1291 1280 1282 1315 1317 1310 1337 1347 1353 1343 1390 1384 1431 0 0 0 0 0 0 0 0 0 1356 0 0 1346 0 0 1435 1443 0 0 0 0 0 0 0 0 0 0 0 0 0 0 0 0 0 0 0 0 0 0 0 0 0 0 0 0 0 0 0 0 0 0 0 0 0 0 0 0 0 0 0 0 0 0 0 0 0 0 0 0 0 0 0 0 0 0 0 0 0 0 0 0 0 0 0 0 0 0 1793 1800 1769 1725 1687 1720 1678 1661 1710 0 0 0 0 0 0 0 0
0 0 0 0 1304 1313 1304 1322 1303 1326 1340 1329 1351 1353 1390 1400 1438 1391 1440 1448 0 0 0 0 0 0 0 0 0 0 0 1464 1437 1434 0 0 0 0 0 0 0 0 0 0 0 0 0 0 0 0 0 0 0 0 0 0 0 0 0 0 0 0 0 0 0 0 0 0 0 0 0 0 0 0 0 0 0 0 0 0 0 0 0 0 0 0 0 0 0 0 0 0 0 0 0 0 0 0 0 0 0 0 1784 1792 1748 1722 1741 1706 1722 1665 0 0 0 0 0 0 0 0 0 0
0 0 0 0 0 0 0 0 0 1300 1373 1355 1343 1373 1393 1382 1397 1390 1440 1437 1444 1493 0 0 0 0 0 0 0 0 0 1453 1471 1482 0 0 0 0 0 0 0 0 0 0 0 0 0 0 0 0 0 0 0 0 0 0 0 0 0 0 0 0 0 0 0 0 0 0 0 0 0 0 0 0 0 0 0 0 0 0 0 0 0 0 0 0 0 0 0 0 0 0 0 0 0 0 0 0 0 0 0 0 0 1788 1699 1640 1593 1586 1593 1565 1626 1609 1596 1611 1615 0 0 0 0 0
0 0 0 0 0 0 0 0 0 0 0 0 0 0 0 1434 1404 1416 1449 1449 1475 1495 0 0 0 0 0 0 0 0 0 0 1523 0 0 0 0 0 0 0 0 0 0 0 0 0 0 0 0 0 0 0 0 0 0 0 0 0 0 0 0 0 0 0 0 0 0 0 0 0 0 0 0 0 0 0 0 0 0 0 0 0 0 0 0 0 0 0 0 0 0 0 0 0 0 0 0 0 0 0 0 0 1689 1648 1607 1619 1625 1573 1592 1619 1592 1647 1595 1563 1573 0 0 0 0 0
0 0 0 0 0 0 0 0 0 0 0 0 0 0 0 0 0 0 0 0 0 1461 0 0 0 0 0 0 0 0 0 0 0 0 0 0 0 0 0 0 0 0 0 0 0 0 0 0 0 0 0 0 0 0 0 0 0 0 0 0 0 0 0 0 0 0 0 0 0 0 0 0 0 0 0 0 0 0 0 0 0 0 0 0 0 0 0 0 0 0 0 0 0 0 0 0 0 0 0 0 0 1590 1582 1591 1596 1582 1602 1588 1601 1598 1592 1599 1594 1609 0 0 0 0 0 0
0 0 0 0 0 0 0 0 0 0 0 0 0 0 0 0 0 0 0 0 0 0 0 0 0 0 0 0 0 0 0 0 0 0 0 0 0 0 0 0 0 0 0 0 0 0 0 0 0 0 0 0 0 0 0 0 0 0 0 0 0 0 0 0 0 0 0 0 0 0 0 0 0 0 0 0 0 0 0 0 0 0 0 0 0 0 0 0 0 0 0 0 0 0 0 0 0 0 0 0 0 0 0 1582 1623 1582 1611 1590 1617 1586 1599 1594 0 0 0 0 0 0 0 0
0 0 0 0 0 0 0 0 0 0 0 0 0 0 0 0 0 0 0 0 0 0 0 0 0 0 0 0 0 0 0 0 0 0 0 0 0 0 0 0 0 0 0 0 0 0 0 0 0 0 0 0 0 0 0 0 0 0 0 0 0 0 0 0 0 0 0 0 0 0 0 0 0 0 0 0 0 0 0 0 0 0 0 0 0 0 0 0 0 0 0 0 0 0 0 0 0 0 0 0 0 0 0 0 0 0 0 1561 0 0 0 0 0 0 0 0 0 0 0 0
0 0 0 0 0 0 0 0 0 0 0 0 0 0 0 0 0 0 0 0 0 0 0 0 0 0 0 0 0 0 0 0 0 0 0 0 0 0 0 0 0 0 0 0 0 0 0 0 0 0 0 0 0 0 0 0 0 0 0 0 0 0 0 0 0 0 0 0 0 0 0 0 0 0 0 0 0 0 0 0 0 0 0 0 0 0 0 0 0 0 0 0 0 0 0 0 0 0 0 0 0 0 0 0 0 0 0 0 0 0 0 0 0 0 0 0 0 0 0 0
574 631 0 0 0 0 0 0 0 0 0 0 0 0 0 0 0 0 0 0 0 0 0 0 0 1853 1896 0 0 0 0 0 0 0 0 0 0 0 0 0 0 0 0 0 0 0 0 2888 2860 2935 2917 2923 2932 2842 2941 2929 2888 2936 2868 2879 2889 2890 2936 2881 2908 2850 0 0 0 0 0 0 0 0 0 0 0 0 0 0 0 0 0 0 0 0 0 0 0 0 0 0 0 0 0 0 1725 1678 0 0 0 0 0 0 0 0 0 0 0 0 0 0 0 0 0 0 0 0 0 0
573 583 592 578 613 651 0 0 0 0 0 0 0 0 0 0 0 0 0 0 0 0 0 0 0 0 0 1922 1946 0 0 0 0 0 0 0 0 0 0 0 0 0 0 0 0 0 0 2903 2905 2925 2907 2900 2946 2886 2926 2866 2941 2934 2888 2918 2940 2936 2897 2886 2914 2889 0 0 0 0 0 0 0 0 0 0 0 0 0 0 0 0 0 0 0 0 0 0 0 0 0 0 0 0 0 0 0 0 0 0 0 0 0 0 0 0 0 0 0 0 0 0 0 0 0 0 0 0 0 0
594 575 602 604 606 621 647 659 688 0 0 0 0 0 0 0 0 0 0 0 0 0 0 0 0 0 0 0 0 0 0 0 0 0 0 0 0 0 0 0 0 0 0 0 0 0 0 2886 2940 2946 2906 2884 2925 2909 2905 2958 2934 2929 2937 2926 2884 2863 2886 2889 2916 0 0 0 0 0 0 0 0 0 0 0 0 0 0 0 0 0 0 0 0 0 0 0 0 0 0 0 0 0 0 0 0 0 0 0 0 0 0 0 0 0 0 0 0 0 0 0 0 0 0 0 0 0 0 0
591 588 592 606 614 633 632 648 663 669 709 699 0 0 0 0 0 0 0 0 0 0 0 0 0 0 0 0 0 0 0 0 0 0 0 0 0 0 0 0 0 0 0 0 0 0 0 2915 2953 2920 2919 2896 2879 2904 2881 2958 2898 2905 2908 2922 2859 2937 2913 2910 2885 2913 0 0 0 0 0 0 0 0 0 0 0 0 0 0 0 0 0 0 0 0 0 0 0 0 0 0 0 0 0 0 0 0 0 0 0 0 0 0 0 0 0 0 0 0 0 0 0 0 0 0 0 0 0 0
584 563 599 592 622 626 618 631 644 667 682 671 725 725 747 0 0 0 0 0 0 0 0 0 0 0 0 0 0 0 0 0 0 0 0 0 0 0 0 0 0 0 0 0 0 0 0 2903 2933 2935 2930 2905 2876 2906 2901 2916 2908 2921 2919 2925 2895 2953 2917 2977 2915 0 0 0 0 0 0 0 0 0 0 0 0 0 0 0 0 0 0 0 0 0 0 0 0 0 0 0 0 0 0 0 0 0 0 0 0 0 0 0 0 0 0 0 0 0 0 0 0 0 0 0 0 0 0 0
751 768 726 768 708 668 650 654 670 655 671 691 719 730 735 755 770 804 0 0 0 0 0 0 0 0 0 0 0 0 0 0 0 0 0 0 0 0 0 0 0 0 0 0 0 0 0 2908 2938 2941 2916 2861 2915 2900 2892 2927 2904 2863 2877 2870 2885 2874 2901 2881 2910 2934 0 0 0 0 0 0 0 0 0 0 0 0 0 0 0 0 0 0 0 0 0 0 0 0 0 0 0 0 0 0 0 0 0 0 0 0 0 0 0 0 0 0 0 0 0 0 0 0 0 0 0 0 0 0
796 801 809 812 846 850 842 861 826 804 758 706 712 749 722 758 788 771 799 800 879 0 0 0 0 0 0 0 0 0 0 0 0 0 0 0 0 0 0 0 0 0 0 0 0 0 0 2864 2891 2912 2885 2873 2895 2893 2924 2893 2890 2950 2887 2902 2883 2909 2889 2905 2924 2817 0 0 0 0 0 0 0 0 0 0 0 0 0 0 0 0 0 0 0 0 0 0 0 0 0 0 0 0 0 0 0 0 0 0 0 0 0 0 0 0 0 0 0 0 0 0 0 0 0 0 0 0 0 0
755 781 801 819 837 859 869 859 866 899 900 933 927 889 822 781 790 755 769 789 829 847 850 889 0 0 0 0 0 0 0 0 0 0 0 0 0 0 0 0 0 0 0 0 0 0 0 2913 2919 2914 2960 2933 2970 2916 2901 2913 2993 2956 2907 2974 2912 2904 2919 2857 2894 0 0 0 0 0 0 0 0 0 0 0 0 0 0 0 0 0 0 0 0 0 0 0 0 0 0 0 0 0 0 0 0 0 0 0 0 0 0 0 0 0 0 0 0 0 0 0 0 0 0 0 0 0 0 0
681 0 873 827 848 869 894 895 908 915 930 942 948 951 947 954 935 928 906 875 817 859 905 863 924 961 0 0 0 0 0 0 0 0 0 0 0 0 0 0 0 0 0 0 0 0 0 2945 2900 2919 2910 2887 2901 2915 2890 2901 2896 2900 2892 2917 2868 2894 2878 2860 2905 2850 0 0 0 0 0 0 0 0 0 0 0 0 0 0 0 0 0 0 0 0 0 0 0 0 0 0 0 0 0 0 0 0 0 0 0 0 0 0 0 0 0 0 0 0 0 0 0 0 0 0 0 0 0 0
642 923 958 938 929 918 0 900 916 930 934 945 937 957 950 949 949 958 949 934 941 932 899 891 906 944 926 968 1004 0 0 0 0 0 0 0 0 0 0 0 0 0 0 0 0 0 0 2919 2874 2928 2872 2939 2945 2941 2934 2957 2895 0 2928 2921 2858 2887 2920 2927 2872 2919 0 0 0 0 0 0 0 0 0 0 0 0 0 0 0 0 0 0 0 0 0 0 0 0 0 0 0 0 0 0 0 0 0 0 0 0 0 0 0 0 0 0 0 0 0 0 0 0 0 0 0 0 0 0
570 725 0 0 0 0 0 0 0 0 964 978 981 987 962 953 976 957 947 950 954 954 959 963 984 965 984 993 1055 1055 1058 0 0 0 0 0 0 0 0 0 0 0 0 0 0 0 0 2918 2932 2874 2913 2836 2850 2922 2897 2895 2941 2869 2883 2881 2885 2898 2922 2876 2892 2861 0 0 0 0 0 0 0 0 0 0 0 0 0 0 0 0 0 0 0 0 0 0 0 0 0 0 0 0 0 0 0 0 0 0 0 0 0 0 0 0 0 0 0 0 0 0 0 0 0 0 0 0 0 0
554 612 583 0 1124 1136 1144 1154 1171 1149 1159 1139 1144 1140 1148 1159 1113 1053 0 0 1025 1056 1057 970 1011 1036 1103 1136 1102 1101 1096 0 0 0 0 0 0 0 0 0 0 0 0 0 0 0 0 2940 2884 2927 2910 2931 2890 2866 2931 2955 2891 2896 2908 2859 2886 2884 2855 2912 2888 2919 0 0 0 0 0 0 0 0 0 0 0 0 0 0 0 0 0 0 0 0 0 0 0 0 0 0 0 0 0 0 0 0 0 0 0 0 0 0 0 0 0 0 0 0 0 0 0 0 0 0 0 0 0 0
583 569 600 606 0 0 0 0 0 0 0 0 0 0 0 0 1424 1047 979 0 0 1154 1111 0 0 1125 1138 1168 1155 1138 1093 0 0 0 0 0 0 0 0 0 0 0 0 0 0 0 0 2903 2879 2928 2923 2908 2928 2906 2912 2920 2955 2889 2880 2896 2881 2899 2919 2914 2916 2950 0 0 0 0 0 0 0 0 0 0 0 0 0 0 0 0 0 0 0 0 0 0 0 0 0 0 0 0 0 0 0 0 0 0 0 0 0 0 0 0 0 0 0 0 0 0 0 0 0 0 0 0 0 0
571 598 587 599 637 0 0 0 0 0 0 0 0 0 0 0 0 965 965 0 0 0 0 0 0 0 0 0 0 0 0 0 0 0 0 0 0 0 0 0 0 0 0 0 0 0 0 2883 2886 2945 2959 2897 2928 2934 2901 2912 2888 2925 2891 2895 2907 2876 2865 2910 2899 2886 0 0 0 0 0 0 0 0 0 0 0 0 0 0 0 0 0 0 0 0 0 0 0 0 0 0 0 0 0 0 0 0 0 0 0 0 0 0 0 0 0 0 0 0 0 0 0 0 0 0 0 0 0 0
588 573 566 601 619 607 0 0 0 0 0 0 0 0 0 0 0 0 0 0 0 0 0 0 0 0 0 0 0 0 0 0 0 0 0 0 0 0 0 0 0 0 0 0 0 0 0 2948 2956 2908 2948 2939 2923 2917 2883 2904 2923 2941 2936 2954 2902 2888 2958 2924 2865 0 0 0 0 0 0 0 0 0 0 0 0 0 0 0 0 0 0 0 0 0 0 0 0 0 0 0 0 0 0 0 0 0 0 0 0 0 0 0 0 0 0 0 0 0 0 0 0 0 0 0 0 0 0 0
573 591 579 625 605 609 0 0 0 0 0 0 0 0 0 0 0 0 0 0 0 0 979 0 0 0 0 0 0 0 0 0 0 0 0 0 0 0 0 0 0 0 0 0 0 0 0 2934 2898 2920 2961 2874 2889 2906 2905 2934 2926 2912 2910 2914 2864 2861 2855 2875 2897 2856 0 0 0 0 0 0 0 0 0 0 0 0 0 0 0 0 0 0 0 0 0 0 0 0 0 0 0 0 0 0 0 0 0 0 0 0 0 0 0 0 0 0 0 0 0 0 0 0 0 0 0 0 0 0
576 588 588 597 595 621 514 0 0 0 0 0 0 0 0 0 0 0 0 0 0 0 964 0 0 0 0 0 0 0 0 0 0 0 0 0 0 0 0 0 0 0 0 0 0 0 0 2935 2937 2944 2905 2944 2926 2891 2915 2904 2950 2867 2907 2954 2912 2884 2893 2912 2882 0 0 0 0 0 0 0 0 0 0 0 0 0 0 0 0 0 0 0 0 0 0 0 0 0 0 0 0 0 0 0 0 0 0 0 0 0 0 0 0 0 0 0 0 0 0 0 0 0 0 0 0 0 0 0
572 602 587 580 607 578 623 0 0 0 0 0 0 0 0 0 0 0 0 0 0 0 954 0 0 0 0 0 0 0 0 0 0 0 0 0 0 0 0 0 0 0 0 0 0 0 0 2898 2927 2891 2932 2872 2925 2940 2942 2896 2888 2871 2899 2884 2863 2876 2886 2880 2881 0 0 0 0 0 0 0 0 0 0 0 0 0 0 0 0 0 0 0 0 0 0 0 0 0 0 0 0 0 0 0 0 0 0 0 0 0 0 0 0 0 0 0 0 0 0 0 0 0 0 0 0 0 0 0
591 554 594 608 604 631 582 0 0 0 0 0 0 0 0 0 2326 0 0 0 940 0 978 969 0 0 0 0 0 0 0 0 0 0 0 0 0 0 0 0 0 0 0 0 0 0 0 2866 2907 2881 2881 2944 2908 2924 2910 2908 2933 2893 2903 2891 2837 2891 2863 2881 2904 2879 0 0 0 0 0 0 0 0 0 0 0 0 0 0 0 0 0 0 0 0 0 0 0 0 0 0 0 0 0 0 0 0 0 0 0 0 0 0 0 0 0 0 0 0 0 0 0 0 0 0 0 0 0 0
574 575 614 578 614 647 610 0 0 0 0 0 0 0 0 0 0 0 0 0 0 0 0 0 0 0 0 0 0 0 0 0 0 0 0 0 0 0 0 0 0 0 0 0 0 0 0 2885 2917 2913 2942 2884 2932 2946 2900 2897 2931 2919 2897 2913 2863 2895 2905 2856 2891 2851 0 0 0 0 0 0 0 0 0 0 0 0 0 0 0 0 0 0 0 0 0 0 0 0 0 0 0 0 0 0 0 0 0 0 0 0 0 0 0 0 0 0 0 0 0 0 0 0 0 0 0 0 0 0
590 548 590 613 590 624 0 0 0 0 0 0 0 0 0 0 0 0 0 0 0 0 0 0 0 0 0 0 0 0 0 0 0 0 0 0 0 0 0 0 0 0 0 0 0 0 0 0 0 0 0 0 0 0 0 0 0 0 0 0 0 3026 3023 2899 2880 0 0 0 0 0 0 0 0 0 0 0 0 0 0 0 0 0 0 0 0 0 0 0 0 0 0 0 0 0 0 0 0 0 0 0 0 0 0 0 0 0 0 0 0 0 0 0 0 0 0 0 0 0 0 0
583 598 624 620 624 611 0 0 0 0 0 0 0 0 0 0 0 0 0 0 0 0 0 0 0 0 0 0 0 0 0 0 0 0 0 0 0 0 0 0 0 0 0 0 0 0 0 0 0 0 0 0 0 0 0 0 0 0 0 0 0 0 0 0 0 0 0 0 0 0 0 0 0 0 0 0 0 0 0 0 0 0 0 0 0 0 0 0 0 0 0 0 0 0 0 0 0 0 0 0 0 0 0 0 0 0 0 0 0 0 0 0 0 0 0 0 0 0 0 0
588 601 594 568 619 0 0 0 0 0 0 0 0 0 0 0 0 0 0 0 0 0 0 0 0 0 0 0 0 0 0 0 0 0 0 0 0 0 0 0 0 0 0 0 0 0 0 0 0 0 0 0 0 0 0 0 0 0 0 0 0 0 0 0 0 0 0 0 0 0 0 0 0 0 0 0 0 0 0 0 0 0 0 0 0 0 0 0 0 0 0 0 0 0 0 0 0 0 0 0 0 0 0 0 0 0 0 0 0 0 0 0 0 0 0 0 0 0 0 0
585 578 600 606 618 0 0 0 0 0 0 0 0 0 0 0 0 0 0 0 0 0 0 0 0 0 0 0 0 0 0 0 0 0 0 0 0 0 0 0 0 0 0 0 0 0 0 0 0 0 0 0 0 0 0 0 0 0 0 0 0 0 0 0 0 0 0 0 0 0 0 0 0 0 0 0 0 0 0 0 0 0 0 0 0 0 0 0 0 0 0 0 0 0 0 0 0 0 0 0 0 0 0 0 0 0 0 0 0 0 0 0 0 0 0 0 0 0 0 0
599 572 595 556 0 0 0 0 0 0 0 0 0 0 0 0 0 0 0 0 0 0 0 0 0 0 878 875 883 852 924 0 912 865 841 809 0 921 922 959 931 0 0 0 0 0 0 0 0 0 0 0 0 0 0 0 0 0 0 0 0 0 0 0 0 0 0 0 0 0 0 0 0 0 0 0 0 0 0 0 0 0 0 0 0 0 0 0 0 0 0 0 0 0 0 0 0 0 0 0 0 0 0 0 0 0 0 0 0 0 0 0 0 0 0 0 0 0 0 0
592 604 592 0 0 0 0 678 711 688 708 687 709 693 696 690 689 713 701 694 668 714 728 715 701 707 711 695 710 715 721 715 707 725 709 715 729 704 740 726 725 779 697 779 707 753 776 759 703 781 764 756 766 762 745 783 712 789 732 741 811 766 785 751 806 775 788 798 778 775 731 741 821 0 782 0 0 0 0 0 0 0 0 0 0 0 0 0 0 0 0 0 0 0 0 0 0 0 0 0 0 0 0 0 0 0 0 0 0 0 0 0 0 0 0 0 0 0 0 0
548 594 596 557 595 568 567 582 597 570 576 588 607 622 617 609 601 601 583 604 585 606 600 593 607 575 576 565 614 604 598 601 608 614 591 619 639 651 609 623 630 635 605 619 628 622 654 633 610 632 675 612 643 656 652 627 673 645 650 627 669 673 649 666 660 690 647 656 633 643 668 686 696 672 644 657 649 638 664 697 671 650 663 677 679 697 717 704 665 708 698 732 668 715 718 712 773 674 719 699 754 668 0 0 0 0 0 0 0 0 0 0 0 0 0 0 0 0 0 0
495 477 509 517 500 502 505 481 491 489 505 488 523 493 503 520 486 501 522 507 509 509 497 511 500 514 507 533 520 530 520 527 513 512 517 508 524 538 528 515 508 528 496 534 530 533 518 534 519 532 543 551 517 532 516 527 524 556 531 529 533 526 542 546 542 552 542 551 545 556 542 550 557 556 512 538 575 548 561 540 557 568 566 586 577 584 562 554 630 585 575 549 592 584 576 610 557 567 586 584 607 582 630 632 0 659 0 618 614 578 0 0 0 0 0 0 0 0 0 0
438 429 404 413 405 451 430 435 436 455 441 451 450 442 444 445 452 446 448 438 450 446 449 447 466 441 451 440 453 474 465 470 476 450 450 449 447 456 462 461 473 455 455 455 482 482 448 482 467 466 472 467 487 489 481 477 467 471 471 465 468 485 470 479 481 470 490 478 494 490 476 490 472 466 474 503 483 486 464 491 491 507 489 486 483 504 487 475 530 501 511 490 475 461 478 477 504 515 508 458 498 493 514 474 471 512 521 549 523 476 526 518 0 0 0 0 0 0 0 0
406 395 391 394 410 391 397 420 407 389 400 389 397 394 394 410 405 409 411 404 414 411 416 419 410 411 403 410 402 411 416 435 418 423 405 415 407 415 418 414 414 401 432 412 415 412 426 414 417 419 426 435 422 432 431 427 421 435 437 435 423 437 423 430 442 437 429 441 444 429 425 440 430 430 445 425 452 433 438 419 429 440 436 457 434 438 432 424 430 447 424 442 437 444 431 429 439 426 437 444 433 445 435 438 445 451 438 446 430 440 435 450 437 436 0 0 0 0 0 0
351 355 360 341 366 369 375 361 361 366 358 352 364 368 361 367 360 373 355 378 362 365 367 379 363 383 366 372 374 377 362 371 361 379 366 370 388 377 371 370 382 369 362 380 370 373 393 385 382 387 387 383 388 393 371 380 372 378 372 389 375 383 388 401 382 394 385 391 398 382 395 400 387 394 394 385 392 409 384 389 389 386 385 381 393 400 384 395 402 406 391 400 396 384 391 388 395 389 392 392 406 396 391 405 405 389 378 394 400 378 401 384 380 390 387 427 0 0 0 0
310 329 306 333 337 335 343 340 348 330 342 348 332 331 336 340 351 328 330 343 368 331 334 349 332 324 334 327 341 343 334 370 347 343 332 349 341 330 335 334 338 342 347 342 338 339 350 348 348 351 352 342 347 343 335 349 340 335 345 348 353 344 345 354 353 336 343 353 341 342 347 359 342 345 353 341 350 358 355 346 355 348 341 356 352 347 345 353 342 351 350 357 353 348 355 361 346 359 356 354 359 341 361 369 359 364 363 358 364 354 353 371 358 381 327 332 359 0 0 0
278 290 283 291 287 301 295 304 299 299 305 291 303 304 291 295 300 311 298 311 298 321 300 294 292 303 295 297 299 320 296 302 307 297 304 310 310 312 300 310 305 307 301 309 305 307 312 300 309 302 309 314 306 306 315 306 314 310 311 317 323 305 312 317 310 316 325 317 320 303 308 314 332 319 301 319 316 312 312 313 313 318 319 319 325 326 340 320 317 335 333 316 320 309 319 332 307 333 312 331 338 319 339 323 332 322 328 319 315 322 341 322 326 337 317 302 349 356 339 0
290 273 276 271 280 273 274 281 265 274 281 281 284 286 287 283 276 272 280 276 270 272 277 268 284 269 279 279 288 269 284 286 278 283 280 283 276 274 273 276 292 286 289 279 282 286 279 293 283 286 278 277 294 286 284 290 285 290 285 279 286 288 285 296 287 286 278 294 298 294 286 286 289 283 292 292 291 286 294 292 284 284 290 292 289 279 294 292 294 304 291 289 293 302 303 298 287 297 293 295 297 302 290 303 295 295 276 298 291 268 305 292 306 323 301 290 303 279 304 281
253 247 257 263 252 256 254 254 260 253 258 254 252 258 261 251 258 264 257 253 261 264 260 254 268 254 253 262 249 257 252 262 254 266 263 264 255 268 266 265 269 259 260 271 265 264 263 256 262 268 267 267 267 262 265 261 262 263 261 267 266 259 271 266 271 263 265 263 272 261 268 266 271 269 270 262 274 264 265 274 263 270 269 279 272 267 270 267 267 269 261 269 274 270 273 275 285 276 276 277 274 265 277 274 270 279 271 285 291 265 273 282 279 260 292 281 275 257 277 259
234 236 233 236 232 230 242 237 238 231 236 240 245 247 238 237 240 242 246 248 234 253 244 241 246 235 240 243 241 247 246 243 247 244 251 249 242 239 245 251 250 248 244 243 247 244 249 240 254 258 253 244 249 251 251 250 245 243 250 255 246 248 252 252 256 255 253 249 257 253 248 253 240 250 252 252 254 251 250 252 251 256 257 255 261 251 247 255 251 245 249 254 251 244 253 260 257 257 257 261 245 250 264 243 256 251 263 249 256 253 258 262 261 264 257 252 279 273 271 251
219 219 221 208 220 224 222 220 220 215 222 222 224 223 223 227 227 227 232 227 229 224 235 227 227 228 225 227 234 225 230 234 226 230 231 228 233 235 236 237 236 230 228 226 242 238 234 232 233 232 235 225 227 236 229 233 229 230 232 232 232 233 238 231 236 231 235 231 232 232 241 235 242 234 233 233 238 227 229 225 234 232 230 234 237 224 242 240 230 235 232 234 231 237 230 235 232 235 238 239 246 234 249 236 242 227 227 239 233 247 244 239 235 243 237 233 221 219 206 225
212 208 217 218 215 205 209 208 212 215 212 212 203 222 217 211 212 211 211 217 213 210 213 209 212 216 213 222 210 216 216 218 219 218 211 218 215 215 216 223 223 217 214 212 224 202 203 201 214 220 218 217 222 201 205 219 228 204 218 223 221 220 223 229 223 220 228 223 227 220 217 222 220 216 219 218 221 223 222 225 221 229 219 230 227 225 223 228 217 220 221 225 232 220 227 227 222 212 222 225 218 217 223 226 221 227 212 220 232 236 216 219 221 236 224 227 215 232 243 239
193 184 199 202 208 203 200 199 188 183 184 204 199 195 206 190 191 192 195 206 192 193 196 189 189 184 188 192 184 193 189 196 192 185 201 187 190 190 195 191 187 195 198 200 196 198 198 199 198 193 196 196 197 195 190 199 195 196 196 197 199 195 197 201 193 198 193 195 198 195 200 201 200 199 196 194 198 192 194 200 195 197 216 212 201 199 198 186 195 196 197 197 195 194 208 186 193 195 215 208 207 210 207 196 225 215 203 221 208 205 215 204 214 213 198 210 205 195 203 201
177 178 194 197 179 179 181 186 175 182 185 180 181 177 181 187 180 185 182 188 180 191 187 182 183 182 191 184 185 194 194 190 192 193 193 194 194 189 191 191 193 187 197 199 191 196 192 196 199 195 196 198 194 195 193 201 201 198 197 197 196 190 198 197 200 200 199 196 200 196 197 194 191 200 194 196 196 194 195 190 197 197 195 194 187 185 191 189 191 194 183 189 190 192 178 181 181 190 188 181 182 191 183 185 190 184 181 191 192 205 189 199 188 196 172 203 178 176 198 188
175 178 178 178 179 180 178 181 176 174 184 179 185 177 184 182 186 183 184 186 186 183 187 185 185 187 183 190 189 186 189 181 184 185 188 180 183 186 183 183 188 190 192 191 190 191 186 190 191 191 192 191 193 189 184 193 186 193 185 195 182 188 189 189 193 191 191 193 191 188 191 186 192 186 187 186 191 192 182 188 189 191 186 191 188 192 192 187 184 187 186 180 189 184 190 189 190 188 187 182 177 177 177 183 186 182 190 182 179 176 178 178 199 187 171 173 196 181 176 198
172 168 160 168 170 163 168 173 165 166 173 170 175 175 175 174 174 179 178 179 177 177 174 174 170 167 177 171 175 180 178 178 178 177 175 172 174 172 178 185 180 177 181 179 182 178 178 182 178 186 185 186 183 186 180 180 182 183 180 182 182 180 186 175 178 178 178 182 180 181 182 178 177 181 176 178 181 180 178 183 179 180 178 176 180 172 178 180 180 181 179 178 174 182 181 174 173 181 181 178 176 187 180 180 181 182 178 171 175 171 177 174 179 168 177 165 171 192 168 157
159 163 164 163 161 166 159 160 163 161 167 166 164 160 165 171 173 170 173 172 171 167 175 173 165 166 168 171 174 168 173 171 170 169 166 167 169 170 169 167 170 172 167 171 171 172 175 172 173 170 170 168 176 172 174 172 170 175 172 172 173 176 174 170 174 172 170 173 171 168 169 173 173 170 173 177 172 174 176 175 167 176 164 169 175 176 174 171 178 166 167 172 175 175 172 171 175 176 165 175 172 172 169 167 177 171 167 164 161 168 174 170 177 179 178 177 178 161 173 176
157 159 163 163 161 160 161 158 155 158 161 158 159 159 163 162 166 167 171 168 161 166 164 161 161 162 162 158 164 164 161 165 161 165 160 161 163 158 164 161 162 162 165 166 161 167 166 162 165 166 165 170 166 166 165 166 166 168 162 167 167 161 161 161 166 169 164 165 165 167 163 163 173 163 162 164 169 169 164 163 165 162 166 165 167 163 167 164 167 163 169 166 164 161 168 170 165 159 164 169 170 167 164 167 160 159 161 161 161 160 168 176 173 164 177 157 160 163 157 169
146 147 151 148 151 146 141 150 152 160 149 149 151 150 149 153 150 159 156 161 156 154 153 157 152 160 149 162 154 162 157 156 155 157 152 154 154 155 151 161 161 158 161 154 163 154 159 155 155 158 155 157 159 157 156 157 158 155 162 157 160 158 159 158 159 161 164 159 155 155 157 156 157 159 160 161 167 158 157 155 158 159 156 156 152 159 157 158 153 160 152 159 154 156 159 155 153 158 149 159 154 159 156 155 160 151 152 153 155 159 148 156 145 162 159 146 155 166 167 133
134 138 144 142 144 146 144 149 143 146 151 149 145 151 150 143 147 151 147 153 144 153 160 152 150 142 150 151 149 143 153 152 150 144 147 144 150 154 146 150 152 151 152 149 146 153 149 155 150 150 149 154 151 152 155 150 154 149 152 155 150 146 153 156 151 152 149 156 150 153 150 154 155 157 153 151 158 158 157 153 151 148 150 147 147 150 160 155 155 155 153 156 157 153 156 152 149 145 153 155 157 157 159 151 150 147 146 148 149 150 151 149 159 148 160 148 157 157 150 100
134 133 139 138 136 140 139 139 139 137 142 143 140 141 136 142 144 139 137 147 142 146 140 152 140 146 147 146 142 143 137 142 141 148 143 140 138 145 141 147 145 148 150 146 148 148 142 145 142 147 144 145 145 143 150 148 151 144 149 145 149 140 142 145 148 145 151 151 147 147 148 147 148 148 145 148 147 149 148 146 143 146 151 143 144 141 150 147 152 146 147 148 146 146 148 145 141 144 150 146 143 144 149 140 140 142 139 142 142 145 141 141 146 143 153 157 147 142 148 138
129 133 130 134 130 140 137 140 139 136 135 0 133 134 133 136 136 142 140 139 147 143 141 140 137 144 145 137 138 143 128 138 143 129 132 141 131 127 137 142 143 148 138 138 140 131 132 127 129 130 145 129 143 141 143 145 145 134 134 145 127 130 131 144 145 142 144 143 145 130 140 131 130 143 140 139 144 145 142 144 144 129 142 130 130 141 144 139 140 143 129 143 143 142 141 141 140 146 143 146 138 139 140 143 144 132 131 136 148 141 135 142 134 135 131 139 127 130 153 114
132 130 132 137 137 136 139 135 136 136 132 133 139 138 135 133 135 139 134 134 140 140 140 140 139 135 139 138 137 122 126 125 130 126 127 127 127 128 130 130 144 142 139 129 0 140 131 132 127 127 129 129 141 131 0 141 0 130 132 130 131 139 134 133 128 126 144 127 143 140 128 127 129 140 130 129 142 125 140 128 138 141 128 137 138 125 137 128 131 139 135 138 137 138 128 137 139 140 143 140 140 124 140 138 134 122 135 135 137 134 138 130 142 135 138 139 128 138 146 112
114 107 124 107 130 126 138 132 115 105 121 117 117 123 123 122 123 132 124 121 117 125 125 124 127 139 136 137 0 136 127 121 115 124 119 119 128 126 122 117 130 126 128 128 0 0 132 126 126 121 124 125 126 126 125 129 131 129 129 121 128 129 129 129 126 128 127 130 124 126 125 124 123 124 118 123 119 128 124 127 129 123 125 128 118 137 119 126 125 127 126 126 127 136 124 117 133 134 134 127 119 119 119 118 115 118 119 121 122 130 117 133 141 132 118 124 106 134 128 90
107 118 122 111 113 122 124 117 127 112 122 121 120 120 123 116 111 124 121 118 126 122 124 120 122 121 126 128 125 129 131 0 125 123 112 113 118 121 0 119 129 123 0 0 0 0 124 127 122 120 121 125 125 122 124 125 125 121 120 122 126 121 118 119 125 126 125 125 121 119 120 119 128 118 118 121 116 126 127 123 118 118 121 125 119 119 124 118 125 124 117 120 121 125 118 118 136 126 121 121 125 122 121 115 110 121 116 116 122 130 126 133 130 137 125 118 131 111 123 117
101 106 117 115 115 113 116 115 115 111 117 113 107 113 112 112 118 117 115 118 116 113 113 116 118 112 117 117 115 121 121 0 120 113 116 112 114 0 114 117 120 0 0 121 124 0 121 118 115 116 122 117 119 118 122 121 121 121 116 119 120 122 128 119 121 122 120 118 117 116 119 122 116 114 116 113 118 117 113 125 115 121 119 120 122 112 124 121 111 120 121 119 117 116 108 122 125 118 115 119 118 121 116 112 114 114 115 119 123 130 113 126 131 127 121 129 113 124 101 134
94 104 108 103 97 104 117 112 102 113 110 106 106 108 124 122 113 108 104 98 113 109 118 105 111 109 112 115 117 117 116 116 110 116 112 112 106 116 114 113 115 116 116 106 112 117 117 0 114 0 114 109 118 115 0 0 108 102 117 111 123 113 107 110 104 111 104 109 116 108 115 109 111 102 107 109 108 106 109 112 112 105 108 105 114 111 114 110 110 109 110 106 98 111 114 118 112 112 111 104 111 110 116 107 109 109 102 109 107 116 104 115 103 105 99 113 101 109 103 103
102 91 112 113 107 100 112 105 108 106 102 110 107 112 114 117 109 112 113 102 109 96 99 108 114 108 107 113 102 112 106 111 106 105 113 111 113 0 105 107 108 107 116 101 105 103 107 108 113 0 107 113 110 114 111 112 104 106 111 109 104 112 114 0 118 113 110 115 108 109 106 103 104 112 103 104 104 104 102 112 111 101 105 106 103 105 101 109 107 103 104 111 101 101 99 110 106 110 109 103 100 115 111 118 104 100 108 108 90 113 104 97 115 122 108 113 97 112 120 127
97 91 108 107 96 92 100 98 95 91 101 102 96 101 107 103 97 107 106 104 99 103 96 105 101 101 106 102 99 104 110 108 105 100 103 100 104 108 102 105 105 105 96 98 98 104 104 100 105 97 105 99 102 107 102 103 100 97 105 101 104 104 105 0 109 102 0 109 104 103 105 106 100 106 100 108 103 104 0 102 0 105 94 104 103 100 98 102 100 97 101 96 96 94 94 86 97 100 99 101 97 99 104 98 98 101 95 85 105 91 96 95 90 114 102 94 90 107 99 114
93 93 87 92 92 95 98 90 95 93 100 100 97 97 103 100 99 94 105 97 100 91 92 93 88 95 101 99 101 102 108 103 103 98 101 96 105 100 105 99 101 96 98 90 100 101 104 103 102 103 111 96 98 100 103 100 105 107 99 102 105 96 107 105 114 103 103 108 109 99 100 102 105 99 98 98 103 97 99 98 0 104 94 92 96 96 98 105 93 99 101 98 96 100 96 99 96 97 95 107 100 88 100 91 96 98 99 93 97 98 93 93 104 89 89 109 122 81 80 104
89 94 88 99 92 92 91 83 88 94 92 97 97 87 91 83 89 86 106 105 102 95 94 86 94 88 100 96 91 99 97 97 101 96 95 103 97 98 96 106 94 93 89 93 102 95 104 101 91 104 99 98 87 93 93 98 93 98 102 100 95 94 101 0 97 104 94 97 99 96 97 100 100 106 89 105 100 99 101 102 93 95 89 103 97 100 87 97 93 94 89 95 98 81 89 89 96 88 104 91 96 101 102 89 101 94 101 82 88 84 91 87 90 88 106 78 97 95 85 75
80 81 77 82 78 87 88 91 87 83 88 87 94 90 86 93 90 93 81 91 84 94 88 89 93 87 97 88 87 101 96 88 98 92 86 92 86 89 90 90 87 84 89 88 99 97 95 87 91 91 92 95 99 96 97 98 97 93 92 97 92 94 98 91 91 99 99 92 95 94 96 95 91 89 94 97 89 90 88 94 89 87 95 95 94 89 95 91 93 96 94 92 93 90 93 90 94 89 91 88 94 89 91 85 87 82 86 80 83 89 87 83 89 83 97 92 72 100 85 80
92 79 86 82 91 86 88 99 91 88 85 89 90 90 92 89 92 91 95 90 83 91 91 85 90 86 95 94 86 87 88 86 96 92 100 89 93 91 98 98 86 92 95 96 98 96 91 95 89 89 97 89 95 99 98 97 92 99 90 92 90 98 97 90 88 98 90 99 88 88 91 91 95 96 95 89 96 102 89 93 93 88 94 91 96 87 88 94 94 92 100 95 99 91 92 92 91 93 86 102 89 90 84 96 92 85 97 79 83 83 88 83 83 84 99 88 82 63 0 0
86 88 85 85 89 91 81 89 82 0 82 90 84 90 84 92 91 94 85 88 90 90 88 98 88 89 95 92 86 90 90 92 94 95 93 93 91 95 95 94 86 87 92 98 97 89 98 86 88 98 90 95 94 86 95 96 93 98 95 98 94 88 97 96 88 97 98 93 95 90 97 94 96 93 88 93 87 88 88 97 94 93 90 92 92 93 95 96 93 86 95 98 103 90 90 93 91 91 93 87 92 86 88 86 92 92 92 90 89 80 87 90 80 83 79 76 88 76 65 0
76 83 81 85 83 83 96 88 84 79 81 82 90 86 86 90 81 87 86 83 88 90 87 88 88 87 93 90 88 90 92 86 88 89 86 91 97 86 92 93 93 87 94 97 88 88 93 92 91 93 95 88 91 85 92 94 98 95 96 96 90 95 92 90 89 97 90 92 93 93 90 89 91 94 94 90 90 96 94 87 92 90 93 86 87 94 92 91 88 85 95 86 85 86 84 82 88 86 88 90 81 81 87 89 84 87 90 86 79 87 85 86 81 88 83 88 90 87 0 0
81 78 80 82 88 85 84 94 89 83 91 80 87 85 87 88 83 91 84 92 90 89 87 85 80 82 78 84 93 92 91 85 93 95 86 89 91 91 85 95 91 87 90 97 93 87 93 92 96 95 91 89 95 84 93 88 89 95 87 88 94 88 86 98 91 98 89 80 86 89 91 85 95 85 95 90 91 92 95 86 92 90 88 92 95 91 89 89 92 94 85 92 80 85 91 84 93 86 93 81 86 87 89 91 83 87 82 89 87 79 81 89 104 77 84 78 0 0 0 0
77 69 59 62 72 78 82 85 82 71 80 74 78 86 84 80 81 78 77 75 83 77 77 76 80 74 80 83 81 77 90 69 85 85 90 73 82 82 87 74 82 86 80 71 80 83 88 88 84 82 86 81 73 89 82 83 82 88 85 77 85 82 80 79 79 87 86 77 81 81 85 88 82 80 84 83 81 85 87 85 72 77 71 77 74 89 82 75 72 81 82 70 83 73 78 83 69 85 64 79 69 77 75 72 69 75 76 84 71 87 80 61 65 86 63 75 0 0 0 0
72 69 81 82 69 79 80 86 84 78 81 86 72 80 75 81 82 86 76 78 79 88 73 81 85 86 77 74 78 81 88 72 79 90 79 75 82 80 83 77 88 83 87 86 86 85 82 77 85 85 81 74 72 81 77 86 82 82 79 73 85 76 80 81 80 76 79 73 92 65 74 82 86 82 82 81 87 85 85 85 84 89 80 82 73 77 83 71 90 86 66 84 66 70 80 76 87 73 75 72 87 75 69 73 71 72 68 77 86 75 74 43 86 84 99 0 0 0 0 0
