0 0 0 0 0 0 0 0 0 0 0 0 0 0 0 0 0 0 0 0 0 0 0 0 0 0 0 0 0 0 0 0 0 0 0 0 0 0 0 0 0 0 0 0 0 0 0 0 0 0 0 0 0 0 0 0 0 0 0 0 0 0 0 0 0 0 0 0 0 0 0 0 0 0 0 0 0 0 0 0 0 0 0 0 0 0 0 0 0 0 0 0 0 0 0 0 0 0 0 0 0 0 0 0 0 0 0 0 0 0 0 0 0 0 0 0 0 0 0 0
0 0 0 0 0 0 0 0 0 0 0 0 0 0 0 0 0 0 0 0 0 0 0 0 0 0 0 0 0 0 0 0 0 0 0 0 0 0 0 0 0 0 0 0 0 0 0 0 0 0 0 0 0 0 0 0 0 0 0 0 0 0 0 0 0 0 0 0 0 0 0 0 0 0 0 0 0 0 0 0 0 0 0 0 0 0 0 0 0 0 0 0 0 0 0 0 0 0 0 0 0 0 0 0 0 0 0 0 0 0 0 0 0 0 0 0 0 0 0 0
0 0 0 0 0 0 0 0 0 0 0 0 0 0 0 0 0 1311 0 0 0 0 0 0 0 0 0 0 0 0 0 0 0 0 0 0 0 0 0 0 0 0 0 0 0 0 0 0 0 0 0 0 0 0 0 0 0 0 0 0 0 0 0 0 0 0 0 0 0 0 0 0 0 0 0 0 0 0 0 0 0 0 0 0 0 0 0 0 0 0 0 0 0 0 0 0 0 0 0 0 0 0 0 0 0 0 0 0 0 0 0 0 0 0 0 0 0 0 0 0
0 0 0 0 0 0 0 0 0 0 0 1165 1142 1160 1193 0 1275 1318 1310 0 0 0 1294 0 0 0 0 0 0 0 0 0 0 0 0 0 0 0 0 0 0 0 0 0 0 0 0 0 0 0 0 0 0 0 0 0 0 0 0 0 0 0 0 0 0 0 0 0 0 0 0 0 0 0 0 0 0 0 0 0 0 0 0 0 0 0 0 0 0 0 0 0 0 0 0 0 0 0 0 0 0 0 0 0 0 0 0 0 0 0 0 0 0 0 0 0 0 0 0 0
0 0 0 0 0 0 0 0 1140 1125 1124 1142 1149 1155 1184 0 1253 1319 1266 0 1243 1249 1249 0 0 0 0 0 0 0 0 0 0 0 0 0 0 0 0 0 0 0 0 0 0 0 0 0 0 0 0 0 0 0 0 0 0 0 0 0 0 0 0 0 0 0 0 0 0 0 0 0 0 0 0 0 0 0 0 0 0 0 0 0 0 0 0 0 0 0 0 0 0 0 0 0 0 0 0 0 0 0 0 0 0 0 0 0 0 0 0 0 0 0 0 0 0 0 0 0
0 0 0 0 0 0 0 1084 1122 1145 0 0 1151 1172 1203 0 1291 1270 1256 1303 1253 1249 1266 1248 0 0 0 0 0 0 0 0 0 0 0 0 0 0 0 0 0 0 0 0 0 0 0 0 0 0 0 0 0 0 0 0 0 0 0 0 0 0 0 0 0 0 0 0 0 0 0 0 0 0 0 0 0 0 0 0 0 0 0 0 0 0 0 0 0 0 0 0 0 0 0 0 0 0 0 0 0 0 0 0 0 0 0 0 0 0 0 0 0 0 0 0 0 0 0 0
0 0 0 0 0 0 0 0 0 0 0 0 1183 1212 1254 1248 1269 1270 1259 1245 1271 1248 1236 1274 1274 0 0 0 0 0 0 1410 0 0 0 0 0 0 0 0 0 0 0 0 0 0 0 0 0 0 0 0 0 0 0 0 0 0 0 0 0 0 0 0 0 0 0 0 0 0 0 0 0 0 0 0 0 0 0 0 0 0 0 0 0 0 0 0 0 0 0 0 0 0 0 0 0 0 0 0 0 0 0 0 0 0 0 0 0 0 0 0 0 0 0 0 0 0 0 0
0 0 0 0 0 0 0 0 0 0 0 0 1276 1262 1258 1317 1290 1277 1269 1267 1272 1250 1281 1243 1286 1327 1331 1365 1357 1354 0 1459 0 0 0 0 0 0 0 0 0 0 0 0 0 0 0 0 0 0 0 0 0 0 0 0 0 0 0 0 0 0 0 0 0 0 0 0 0 0 0 0 0 0 0 0 0 0 0 0 0 0 0 0 0 0 0 0 0 0 0 0 0 0 0 0 0 0 0 0 0 0 0 0 0 0 0 0 0 0 0 0 0 0 0 0 0 0 0 0
0 0 0 0 0 0 0 0 0 0 0 0 1272 1269 1261 1278 1270 1293 1259 1277 1286 1311 1245 1285 0 0 1331 1368 1361 1391 1369 1380 0 0 0 0 0 0 0 0 0 0 0 0 0 0 0 0 0 0 0 0 0 0 0 0 0 0 0 0 0 0 0 0 0 0 0 0 0 0 0 0 0 0 0 0 0 0 0 0 0 0 0 0 0 0 0 0 0 0 0 0 0 0 0 0 0 0 0 0 0 0 0 0 0 0 0 0 0 0 0 0 0 0 0 0 0 0 0 0
0 0 0 0 0 0 0 0 0 0 0 0 0 1309 1268 1266 1273 1270 1289 1293 1256 1248 1269 1274 1286 0 1310 1319 1348 1322 1371 1395 1478 0 0 0 0 0 0 0 0 0 0 0 0 0 0 0 0 0 0 0 0 0 0 0 0 0 0 0 0 0 0 0 0 0 0 0 0 0 0 0 0 0 0 0 0 0 0 0 0 0 0 0 0 0 0 0 0 0 0 0 0 0 0 0 0 0 0 0 0 0 0 0 0 0 0 0 0 0 0 0 0 0 0 0 0 0 0 0
0 0 0 0 0 0 0 0 0 0 0 0 0 0 0 0 0 0 0 0 0 1281 1261 1263 1289 0 0 1339 1365 1337 1366 1424 1434 0 0 0 0 0 0 0 0 0 0 0 0 0 0 0 0 0 0 0 0 0 0 0 0 0 0 0 0 0 0 0 0 0 0 0 0 0 0 0 0 0 0 0 0 0 0 0 0 0 0 0 0 0 0 0 0 0 0 0 0 0 0 0 0 0 0 0 0 0 0 0 0 0 0 0 0 0 0 0 0 0 0 0 0 0 0 0
0 0 0 0 0 0 0 0 0 0 0 0 0 0 0 0 0 0 0 0 0 0 0 1371 1358 0 0 0 1339 1336 1361 1404 1410 0 0 0 0 0 0 0 0 0 0 0 0 0 0 0 0 0 0 0 0 0 0 0 0 0 0 0 0 0 0 0 0 0 0 0 0 0 0 0 0 0 0 0 0 0 0 0 0 0 0 0 0 0 0 0 0 0 0 0 0 0 0 0 0 0 0 0 0 0 0 0 0 0 0 0 0 0 0 0 0 0 0 0 0 0 0 0
0 0 0 0 0 0 0 0 0 0 0 0 0 0 0 0 0 0 0 0 0 0 0 1345 1375 1319 1273 0 1326 1328 1335 1383 1442 0 0 0 0 0 0 0 0 0 0 0 0 0 0 0 0 0 0 0 0 0 0 0 0 0 0 0 0 0 0 0 0 0 0 0 0 0 0 0 0 0 0 0 0 0 0 0 0 0 0 0 0 0 0 0 0 0 0 0 0 0 0 0 0 0 0 0 0 0 0 0 0 0 0 0 0 0 0 0 0 0 0 0 0 0 0 0
0 0 0 0 0 0 0 0 0 0 0 0 0 0 0 0 0 0 0 0 0 0 0 1358 1363 1348 1332 1303 1317 1315 1340 1391 1436 0 0 0 0 0 0 0 0 0 0 0 0 0 0 0 0 0 0 0 0 0 0 0 0 0 0 0 0 0 0 0 0 0 0 0 0 0 0 0 0 0 0 0 0 0 0 0 0 0 0 0 0 0 0 0 0 0 0 0 0 0 0 0 0 0 0 0 0 0 0 0 0 0 0 0 0 0 0 0 0 0 0 0 0 0 0 0
0 0 0 0 0 0 0 0 0 0 0 0 0 0 0 0 0 0 0 0 0 0 0 1366 1378 1374 1372 1337 1315 1329 1324 1408 1429 0 0 0 0 0 0 0 0 0 0 0 0 0 0 0 0 0 0 0 0 0 0 0 0 0 0 0 0 0 0 0 0 0 0 0 0 0 0 0 0 0 0 0 0 0 0 0 0 0 0 0 0 0 0 0 0 0 0 0 0 0 0 0 0 0 0 0 0 0 0 0 0 0 0 0 0 0 0 0 0 0 0 0 0 0 0 0
0 0 0 0 0 0 0 0 0 0 0 0 0 0 0 0 0 0 0 0 0 0 0 1361 1362 1369 1382 1371 1374 1360 1362 1411 1442 0 0 0 0 0 0 0 0 0 0 0 0 0 0 0 0 0 0 0 0 0 0 0 0 0 0 0 0 0 0 0 0 0 0 0 0 0 0 0 0 0 0 0 0 0 0 0 0 0 0 0 0 0 0 0 0 0 0 0 0 0 0 0 0 0 0 0 0 0 0 0 0 0 0 0 0 0 0 0 0 0 0 0 0 0 0 0
1241 1237 1248 1293 1296 1317 1295 0 0 0 0 0 0 0 0 0 0 0 0 0 0 0 0 0 1361 1370 1352 1363 1374 1362 1366 1417 1424 0 0 0 0 0 0 0 0 0 0 0 0 0 0 0 0 0 0 0 0 0 0 0 0 0 0 0 0 0 0 0 0 0 0 0 0 0 0 0 0 0 0 0 0 0 0 0 0 0 0 0 0 0 0 0 0 0 0 0 0 0 0 0 0 0 0 0 0 0 0 0 0 0 0 0 0 0 0 0 0 0 0 0 0 0 0 0
1252 1261 1256 1258 1266 1296 1314 1315 1330 1327 1350 1362 0 0 0 0 0 0 0 0 0 0 0 1375 1359 1352 1357 1364 1355 1369 1347 1418 1430 0 0 0 0 0 0 0 0 0 0 0 0 0 0 0 0 0 0 0 0 0 0 0 0 0 0 0 0 0 0 0 0 0 0 0 0 0 0 0 0 0 0 0 0 0 0 0 0 0 0 0 0 0 0 0 0 0 0 0 0 0 0 0 0 0 0 0 0 0 0 0 0 0 0 0 0 0 0 0 0 0 0 0 0 0 0 0
1242 1232 1275 1269 1296 1299 1302 1293 1331 1336 1354 1363 1353 1376 1401 1355 1439 0 0 0 0 0 0 0 0 1391 0 0 1375 0 0 1416 1426 0 0 0 0 0 0 0 0 0 0 0 0 0 0 0 0 0 0 0 0 0 0 0 0 0 0 0 0 0 0 0 0 0 0 0 0 0 0 0 0 0 0 0 0 0 0 0 0 0 0 0 0 0 0 0 0 0 0 0 0 0 0 0 0 0 0 0 0 0 0 0 0 0 0 0 0 0 0 0 0 0 0 0 0 0 0 0
0 0 0 0 1276 1289 1295 1306 1313 1332 1341 1347 1356 1370 1394 1368 1405 1436 1469 1439 0 0 0 0 0 0 0 0 0 0 0 1443 1455 1432 0 0 0 0 0 0 0 0 0 0 0 0 0 0 0 0 0 0 0 0 0 0 0 0 0 0 0 0 0 0 0 0 0 0 0 0 0 0 0 0 0 0 0 0 0 0 0 0 0 0 0 0 0 0 0 0 0 0 0 0 0 0 0 0 0 0 0 0 0 0 0 0 0 0 0 0 0 0 0 0 0 0 0 0 0 0
0 0 0 0 0 0 0 0 0 1315 1341 1366 1339 1374 1384 1404 1394 1422 1414 1424 1441 1459 0 0 0 0 0 0 0 0 0 1475 1461 1458 0 0 0 0 0 0 0 0 0 0 0 0 0 0 0 0 0 0 0 0 0 0 0 0 0 0 0 0 0 0 0 0 0 0 0 0 0 0 0 0 0 0 0 0 0 0 0 0 0 0 0 0 0 0 0 0 0 0 0 0 0 0 0 0 0 0 0 0 0 0 0 0 0 0 0 0 0 0 0 0 0 0 0 0 0 0
0 0 0 0 0 0 0 0 0 0 0 0 0 0 0 1398 1398 1432 1434 1455 1437 1492 0 0 0 0 0 0 0 0 0 0 1489 0 0 0 0 0 0 0 0 0 0 0 0 0 0 0 0 0 0 0 0 0 0 0 0 0 0 0 0 0 0 0 0 0 0 0 0 0 0 0 0 0 0 0 0 0 0 0 0 0 0 0 0 0 0 0 0 0 0 0 0 0 0 0 0 0 0 0 0 0 0 0 0 0 0 1748 1750 0 0 0 0 0 0 0 0 0 0 0
0 0 0 0 0 0 0 0 0 0 0 0 0 0 0 0 0 0 0 0 0 0 0 0 0 0 0 0 0 0 0 0 0 0 0 0 0 0 0 0 0 0 0 0 0 0 0 0 0 0 0 0 0 0 0 0 0 0 0 0 0 0 0 0 0 0 0 0 0 0 0 0 0 0 0 0 0 0 0 0 0 0 0 0 0 0 0 0 0 0 0 0 0 0 0 0 0 0 0 0 0 0 0 0 0 1737 0 0 0 0 0 0 0 0 0 0 0 0 0 0
0 0 0 0 0 0 0 0 0 0 0 0 0 0 0 0 0 0 0 0 0 0 0 0 0 0 0 0 0 0 0 0 0 0 0 0 0 0 0 0 0 0 0 0 0 0 0 0 0 0 0 0 0 0 0 0 0 0 0 0 0 0 0 0 0 0 0 0 0 0 0 0 0 0 0 0 0 0 0 0 0 0 0 0 0 0 0 0 0 0 0 0 0 0 0 0 0 0 0 0 0 0 0 0 0 0 1635 1583 1629 1607 1521 1552 1534 1523 0 0 0 0 0 0
0 0 0 0 0 0 0 0 0 0 0 0 0 0 0 0 0 0 0 0 0 0 0 0 0 0 0 0 0 0 0 0 0 0 0 0 0 0 0 0 0 0 0 0 0 0 0 0 0 0 0 0 0 0 0 0 0 0 0 0 0 0 0 0 0 0 0 0 0 0 0 0 0 0 0 0 0 0 0 0 0 0 0 0 0 0 0 0 0 0 0 0 0 0 0 0 0 0 0 0 1700 1677 1649 1638 1650 1634 1651 1620 1540 1557 1534 1510 1547 1538 1467 0 0 0 0 0
0 0 0 0 0 0 0 0 0 0 0 0 0 0 0 0 0 0 0 0 0 0 0 0 0 0 0 0 0 0 0 0 0 0 0 0 0 0 0 0 0 0 0 0 0 0 0 0 0 0 0 0 0 0 0 0 0 0 0 0 0 0 0 0 0 0 0 0 0 0 0 0 0 0 0 0 0 0 0 0 0 0 0 0 0 0 0 0 0 0 0 0 0 0 0 0 0 1721 1766 1706 1660 1685 1661 1659 1609 1608 1603 1567 1546 1597 0 0 0 0 0 0 0 0 0 0
562 623 0 0 0 0 0 0 0 0 0 0 0 0 0 0 0 0 0 0 0 0 0 0 0 1844 1869 0 0 0 0 0 0 0 0 0 0 0 0 0 0 0 0 0 0 0 0 2880 2938 2891 2901 2910 2926 2884 2851 2921 2914 2910 2901 2918 2879 2926 2900 2865 2893 2916 0 0 0 0 0 0 0 0 0 0 0 0 0 0 0 0 0 0 0 0 0 0 0 0 1886 1817 1837 1756 1779 1755 1792 1700 1703 1727 1677 1652 1690 1655 0 0 0 0 0 0 0 0 0 0 0 0 0 0 0 0
559 599 585 603 609 587 0 0 0 0 0 0 0 0 0 0 0 0 0 0 0 0 0 0 0 0 0 1891 0 0 0 0 0 0 0 0 0 0 0 0 0 0 0 0 0 0 0 2931 2917 2950 2920 2949 2948 2927 2953 2949 2933 2931 2852 2903 2913 2931 2888 2868 2893 2870 0 0 0 0 0 0 0 0 0 0 0 0 0 0 0 0 0 0 0 0 0 0 0 0 1842 1848 1820 1811 1754 1743 1791 0 0 0 0 0 0 0 0 0 0 0 0 0 0 0 0 0 0 0 0 0 0 0
570 597 585 594 597 638 643 666 630 0 0 0 0 0 0 0 0 0 0 0 0 0 0 0 0 0 0 0 0 0 0 0 0 0 0 0 0 0 0 0 0 0 0 0 0 0 0 2935 2887 2979 2968 2963 2923 2886 2956 2915 2940 2917 2954 2911 2916 2927 2937 2928 2896 0 0 0 0 0 0 0 0 0 0 0 0 0 0 0 0 0 0 0 0 0 0 0 0 0 0 0 0 0 0 0 0 0 0 0 0 0 0 0 0 0 0 0 0 0 0 0 0 0 0 0 0 0 0 0
575 589 579 594 617 624 625 639 663 670 693 736 0 0 0 0 0 0 0 0 0 0 0 0 0 0 0 0 0 0 0 0 0 0 0 0 0 0 0 0 0 0 0 0 0 0 0 2891 2916 2901 2917 2893 2906 2916 2896 2920 2908 2900 2886 2892 2876 2898 2913 2889 2881 2898 0 0 0 0 0 0 0 0 0 0 0 0 0 0 0 0 0 0 0 0 0 0 0 0 0 0 0 0 0 0 0 0 0 0 0 0 0 0 0 0 0 0 0 0 0 0 0 0 0 0 0 0 0 0
575 570 576 622 610 629 641 652 653 659 700 699 682 731 758 0 0 0 0 0 0 0 0 0 0 0 0 0 0 0 0 0 0 0 0 0 0 0 0 0 0 0 0 0 0 0 0 2908 2915 2918 2935 2904 2923 2928 2947 2936 2894 2873 2888 2913 2884 2923 2917 2944 2890 2890 0 0 0 0 0 0 0 0 0 0 0 0 0 0 0 0 0 0 0 0 0 0 0 0 0 0 0 0 0 0 0 0 0 0 0 0 0 0 0 0 0 0 0 0 0 0 0 0 0 0 0 0 0 0
745 729 777 747 728 672 643 669 650 660 671 685 721 731 732 755 765 728 0 0 0 0 0 0 0 0 0 0 0 0 0 0 0 0 0 0 0 0 0 0 0 0 0 0 0 0 0 2894 2942 2928 2941 2903 2911 2922 2942 2915 2899 2885 2888 2927 2881 2951 2931 2905 2900 2906 0 0 0 0 0 0 0 0 0 0 0 0 0 0 0 0 0 0 0 0 0 0 0 0 0 0 0 0 0 0 0 0 0 0 0 0 0 0 0 0 0 0 0 0 0 0 0 0 0 0 0 0 0 0
773 806 827 832 818 869 842 854 801 790 774 733 747 731 753 762 763 775 798 802 839 0 0 0 0 0 0 0 0 0 0 0 0 0 0 0 0 0 0 0 0 0 0 0 0 0 0 2872 2917 2941 2908 2912 2940 2924 2903 2883 2887 2882 2872 2878 2896 2865 2881 2907 2891 2880 0 0 0 0 0 0 0 0 0 0 0 0 0 0 0 0 0 0 0 0 0 0 0 0 0 0 0 0 0 0 0 0 0 0 0 0 0 0 0 0 0 0 0 0 0 0 0 0 0 0 0 0 0 0
768 814 813 828 839 853 866 883 890 916 919 926 921 892 853 814 785 783 837 829 835 827 879 856 0 0 0 0 0 0 0 0 0 0 0 0 0 0 0 0 0 0 0 0 0 0 0 2918 2925 2911 2900 2902 2877 2919 2904 2882 2875 2877 2876 2889 2841 2868 2872 2913 2888 2894 0 0 0 0 0 0 0 0 0 0 0 0 0 0 0 0 0 0 0 0 0 0 0 0 0 0 0 0 0 0 0 0 0 0 0 0 0 0 0 0 0 0 0 0 0 0 0 0 0 0 0 0 0 0
609 0 868 841 867 856 874 888 896 905 927 971 956 966 954 953 937 926 899 881 826 849 897 893 912 937 0 0 0 0 0 0 0 0 0 0 0 0 0 0 0 0 0 0 0 0 0 2849 2900 2880 2925 2883 2935 2863 2914 2909 2882 2867 2870 2866 2903 2871 2893 2886 2904 2833 0 0 0 0 0 0 0 0 0 0 0 0 0 0 0 0 0 0 0 0 0 0 0 0 0 0 0 0 0 0 0 0 0 0 0 0 0 0 0 0 0 0 0 0 0 0 0 0 0 0 0 0 0 0
678 937 935 935 936 948 0 912 913 909 929 945 939 956 949 944 959 958 942 947 939 918 899 891 919 958 931 995 989 0 0 0 0 0 0 0 0 0 0 0 0 0 0 0 0 0 0 2966 2885 2887 2909 2875 2874 2974 2918 2908 2919 2924 2881 2879 2917 2925 2899 2920 2895 2890 0 0 0 0 0 0 0 0 0 0 0 0 0 0 0 0 0 0 0 0 0 0 0 0 0 0 0 0 0 0 0 0 0 0 0 0 0 0 0 0 0 0 0 0 0 0 0 0 0 0 0 0 0 0
603 724 0 0 0 0 0 0 0 0 964 969 998 985 985 977 965 968 954 936 955 951 957 934 936 972 956 1006 1021 1037 1047 0 0 0 0 0 0 0 0 0 0 0 0 0 0 0 0 2913 2950 2928 2926 2873 2937 2897 2864 2894 2895 2902 2891 2911 2912 2878 2910 2905 2915 2879 0 0 0 0 0 0 0 0 0 0 0 0 0 0 0 0 0 0 0 0 0 0 0 0 0 0 0 0 0 0 0 0 0 0 0 0 0 0 0 0 0 0 0 0 0 0 0 0 0 0 0 0 0 0
580 568 591 0 1092 1141 1168 1156 1157 1155 1171 1154 1134 1149 1150 1145 1125 1057 0 0 1021 1070 1061 1005 1040 1020 1134 1120 1101 1115 1093 0 0 0 0 0 0 0 0 0 0 0 0 0 0 0 0 2907 2870 2899 2893 2866 2900 2874 2900 2888 2882 2970 2865 2900 2901 2876 2908 2864 2867 0 0 0 0 0 0 0 0 0 0 0 0 0 0 0 0 0 0 0 0 0 0 0 0 0 0 0 0 0 0 0 0 0 0 0 0 0 0 0 0 0 0 0 0 0 0 0 0 0 0 0 0 0 0 0
568 583 559 596 0 0 0 0 0 0 0 0 0 0 0 0 1380 1034 984 0 0 1176 1066 0 0 1105 1158 1128 1154 1159 1137 0 0 0 0 0 0 0 0 0 0 0 0 0 0 0 0 2916 2908 2941 2952 2884 2916 2910 2931 2942 2895 2918 2927 2879 2901 2936 2909 2897 2902 2914 0 0 0 0 0 0 0 0 0 0 0 0 0 0 0 0 0 0 0 0 0 0 0 0 0 0 0 0 0 0 0 0 0 0 0 0 0 0 0 0 0 0 0 0 0 0 0 0 0 0 0 0 0 0
580 615 610 598 621 0 0 0 0 0 0 0 0 0 0 0 0 986 977 0 0 0 0 0 0 0 0 0 0 0 0 0 0 0 0 0 0 0 0 0 0 0 0 0 0 0 0 2915 2911 2948 2941 2871 2906 2921 2910 2884 2873 2857 2924 2895 2916 2892 2871 2913 2920 0 0 0 0 0 0 0 0 0 0 0 0 0 0 0 0 0 0 0 0 0 0 0 0 0 0 0 0 0 0 0 0 0 0 0 0 0 0 0 0 0 0 0 0 0 0 0 0 0 0 0 0 0 0 0
585 592 614 625 613 644 0 0 0 0 0 0 0 0 0 0 0 0 0 0 0 0 0 0 0 0 0 0 0 0 0 0 0 0 0 0 0 0 0 0 0 0 0 0 0 0 0 2883 2887 2861 2889 2923 2929 2877 2880 2881 2891 2853 2887 2857 2889 2873 2858 2855 2858 0 0 0 0 0 0 0 0 0 0 0 0 0 0 0 0 0 0 0 0 0 0 0 0 0 0 0 0 0 0 0 0 0 0 0 0 0 0 0 0 0 0 0 0 0 0 0 0 0 0 0 0 0 0 0
582 596 641 622 608 650 0 0 0 0 0 0 0 0 0 0 0 0 0 0 0 0 0 0 0 0 0 0 0 0 0 0 0 0 0 0 0 0 0 0 0 0 0 0 0 0 0 2881 2932 2925 2892 2924 2914 2894 2914 2896 2873 2906 2915 2902 2871 2930 2850 2884 2925 0 0 0 0 0 0 0 0 0 0 0 0 0 0 0 0 0 0 0 0 0 0 0 0 0 0 0 0 0 0 0 0 0 0 0 0 0 0 0 0 0 0 0 0 0 0 0 0 0 0 0 0 0 0 0
604 635 611 594 608 605 0 0 0 0 0 0 0 0 0 0 0 0 0 0 0 0 960 0 0 0 0 0 0 0 0 0 0 0 0 0 0 0 0 0 0 0 0 0 0 0 0 2892 2875 2928 2885 2893 2879 2857 2915 2905 2885 2877 2886 2920 2932 2869 2884 2868 2894 0 0 0 0 0 0 0 0 0 0 0 0 0 0 0 0 0 0 0 0 0 0 0 0 0 0 0 0 0 0 0 0 0 0 0 0 0 0 0 0 0 0 0 0 0 0 0 0 0 0 0 0 0 0 0
600 626 623 598 627 588 653 0 0 0 0 0 0 0 0 0 0 0 0 0 0 0 0 0 0 0 0 0 0 0 0 0 0 0 0 0 0 0 0 0 0 0 0 0 0 0 0 2930 2852 2860 2875 2882 2904 2914 2900 2878 2874 2880 2889 2887 2908 2904 2895 2876 2903 0 0 0 0 0 0 0 0 0 0 0 0 0 0 0 0 0 0 0 0 0 0 0 0 0 0 0 0 0 0 0 0 0 0 0 0 0 0 0 0 0 0 0 0 0 0 0 0 0 0 0 0 0 0 0
569 581 586 615 612 587 592 0 0 0 0 0 0 0 0 0 2289 0 0 0 0 0 961 943 0 0 0 0 0 0 0 0 0 0 0 0 0 0 0 0 0 0 0 0 0 0 0 2877 2875 2917 2949 2894 2861 2893 2965 2905 2940 2929 2886 2886 2886 2922 2888 2890 2844 2874 0 0 0 0 0 0 0 0 0 0 0 0 0 0 0 0 0 0 0 0 0 0 0 0 0 0 0 0 0 0 0 0 0 0 0 0 0 0 0 0 0 0 0 0 0 0 0 0 0 0 0 0 0 0
592 596 610 638 607 603 592 0 0 0 0 0 0 0 0 0 0 0 0 0 0 0 0 0 0 0 0 0 0 0 0 0 0 0 0 0 0 0 0 0 0 0 0 0 0 0 0 2957 2899 2900 2912 2905 2944 2908 2960 2945 2875 2917 2842 2882 2909 2919 2884 2916 2894 2901 0 0 0 0 0 0 0 0 0 0 0 0 0 0 0 0 0 0 0 0 0 0 0 0 0 0 0 0 0 0 0 0 0 0 0 0 0 0 0 0 0 0 0 0 0 0 0 0 0 0 0 0 0 0
570 598 609 626 593 603 0 0 0 0 0 0 0 0 0 0 0 0 0 0 0 0 0 0 0 0 0 0 0 0 0 0 0 0 0 0 0 0 0 0 0 0 0 0 0 0 0 0 0 0 0 0 0 0 0 0 0 0 0 0 0 0 3048 2894 2901 0 0 0 0 0 0 0 0 0 0 0 0 0 0 0 0 0 0 0 0 0 0 0 0 0 0 0 0 0 0 0 0 0 0 0 0 0 0 0 0 0 0 0 0 0 0 0 0 0 0 0 0 0 0 0
574 589 603 594 582 602 0 0 0 0 0 0 0 0 0 0 0 0 0 0 0 0 0 0 0 0 0 0 0 0 0 0 0 0 0 0 0 0 0 0 0 0 0 0 0 0 0 0 0 0 0 0 0 0 0 0 0 0 0 0 0 0 0 0 0 0 0 0 0 0 0 0 0 0 0 0 0 0 0 0 0 0 0 0 0 0 0 0 0 0 0 0 0 0 0 0 0 0 0 0 0 0 0 0 0 0 0 0 0 0 0 0 0 0 0 0 0 0 0 0
604 606 596 612 607 648 0 0 0 0 0 0 0 0 0 0 0 0 0 0 0 0 0 0 0 0 0 0 0 0 0 0 0 0 0 0 0 0 0 0 0 0 0 0 0 0 0 0 0 0 0 0 0 0 0 0 0 0 0 0 0 0 0 0 0 0 0 0 0 0 0 0 0 0 0 0 0 0 0 0 0 0 0 0 0 0 0 0 0 0 0 0 0 0 0 0 0 0 0 0 0 0 0 0 0 0 0 0 0 0 0 0 0 0 0 0 0 0 0 0
602 608 599 601 640 0 0 0 0 0 0 0 0 0 0 0 0 0 0 0 0 0 0 0 0 0 0 0 0 0 0 0 0 0 0 0 0 0 0 0 0 0 0 0 0 0 0 0 0 0 0 0 0 0 0 0 0 0 0 0 0 0 0 0 0 0 0 0 0 0 0 0 0 0 0 0 0 0 0 0 0 0 0 0 0 0 0 0 0 0 0 0 0 0 0 0 0 0 0 0 0 0 0 0 0 0 0 0 0 0 0 0 0 0 0 0 0 0 0 0
603 600 595 599 0 0 0 0 0 0 0 0 0 0 0 0 0 0 0 0 0 0 0 0 0 0 847 892 900 843 880 0 890 906 909 948 921 894 907 951 949 903 0 0 0 0 0 0 0 0 0 0 0 0 0 0 0 0 0 0 0 0 0 0 0 0 0 0 0 0 0 0 0 0 0 0 0 0 0 0 0 0 0 0 0 0 0 0 0 0 0 0 0 0 0 0 0 0 0 0 0 0 0 0 0 0 0 0 0 0 0 0 0 0 0 0 0 0 0 0
582 570 614 0 0 0 0 700 683 715 672 665 723 706 690 728 717 672 692 694 668 687 714 690 716 729 717 694 748 677 713 738 728 709 730 724 736 709 726 774 720 750 734 734 754 770 775 735 733 724 747 749 735 770 753 767 744 734 762 768 814 758 785 758 771 734 746 814 795 784 764 759 771 0 0 0 0 0 0 0 0 0 0 0 0 0 0 0 0 0 0 0 0 0 0 0 0 0 0 0 0 0 0 0 0 0 0 0 0 0 0 0 0 0 0 0 0 0 0 0
559 551 532 550 550 604 588 589 593 569 580 577 594 583 601 570 584 573 587 590 541 584 571 570 582 612 591 599 585 616 611 613 617 582 622 619 582 609 568 594 607 594 597 633 600 611 608 601 655 625 614 637 645 611 636 630 641 607 655 600 629 600 623 641 650 641 660 644 624 646 671 635 655 640 653 630 648 658 705 634 660 649 700 663 668 656 694 654 693 669 710 677 718 698 700 0 654 677 686 626 703 0 0 0 0 0 0 0 0 0 0 0 0 0 0 0 0 0 0 0
501 513 503 491 467 507 493 491 511 475 500 508 513 477 509 512 481 489 498 493 511 508 495 514 506 516 516 495 519 516 526 489 499 503 515 509 537 506 547 524 520 545 515 509 521 535 548 550 534 544 535 533 511 535 506 523 522 512 540 550 507 545 562 550 522 543 553 550 521 559 562 554 539 544 546 574 540 539 556 559 552 546 547 557 567 573 549 573 590 578 591 570 586 576 577 566 610 562 596 619 595 605 590 600 0 643 0 612 612 584 0 0 0 0 0 0 0 0 0 0
418 439 407 431 427 451 427 451 445 455 452 455 463 453 471 432 428 479 444 442 452 455 440 455 456 454 452 450 446 448 462 462 466 468 451 458 448 461 466 472 466 472 459 462 467 465 454 471 467 479 470 462 475 450 482 468 481 473 478 481 488 477 475 482 484 464 482 497 493 482 485 476 491 485 492 476 486 494 501 479 491 491 480 494 475 479 480 520 524 471 487 513 467 470 500 462 468 498 493 482 473 492 498 500 474 515 544 489 477 488 498 526 533 0 0 0 0 0 0 0
383 389 398 390 397 387 406 424 396 391 409 394 389 393 399 407 407 400 405 402 410 400 411 406 408 410 406 412 408 420 421 419 412 416 421 407 410 412 400 414 411 419 416 418 428 418 415 424 436 427 421 425 420 423 425 418 423 417 424 425 417 440 425 425 429 441 421 420 428 420 430 441 433 430 431 431 427 421 424 430 441 422 427 441 434 431 445 434 436 430 440 432 448 425 443 433 434 426 424 453 424 428 444 425 437 439 424 434 437 433 445 442 457 460 0 0 0 0 0 0
374 350 341 342 373 346 351 358 349 362 364 367 361 368 368 364 353 375 358 356 370 355 360 388 365 374 390 366 369 373 376 374 365 379 368 377 379 372 379 378 382 375 369 379 374 372 394 382 391 381 389 371 377 380 385 370 384 389 366 385 388 382 396 384 379 382 399 393 392 396 394 387 384 396 379 378 388 388 380 389 393 388 392 386 389 400 409 392 384 392 391 396 397 383 410 399 401 398 398 393 390 394 393 396 402 377 388 382 388 384 387 427 416 369 383 378 0 0 0 0
322 311 336 330 325 305 352 338 340 331 321 337 323 340 317 340 365 344 323 351 342 331 339 347 343 339 339 352 328 359 341 344 350 348 344 360 349 341 336 342 344 351 350 341 337 340 330 332 336 342 342 337 340 343 343 343 345 330 339 345 349 345 342 360 351 345 346 334 349 343 348 349 353 342 348 351 363 363 349 355 353 338 350 367 330 352 356 343 351 362 351 355 354 357 360 357 348 362 357 365 370 359 369 374 355 353 341 361 356 354 359 361 389 362 371 334 365 0 0 0
303 299 295 282 291 314 308 300 294 294 301 298 299 302 298 298 308 301 306 309 304 308 303 320 296 299 292 305 296 303 302 308 300 321 316 307 323 310 311 315 310 305 301 312 311 310 316 315 312 305 309 300 310 306 310 313 315 306 310 309 310 309 308 322 306 322 326 317 308 304 322 318 310 321 308 314 319 309 318 324 313 318 312 317 325 327 327 330 326 315 318 317 322 323 322 339 329 344 324 331 321 331 308 342 348 342 321 324 307 359 325 344 339 323 337 343 355 346 324 0
277 282 286 273 288 272 280 285 284 283 271 284 287 285 286 286 287 285 276 289 287 281 273 278 283 279 280 289 287 285 284 277 283 281 286 280 285 285 289 289 288 284 291 290 288 286 288 296 285 285 288 287 284 291 288 287 285 290 285 293 292 287 287 292 283 289 293 284 299 289 285 293 287 287 297 284 291 288 292 296 288 290 297 295 293 294 287 294 295 289 285 289 299 295 299 301 293 291 306 302 295 311 301 308 288 288 294 312 304 287 286 322 331 302 315 320 283 321 291 378
250 250 244 253 250 254 249 252 251 251 245 246 250 255 255 251 255 258 257 253 255 262 248 256 257 254 256 264 252 257 252 257 258 256 253 253 257 268 263 265 260 255 262 263 260 267 262 262 265 264 266 270 260 262 263 254 264 264 265 262 266 264 267 267 266 264 267 266 268 267 262 269 266 269 270 267 266 263 264 258 266 265 256 270 273 258 268 263 264 258 265 259 274 261 267 269 272 261 273 279 274 263 262 265 284 274 263 277 267 260 263 282 253 262 279 265 252 258 276 223
237 231 231 235 246 229 235 230 241 231 228 235 249 248 237 240 240 239 253 242 234 240 244 236 245 236 239 245 246 253 243 254 247 246 244 252 244 257 247 252 247 249 248 249 246 257 241 251 247 251 249 249 244 249 251 244 248 250 254 256 251 254 253 254 252 250 253 250 252 252 249 245 259 246 252 255 252 260 250 247 249 250 252 248 247 258 261 251 256 250 255 262 255 247 250 255 251 250 254 257 257 246 255 245 246 254 259 258 242 251 237 262 264 245 265 244 263 268 306 232
212 211 217 217 217 226 221 215 221 218 220 220 219 225 221 223 219 221 224 223 227 220 221 226 231 222 225 227 227 232 228 229 230 228 236 226 222 226 236 232 226 231 228 224 232 237 227 227 235 230 233 233 230 233 230 233 231 227 236 231 235 230 235 233 236 237 234 235 232 233 229 235 233 238 231 234 231 231 231 235 233 230 233 230 236 233 233 230 234 232 232 232 226 238 226 235 237 237 239 228 238 238 245 231 227 233 235 235 237 225 230 233 238 243 227 240 215 222 212 232
207 206 211 214 214 209 209 212 212 213 214 210 213 218 215 211 217 212 213 220 211 212 217 210 190 215 217 215 217 217 220 216 216 215 218 212 211 214 217 200 218 218 214 219 216 219 217 219 204 221 215 218 220 207 206 220 223 218 223 221 220 207 217 224 223 221 222 221 222 221 219 221 223 217 219 219 223 213 216 216 215 228 225 230 223 215 223 215 218 222 219 222 221 223 226 219 222 227 221 219 218 219 223 223 224 223 224 223 222 221 228 216 210 228 223 225 206 218 212 200
192 194 202 202 208 203 205 204 200 183 199 187 185 206 201 192 189 189 206 205 208 194 195 191 184 190 189 190 192 196 194 188 190 187 199 193 190 188 189 194 190 193 196 194 199 192 194 194 200 194 192 201 193 195 191 197 197 193 197 198 197 197 199 199 194 194 194 200 197 200 193 198 196 191 195 191 198 192 199 186 199 192 200 195 214 200 193 190 213 211 209 197 194 208 209 184 211 195 213 209 210 216 209 209 214 211 217 213 210 208 213 187 209 220 220 213 195 175 203 198
172 175 191 179 180 177 184 179 198 183 182 179 175 181 183 182 184 183 189 190 190 186 184 186 180 183 191 192 192 193 193 187 191 190 194 192 197 190 190 187 194 195 200 198 193 196 195 192 196 198 198 194 197 194 198 195 199 198 200 199 196 191 196 201 197 196 196 196 198 197 196 192 194 199 197 196 194 191 196 193 194 194 187 186 188 186 196 188 195 193 192 182 189 188 191 192 190 182 187 181 187 181 184 189 184 184 181 190 202 208 184 183 188 196 213 176 200 197 202 192
168 176 171 177 182 180 180 175 175 184 182 183 183 177 184 182 180 188 182 186 186 184 187 188 179 187 189 188 187 186 186 183 184 186 186 184 184 184 184 185 184 186 191 191 190 188 191 194 187 182 187 187 188 188 193 190 191 188 185 188 185 183 187 190 188 190 185 189 188 187 190 189 187 188 185 187 188 188 185 185 190 190 184 192 189 187 183 192 184 187 187 182 193 186 180 189 191 187 185 183 188 187 183 184 184 176 189 185 179 178 178 175 177 185 164 178 171 182 181 179
173 171 161 169 170 170 167 178 166 169 176 171 172 172 178 176 173 176 171 177 174 175 174 171 170 171 175 172 171 174 176 178 175 170 173 175 180 176 179 174 176 180 173 179 183 179 181 183 177 183 178 183 172 182 175 179 180 176 181 178 173 179 184 181 176 180 178 178 181 179 178 181 183 182 183 183 182 178 181 180 180 186 179 175 182 182 175 182 183 186 175 183 177 176 182 175 177 185 184 182 177 183 183 174 175 177 182 182 179 174 176 172 173 175 170 169 174 164 173 174
162 162 162 164 157 168 159 155 164 165 170 169 160 167 163 166 167 169 173 167 166 160 176 166 169 160 166 170 172 169 172 168 171 166 164 172 165 169 172 170 161 172 170 167 172 175 170 171 173 168 169 174 172 172 168 172 170 173 173 175 173 171 173 176 178 166 173 172 174 171 170 177 175 169 168 176 166 173 170 171 168 169 171 161 164 175 177 170 176 168 165 173 162 167 166 173 168 171 165 172 172 170 164 169 171 177 171 167 166 170 172 170 172 172 172 170 174 155 146 165
157 160 165 170 157 162 161 158 155 154 157 161 157 158 166 158 161 168 164 168 163 164 163 162 162 164 162 156 162 161 166 167 160 164 158 161 161 163 162 164 160 165 163 165 165 165 160 163 158 163 163 166 166 164 163 163 165 166 167 170 163 168 164 163 166 169 162 165 163 162 166 159 170 168 164 167 168 165 165 169 159 165 165 166 159 167 169 163 166 163 169 162 167 163 166 166 164 160 169 171 172 166 159 166 161 163 158 162 164 162 161 171 169 155 171 160 155 155 172 149
144 153 153 144 150 150 148 152 152 153 146 152 148 149 154 150 158 157 154 160 156 161 157 156 150 158 151 158 160 159 158 158 154 154 153 157 154 155 152 155 159 153 158 159 157 152 156 154 149 157 159 156 160 160 155 155 157 154 160 160 164 158 158 160 160 157 155 158 158 157 158 155 161 155 158 160 164 163 155 154 161 163 162 152 154 157 154 158 156 157 159 156 157 153 160 153 158 153 154 161 154 159 160 156 159 152 149 153 155 158 154 143 153 155 147 157 153 153 143 126
132 145 146 143 147 145 142 146 150 142 149 149 147 143 149 143 150 147 148 155 151 150 153 149 152 152 147 149 149 149 146 146 146 148 149 148 145 152 148 148 154 150 151 151 148 153 144 147 150 150 152 152 150 155 152 150 155 152 155 154 150 152 153 154 153 154 151 149 151 153 149 150 150 154 157 152 158 157 151 153 152 152 148 147 144 150 154 154 155 149 148 150 155 151 155 152 148 149 156 155 154 151 156 149 149 147 152 149 154 147 159 148 152 150 159 143 142 150 153 149
135 135 136 138 135 140 135 142 138 138 143 144 142 144 138 141 149 140 141 148 143 145 144 146 139 145 147 145 145 144 141 141 140 139 140 140 140 144 144 147 148 144 148 142 147 148 143 143 148 148 143 147 134 148 148 145 147 148 149 145 149 145 143 145 147 134 151 151 151 144 144 150 144 150 146 145 153 150 151 146 142 142 142 143 148 146 148 150 147 150 148 149 143 148 149 146 140 144 151 147 147 146 150 141 140 146 144 144 142 142 143 150 144 146 150 149 145 138 140 153
126 133 130 130 133 142 136 140 138 138 137 0 132 137 132 136 138 142 139 142 146 141 141 134 142 144 145 139 139 140 129 130 130 139 131 140 132 128 140 129 141 142 143 143 128 130 132 131 127 128 140 142 135 145 136 142 146 131 142 131 125 128 130 144 143 132 139 143 135 140 131 132 129 143 142 140 143 140 131 142 151 130 129 123 144 142 141 141 140 141 127 141 139 144 146 138 140 141 146 138 138 138 139 141 144 134 133 134 145 134 142 138 130 133 134 145 137 128 107 109
133 139 124 136 133 136 140 128 135 135 136 126 139 140 137 125 129 139 136 132 142 143 139 139 140 136 138 139 140 125 129 130 128 126 124 126 126 127 128 127 143 131 139 129 0 139 129 127 129 124 127 132 133 132 0 143 0 128 139 140 129 125 142 141 126 129 141 130 142 139 131 132 124 131 131 131 144 139 131 132 137 132 127 138 129 125 137 127 131 143 126 140 139 139 127 128 138 138 141 140 127 124 136 136 136 131 135 128 141 141 135 133 143 134 133 137 129 150 131 146
117 106 115 107 124 118 144 123 117 112 121 114 117 121 125 123 118 133 122 120 122 126 129 125 123 137 134 139 0 131 126 123 117 118 123 121 127 125 124 120 125 125 127 127 0 0 127 122 128 124 121 119 129 126 126 127 134 131 127 122 122 115 127 123 125 126 125 127 124 124 125 121 120 128 117 122 118 138 122 125 129 119 123 126 122 130 123 125 123 127 119 127 126 122 125 119 133 134 134 130 119 118 123 135 117 118 121 121 120 128 127 127 139 139 112 107 111 133 157 124
109 115 121 107 110 119 127 117 116 114 117 119 115 120 123 113 111 118 123 123 125 117 123 121 123 119 126 125 122 124 129 0 123 123 113 114 119 121 0 119 128 124 0 0 0 0 123 126 121 123 122 120 128 122 125 127 120 122 121 121 123 118 115 119 122 126 125 122 119 122 125 119 121 123 120 120 118 128 121 125 114 118 125 123 117 119 115 117 119 122 115 121 121 125 118 118 124 121 118 120 120 116 116 112 115 118 117 112 119 131 118 130 114 137 104 115 120 103 102 112
106 100 112 120 110 114 114 115 115 112 120 115 110 110 108 117 118 119 110 121 116 112 107 119 110 111 122 119 115 118 122 0 120 119 113 110 115 0 114 116 119 0 0 123 124 0 119 121 115 113 119 116 122 122 122 119 116 120 116 119 120 121 122 117 117 122 117 123 116 118 119 115 114 114 116 114 118 113 114 122 116 119 116 118 116 112 120 114 116 123 120 119 117 112 104 116 123 121 111 112 116 117 112 117 112 115 127 116 110 123 114 126 117 117 130 119 118 109 103 108
96 101 106 102 99 105 116 111 103 112 103 107 106 107 120 121 111 113 107 104 113 107 111 103 112 106 111 114 115 110 118 116 113 111 112 113 109 113 110 113 115 111 110 109 111 112 115 0 110 0 115 108 119 115 0 0 107 108 114 109 124 117 106 112 109 106 108 107 113 110 104 107 112 102 101 104 107 108 106 112 114 105 102 105 111 101 107 106 101 116 105 109 94 115 114 116 110 110 107 106 107 107 111 107 104 105 102 104 109 118 108 115 107 110 90 107 111 84 81 104
99 96 104 107 104 100 109 105 109 103 100 109 112 107 115 115 111 115 113 100 107 101 97 102 113 109 108 112 106 111 107 102 108 105 110 111 114 0 106 108 110 103 110 100 103 105 107 106 115 0 112 111 110 113 108 114 108 104 114 107 107 109 115 0 116 109 107 108 110 109 106 102 105 113 103 100 101 102 103 108 108 104 105 112 99 101 97 102 107 104 104 108 97 103 96 104 105 109 110 107 102 107 111 116 109 106 106 107 93 117 103 102 112 103 107 114 98 111 109 114
91 85 103 111 97 96 98 98 95 93 101 102 97 97 104 102 97 102 107 101 99 100 90 98 102 103 105 101 100 105 110 104 105 100 102 100 102 105 102 104 103 103 100 99 100 105 109 99 103 102 108 102 106 110 104 111 97 104 104 104 104 105 104 0 108 106 0 109 101 106 105 105 98 103 101 103 97 100 0 102 0 101 95 102 96 101 97 102 100 106 103 100 96 99 92 94 95 102 100 104 97 104 96 99 99 105 99 98 96 91 102 102 102 94 103 99 105 111 85 132
86 97 85 90 91 96 97 93 98 93 102 101 98 101 99 96 95 101 97 94 96 94 90 90 90 94 104 100 103 99 107 99 105 103 100 100 96 98 96 95 103 102 97 96 98 98 101 103 102 103 105 98 103 104 95 102 106 106 100 99 104 102 107 99 111 108 98 109 106 99 100 102 97 97 98 95 101 103 99 96 0 102 93 88 100 96 96 110 93 99 96 102 96 99 95 102 92 94 85 103 99 87 96 87 94 104 93 97 94 98 89 93 113 85 97 97 109 90 81 81
91 94 90 100 93 91 91 88 83 92 88 96 97 87 90 86 93 88 107 103 101 92 81 98 90 92 97 94 94 97 98 101 102 96 97 104 96 93 98 105 93 94 88 93 98 91 101 98 93 98 98 91 98 92 92 102 98 89 98 102 96 95 101 0 98 103 98 96 92 94 104 98 101 103 90 103 97 98 99 103 95 98 90 103 94 96 90 94 90 91 97 94 100 92 90 85 90 90 102 92 91 99 104 92 99 96 106 80 90 91 90 83 103 91 86 86 108 109 103 80
86 80 78 82 78 82 88 90 83 90 81 91 95 86 86 83 85 90 92 92 92 91 88 90 93 88 96 94 91 94 88 87 96 96 87 89 91 88 93 92 87 97 97 98 91 96 89 89 96 95 95 92 96 95 92 98 98 99 95 90 98 94 99 93 88 90 97 86 94 97 89 95 99 89 98 91 92 88 97 93 96 92 94 96 89 88 95 95 92 91 95 87 91 88 94 90 91 93 89 83 93 81 91 81 90 79 87 85 91 88 86 89 86 88 82 81 88 80 87 106
87 89 82 89 90 85 89 91 87 88 87 86 88 88 88 87 90 91 94 94 92 91 90 86 90 91 93 96 89 95 93 91 98 91 101 95 93 90 98 100 91 98 96 92 92 97 93 94 93 91 97 89 95 90 92 96 93 99 89 95 91 99 98 97 90 97 88 99 90 89 91 97 98 88 99 89 94 92 82 91 91 97 97 93 86 96 92 96 94 90 95 99 100 87 94 94 90 94 87 97 91 90 86 96 92 96 87 81 84 83 90 89 84 90 94 80 86 102 0 0
83 88 85 87 86 88 92 87 82 0 82 81 91 83 83 90 87 88 91 85 89 83 87 98 92 91 88 87 91 88 89 93 92 94 93 89 94 92 97 93 97 88 97 85 96 89 96 94 89 97 99 96 94 95 97 94 95 97 98 92 93 85 97 97 90 96 87 92 95 98 97 83 96 94 97 88 85 93 92 84 94 92 90 87 91 95 87 97 103 91 88 102 100 92 91 90 92 94 94 85 82 89 87 89 89 84 90 95 86 80 79 90 84 90 82 80 98 84 111 0
77 80 76 87 87 82 94 84 84 79 85 84 91 91 87 84 84 84 89 93 85 89 91 84 89 82 89 86 92 94 85 86 88 87 89 96 87 89 86 90 91 88 92 97 98 86 91 92 90 92 96 98 93 85 89 92 94 95 95 97 90 96 88 89 89 91 84 86 87 95 88 93 98 89 98 85 88 92 95 89 88 87 91 91 93 89 84 89 93 81 91 89 85 86 85 79 86 85 89 88 81 78 86 80 85 80 88 87 74 84 79 96 79 100 74 81 96 61 0 0
79 79 81 82 86 82 88 95 81 84 81 87 89 83 91 92 80 89 92 89 86 88 86 82 84 85 85 91 87 86 92 84 87 91 84 85 88 86 86 94 91 81 93 95 93 90 95 92 96 90 95 91 88 80 93 94 89 96 89 90 95 91 86 97 91 82 82 84 87 97 88 85 97 90 88 83 90 91 96 86 87 93 89 83 93 94 87 86 93 90 91 91 83 88 90 84 86 92 91 85 85 89 91 92 88 91 81 93 90 78 82 92 88 87 88 104 0 0 0 0
78 67 67 62 79 80 89 85 83 76 83 79 82 78 86 85 79 76 82 78 82 73 77 73 72 72 79 83 85 77 92 71 80 86 90 74 86 77 84 79 83 84 81 73 80 82 83 86 85 82 81 76 78 85 84 79 90 88 87 80 87 79 81 79 81 79 72 80 79 78 83 83 82 77 81 84 77 86 87 85 82 83 76 75 73 86 83 81 83 85 87 68 82 75 80 82 78 84 71 76 76 79 74 67 71 76 79 77 66 76 85 66 78 88 86 88 76 0 0 0
72 68 76 79 69 84 84 87 79 79 77 84 73 80 70 83 86 84 75 78 74 80 77 84 83 81 80 74 83 78 83 82 84 83 79 70 79 78 77 83 88 82 87 86 84 87 85 79 82 79 80 79 82 77 85 83 81 80 85 74 88 85 78 80 76 66 79 75 85 69 81 81 82 78 89 85 86 88 87 87 85 79 74 79 67 81 84 71 88 84 72 77 76 75 82 76 92 80 72 79 88 73 77 73 74 72 72 82 79 84 68 79 76 82 67 0 96 0 0 0
