0 0 0 0 0 0 0 0 0 0 0 0 0 0 0 0 0 0 0 0 0 0 0 0 0 0 0 0 0 0 0 0 0 0 0 0 0 0 0 0 0 0 0 0 0 0 0 0 0 0 0 0 0 0 0 0 0 0 0 0 0 0 0 0 0 0 0 0 0 0 0 0 0 0 0 0 0 0 0 0 0 0 0 0 0 0 0 0 0 0 0 0 0 0 0 0 0 0 0 0 0 0 0 0 0 0 0 0 0 0 0 0 0 0 0 0 0 0 0 0
0 0 0 0 0 0 0 0 0 0 0 0 0 0 0 0 0 0 0 0 0 0 0 0 0 0 0 0 0 0 0 0 0 0 0 0 0 0 0 0 0 0 0 0 0 0 0 0 0 0 0 0 0 0 0 0 0 0 0 0 0 0 0 0 0 0 0 0 0 0 0 0 0 0 0 0 0 0 0 0 0 0 0 0 0 0 0 0 0 0 0 0 0 0 0 0 0 0 0 0 0 0 0 0 0 0 0 0 0 0 0 0 0 0 0 0 0 0 0 0
0 0 0 0 0 0 0 0 0 0 0 1135 0 0 0 0 0 1306 0 0 0 0 0 0 0 0 0 0 0 0 0 0 0 0 0 0 0 0 0 0 0 0 0 0 0 0 0 0 0 0 0 0 0 0 0 0 0 0 0 0 0 0 0 0 0 0 0 0 0 0 0 0 0 0 0 0 0 0 0 0 0 0 0 0 0 0 0 0 0 0 0 0 0 0 0 0 0 0 0 0 0 0 0 0 0 0 0 0 0 0 0 0 0 0 0 0 0 0 0 0
0 0 0 0 0 0 0 0 0 0 0 1155 1170 1178 0 0 1277 1295 1288 0 0 1244 1273 1270 0 0 0 0 0 0 0 0 0 0 0 0 0 0 0 0 0 0 0 0 0 0 0 0 0 0 0 0 0 0 0 0 0 0 0 0 0 0 0 0 0 0 0 0 0 0 0 0 0 0 0 0 0 0 0 0 0 0 0 0 0 0 0 0 0 0 0 0 0 0 0 0 0 0 0 0 0 0 0 0 0 0 0 0 0 0 0 0 0 0 0 0 0 0 0 0
0 0 0 0 0 0 0 1111 1125 1109 1162 1131 1146 1180 1159 1206 1263 1330 0 0 1256 1252 1272 0 0 0 0 0 0 0 0 0 0 0 0 0 0 0 0 0 0 0 0 0 0 0 0 0 0 0 0 0 0 0 0 0 0 0 0 0 0 0 0 0 0 0 0 0 0 0 0 0 0 0 0 0 0 0 0 0 0 0 0 0 0 0 0 0 0 0 0 0 0 0 0 0 0 0 0 0 0 0 0 0 0 0 0 0 0 0 0 0 0 0 0 0 0 0 0 0
0 0 0 0 0 0 0 1140 1112 1144 0 0 1182 1152 1180 1190 1289 1264 1286 1286 1263 1246 1275 1249 0 0 0 0 0 0 0 0 0 0 0 0 0 0 0 0 0 0 0 0 0 0 0 0 0 0 0 0 0 0 0 0 0 0 0 0 0 0 0 0 0 0 0 0 0 0 0 0 0 0 0 0 0 0 0 0 0 0 0 0 0 0 0 0 0 0 0 0 0 0 0 0 0 0 0 0 0 0 0 0 0 0 0 0 0 0 0 0 0 0 0 0 0 0 0 0
0 0 0 0 0 0 0 0 0 0 0 0 1199 1210 1220 1259 1271 1261 1246 1277 1255 1241 1235 1250 1292 0 0 0 0 0 0 1378 0 0 0 0 0 0 0 0 0 0 0 0 0 0 0 0 0 0 0 0 0 0 0 0 0 0 0 0 0 0 0 0 0 0 0 0 0 0 0 0 0 0 0 0 0 0 0 0 0 0 0 0 0 0 0 0 0 0 0 0 0 0 0 0 0 0 0 0 0 0 0 0 0 0 0 0 0 0 0 0 0 0 0 0 0 0 0 0
0 0 0 0 0 0 0 0 0 0 0 0 1233 1262 1272 1274 1309 1258 1245 1258 1295 1234 1252 1275 0 1335 1323 1350 0 1380 0 1407 0 0 0 0 0 0 0 0 0 0 0 0 0 0 0 0 0 0 0 0 0 0 0 0 0 0 0 0 0 0 0 0 0 0 0 0 0 0 0 0 0 0 0 0 0 0 0 0 0 0 0 0 0 0 0 0 0 0 0 0 0 0 0 0 0 0 0 0 0 0 0 0 0 0 1683 0 0 0 0 0 0 0 0 0 0 0 0 0
0 0 0 0 0 0 0 0 0 0 0 0 1246 1294 1260 1285 1294 1252 1280 1258 1274 1224 1270 1258 0 0 1332 1336 1313 1388 1375 1402 0 0 0 0 0 0 0 0 0 0 0 0 0 0 0 0 0 0 0 0 0 0 0 0 0 0 0 0 0 0 0 0 0 0 0 0 0 0 0 0 0 0 0 0 0 0 0 0 0 0 0 0 0 0 0 0 0 0 0 0 0 0 0 0 0 0 0 0 0 0 0 0 0 1731 1712 1723 0 0 0 0 0 0 0 0 0 0 0 0
0 0 0 0 0 0 0 0 0 0 0 0 0 0 1279 1296 1276 1278 1280 1248 1238 1249 1250 1272 1278 0 0 1332 1376 1326 1357 1391 0 0 0 0 0 0 0 0 0 0 0 0 0 0 0 0 0 0 0 0 0 0 0 0 0 0 0 0 0 0 0 0 0 0 0 0 0 0 0 0 0 0 0 0 0 0 0 0 0 0 0 0 0 0 0 0 0 0 0 0 0 0 0 0 0 0 0 0 0 0 0 0 0 1736 1704 1710 1760 0 0 0 0 0 0 0 0 0 0 0
0 0 0 0 0 0 0 0 0 0 0 0 0 0 0 0 0 0 0 0 0 1304 1261 1271 1290 0 0 1376 1360 1353 1375 1455 1431 0 0 0 0 0 0 0 0 0 0 0 0 0 0 0 0 0 0 0 0 0 0 0 0 0 0 0 0 0 0 0 0 0 0 0 0 0 0 0 0 0 0 0 0 0 0 0 0 0 0 0 0 0 0 0 0 0 0 0 0 0 0 0 0 0 0 0 0 0 0 0 0 1766 1747 1733 1753 0 0 0 0 0 0 0 0 0 0 0
0 0 0 0 0 0 0 0 0 0 0 0 0 0 0 0 0 0 0 0 0 0 0 1347 1327 0 0 0 1335 1351 1345 1426 1451 0 0 0 0 0 0 0 0 0 0 0 0 0 0 0 0 0 0 0 0 0 0 0 0 0 0 0 0 0 0 0 0 0 0 0 0 0 0 0 0 0 0 0 0 0 0 0 0 0 0 0 0 0 0 0 0 0 0 0 0 0 0 0 0 0 0 0 0 0 0 0 0 1753 1789 1770 0 0 0 0 0 0 0 0 0 0 0 0
0 0 0 0 0 0 0 0 0 0 0 0 0 0 0 0 0 0 0 0 0 0 0 1421 1405 1324 1318 1370 1347 1341 1355 1387 1445 0 0 0 0 0 0 0 0 0 0 0 0 0 0 0 0 0 0 0 0 0 0 0 0 0 0 0 0 0 0 0 0 0 0 0 0 0 0 0 0 0 0 0 0 0 0 0 0 0 0 0 0 0 0 0 0 0 0 0 0 0 0 0 0 0 0 0 0 0 0 0 0 1700 1748 1704 1738 0 0 0 0 0 0 0 0 0 0 0
0 0 0 0 0 0 0 0 0 0 0 0 0 0 0 0 0 0 0 0 0 0 0 1388 1380 1387 1329 1320 1352 1336 1373 1415 1430 0 0 0 0 0 0 0 0 0 0 0 0 0 0 0 0 0 0 0 0 0 0 0 0 0 0 0 0 0 0 0 0 0 0 0 0 0 0 0 0 0 0 0 0 0 0 0 0 0 0 0 0 0 0 0 0 0 0 0 0 0 0 0 0 0 0 0 0 0 0 0 0 1705 1690 1702 1704 0 0 0 0 0 0 0 0 0 0 0
0 0 0 0 0 0 0 0 0 0 0 0 0 0 0 0 0 0 0 0 0 0 0 1350 1369 1357 1352 1314 1308 1318 1343 1385 1391 0 0 0 0 0 0 0 0 0 0 0 0 0 0 0 0 0 0 0 0 0 0 0 0 0 0 0 0 0 0 0 0 0 0 0 0 0 0 0 0 0 0 0 0 0 0 0 0 0 0 0 0 0 0 0 0 0 0 0 0 0 0 0 0 0 0 0 0 0 0 0 0 1666 1640 1641 1678 0 0 0 0 0 0 0 0 0 0 0
0 0 0 0 0 0 0 0 0 0 0 0 0 0 0 0 0 0 0 0 0 0 0 1378 1360 1392 1373 1378 1373 1332 1357 1423 1435 0 0 0 0 0 0 0 0 0 0 0 0 0 0 0 0 0 0 0 0 0 0 0 0 0 0 0 0 0 0 0 0 0 0 0 0 0 0 0 0 0 0 0 0 0 0 0 0 0 0 0 0 0 0 0 0 0 0 0 0 0 0 0 0 0 0 0 0 0 0 0 1808 1749 1671 1694 1673 1759 1653 1677 0 1611 0 0 0 0 0 0
1235 1252 1250 1245 1266 1296 1287 0 0 0 0 0 0 0 0 0 0 0 0 0 0 0 0 0 1345 1372 1367 1368 1361 1363 1350 1418 1421 0 0 0 0 0 0 0 0 0 0 0 0 0 0 0 0 0 0 0 0 0 0 0 0 0 0 0 0 0 0 0 0 0 0 0 0 0 0 0 0 0 0 0 0 0 0 0 0 0 0 0 0 0 0 0 0 0 0 0 0 0 0 0 0 0 0 0 0 0 0 0 1641 0 1687 1659 1667 1585 1575 0 0 1617 0 0 0 0 0 0
1244 1264 1266 1274 1284 1300 1303 1332 1307 1321 1333 0 0 0 0 0 0 0 0 0 0 0 0 1354 1354 1356 1367 1358 1359 1363 1372 1425 1438 0 0 0 0 0 0 0 0 0 0 0 0 0 0 0 0 0 0 0 0 0 0 0 0 0 0 0 0 0 0 0 0 0 0 0 0 0 0 0 0 0 0 0 0 0 0 0 0 0 0 0 0 0 0 0 0 0 0 0 0 0 0 0 0 0 0 0 0 0 0 1748 0 1705 1695 1701 1656 1709 1656 1611 1647 0 0 0 0 0 0 0
1226 1275 1266 1286 1315 1310 1313 1320 1329 1350 1362 1351 1389 1419 1411 1445 0 0 0 0 0 0 0 0 0 1401 0 0 1377 0 0 1426 1437 0 0 0 0 0 0 0 0 0 0 0 0 0 0 0 0 0 0 0 0 0 0 0 0 0 0 0 0 0 0 0 0 0 0 0 0 0 0 0 0 0 0 0 0 0 0 0 0 0 0 0 0 0 0 0 0 0 0 0 0 0 0 0 0 0 0 0 0 0 1769 1771 1719 1734 1711 1711 1649 1709 1690 1698 1632 0 0 0 0 0 0 0
0 0 0 0 1286 1286 1312 1308 1318 1321 1334 1331 1369 1371 1373 1385 1392 1428 1412 1492 0 0 0 0 0 0 0 0 0 0 0 1454 1421 1431 0 0 0 0 0 0 0 0 0 0 0 0 0 0 0 0 0 0 0 0 0 0 0 0 0 0 0 0 0 0 0 0 0 0 0 0 0 0 0 0 0 0 0 0 0 0 0 0 0 0 0 0 0 0 0 0 0 0 0 0 0 0 0 0 0 0 0 1795 1753 1745 1749 1728 1712 1673 1646 1681 0 0 0 0 0 0 0 0 0 0
0 0 0 0 0 0 0 0 0 1337 1336 1356 1367 1382 1382 1403 1418 1436 1452 1452 1472 1499 0 0 0 0 0 0 0 0 0 1463 1479 1444 0 0 0 0 0 0 0 0 0 0 0 0 0 0 0 0 0 0 0 0 0 0 0 0 0 0 0 0 0 0 0 0 0 0 0 0 0 0 0 0 0 0 0 0 0 0 0 0 0 0 0 0 0 0 0 0 0 0 0 0 0 0 0 0 0 0 0 1827 1774 1801 1710 1651 1614 1649 1632 1565 1638 1560 1615 1673 1566 0 0 0 0 0
0 0 0 0 0 0 0 0 0 0 0 0 0 0 0 1431 1423 1416 1430 1434 1476 1460 0 0 0 0 0 0 0 0 0 0 1494 0 0 0 0 0 0 0 0 0 0 0 0 0 0 0 0 0 0 0 0 0 0 0 0 0 0 0 0 0 0 0 0 0 0 0 0 0 0 0 0 0 0 0 0 0 0 0 0 0 0 0 0 0 0 0 0 0 0 0 0 0 0 0 0 0 0 0 1843 1754 1621 1624 1624 1606 1627 1581 1589 1623 1595 1600 1604 1582 0 0 0 0 0 0
0 0 0 0 0 0 0 0 0 0 0 0 0 0 0 0 0 0 0 0 0 1436 0 0 0 0 0 0 0 0 0 0 0 0 0 0 0 0 0 0 0 0 0 0 0 0 0 0 0 0 0 0 0 0 0 0 0 0 0 0 0 0 0 0 0 0 0 0 0 0 0 0 0 0 0 0 0 0 0 0 0 0 0 0 0 0 0 0 0 0 0 0 0 0 0 0 0 0 0 0 1636 1590 1596 1593 1617 1602 1581 1564 1592 1573 1582 1555 1536 0 0 0 0 0 0 0
0 0 0 0 0 0 0 0 0 0 0 0 0 0 0 0 0 0 0 0 0 0 0 0 0 0 0 0 0 0 0 0 0 0 0 0 0 0 0 0 0 0 0 0 0 0 0 0 0 0 0 0 0 0 0 0 0 0 0 0 0 0 0 0 0 0 0 0 0 0 0 0 0 0 0 0 0 0 0 0 0 0 0 0 0 0 0 0 0 0 0 0 0 0 0 0 0 0 0 0 0 1596 1604 1603 1591 1599 1613 1604 1638 1583 1573 1616 0 0 0 0 0 0 0 0
0 0 0 0 0 0 0 0 0 0 0 0 0 0 0 0 0 0 0 0 0 0 0 0 0 0 0 0 0 0 0 0 0 0 0 0 0 0 0 0 0 0 0 0 0 0 0 0 0 0 0 0 0 0 0 0 0 0 0 0 0 0 0 0 0 0 0 0 0 0 0 0 0 0 0 0 0 0 0 0 0 0 0 0 0 0 0 0 0 0 0 0 0 0 0 0 0 0 0 0 0 0 0 0 0 1629 1585 1604 1526 0 0 0 0 0 0 0 0 0 0 0
0 0 0 0 0 0 0 0 0 0 0 0 0 0 0 0 0 0 0 0 0 0 0 0 0 0 0 0 0 0 0 0 0 0 0 0 0 0 0 0 0 0 0 0 0 0 0 0 0 0 0 0 0 0 0 0 0 0 0 0 0 0 0 0 0 0 0 0 0 0 0 0 0 0 0 0 0 0 0 0 0 0 0 0 0 0 0 0 0 0 0 0 0 0 0 0 0 0 0 0 0 0 0 0 0 0 0 0 0 0 0 0 0 0 0 0 0 0 0 0
587 615 0 0 0 0 0 0 0 0 0 0 0 0 0 0 0 0 0 0 0 0 0 0 0 1853 1880 0 0 0 0 0 0 0 0 0 0 0 0 0 0 0 0 0 0 0 0 2914 2901 2900 2873 2884 2895 2898 2874 2860 2869 2886 2899 2903 2882 2876 2859 2871 2891 2860 0 0 0 0 0 0 0 0 0 0 0 0 0 0 0 0 0 0 0 0 0 0 0 0 0 0 0 0 0 1812 1769 0 0 0 0 0 0 0 0 0 0 0 0 0 0 0 0 0 0 0 0 0 0 0
570 593 595 603 619 634 0 0 0 0 0 0 0 0 0 0 0 0 0 0 0 0 0 0 0 0 1875 1882 0 0 0 0 0 0 0 0 0 0 0 0 0 0 0 0 0 0 0 2906 2914 2904 2898 2926 2892 2881 2871 2874 2913 2889 2879 2924 2888 2892 2892 2870 2881 2888 0 0 0 0 0 0 0 0 0 0 0 0 0 0 0 0 0 0 0 0 0 0 0 0 0 0 0 0 0 0 0 0 0 0 0 0 0 0 0 0 0 0 0 0 0 0 0 0 0 0 0 0 0 0
591 587 604 601 621 638 630 676 721 0 0 0 0 0 0 0 0 0 0 0 0 0 0 0 0 0 0 0 0 0 0 0 0 0 0 0 0 0 0 0 0 0 0 0 0 0 0 2931 2909 2877 2892 2924 2893 2850 2874 2902 2932 2905 2909 2921 2872 2894 2907 2904 2883 0 0 0 0 0 0 0 0 0 0 0 0 0 0 0 0 0 0 0 0 0 0 0 0 0 0 0 0 0 0 0 0 0 0 0 0 0 0 0 0 0 0 0 0 0 0 0 0 0 0 0 0 0 0 0
572 572 592 604 625 627 637 647 672 665 671 735 0 0 0 0 0 0 0 0 0 0 0 0 0 0 0 0 0 0 0 0 0 0 0 0 0 0 0 0 0 0 0 0 0 0 0 2853 2833 2901 2899 2886 2923 2878 2876 2912 2896 2931 2946 2880 2875 2909 2848 2916 2884 2895 0 0 0 0 0 0 0 0 0 0 0 0 0 0 0 0 0 0 0 0 0 0 0 0 0 0 0 0 0 0 0 0 0 0 0 0 0 0 0 0 0 0 0 0 0 0 0 0 0 0 0 0 0 0
603 582 605 588 611 615 619 644 672 658 674 686 682 719 758 0 0 0 0 0 0 0 0 0 0 0 0 0 0 0 0 0 0 0 0 0 0 0 0 0 0 0 0 0 0 0 0 2942 2974 2921 2924 2933 2894 2930 2905 2916 2944 2921 2945 2901 2899 2918 2940 2908 2951 2959 0 0 0 0 0 0 0 0 0 0 0 0 0 0 0 0 0 0 0 0 0 0 0 0 0 0 0 0 0 0 0 0 0 0 0 0 0 0 0 0 0 0 0 0 0 0 0 0 0 0 0 0 0 0
720 770 777 752 742 649 650 672 653 669 685 673 721 717 746 739 761 781 0 0 0 0 0 0 0 0 0 0 0 0 0 0 0 0 0 0 0 0 0 0 0 0 0 0 0 0 0 2906 2931 2930 2925 2968 2952 2891 2911 2939 2892 2884 2910 2929 2926 2921 2892 2883 2892 2895 0 0 0 0 0 0 0 0 0 0 0 0 0 0 0 0 0 0 0 0 0 0 0 0 0 0 0 0 0 0 0 0 0 0 0 0 0 0 0 0 0 0 0 0 0 0 0 0 0 0 0 0 0 0
789 790 806 838 825 849 836 851 815 805 756 738 731 720 728 723 764 774 793 805 812 0 0 0 0 0 0 0 0 0 0 0 0 0 0 0 0 0 0 0 0 0 0 0 0 0 0 2885 2919 2887 2898 2907 2873 2900 2910 2947 2912 2919 2926 2903 2852 2851 2897 2872 2860 2867 0 0 0 0 0 0 0 0 0 0 0 0 0 0 0 0 0 0 0 0 0 0 0 0 0 0 0 0 0 0 0 0 0 0 0 0 0 0 0 0 0 0 0 0 0 0 0 0 0 0 0 0 0 0
750 796 823 831 843 840 861 865 893 895 904 891 937 899 852 806 784 787 781 786 831 839 826 831 0 0 0 0 0 0 0 0 0 0 0 0 0 0 0 0 0 0 0 0 0 0 0 2927 2888 2917 2907 2882 2911 2950 2927 2914 2926 2886 2883 2895 2907 2907 2924 2890 2926 2871 0 0 0 0 0 0 0 0 0 0 0 0 0 0 0 0 0 0 0 0 0 0 0 0 0 0 0 0 0 0 0 0 0 0 0 0 0 0 0 0 0 0 0 0 0 0 0 0 0 0 0 0 0 0
653 0 837 842 869 875 881 892 925 915 940 954 953 960 948 951 932 933 912 881 862 854 881 904 916 940 0 0 0 0 0 0 0 0 0 0 0 0 0 0 0 0 0 0 0 0 0 2938 2887 2869 2869 2889 2901 2877 2919 2897 2841 2883 2834 2865 2891 2876 2886 2903 2850 2825 0 0 0 0 0 0 0 0 0 0 0 0 0 0 0 0 0 0 0 0 0 0 0 0 0 0 0 0 0 0 0 0 0 0 0 0 0 0 0 0 0 0 0 0 0 0 0 0 0 0 0 0 0 0
655 936 957 933 941 933 0 903 922 912 944 938 945 945 952 944 949 937 939 943 935 941 895 911 875 922 966 997 1029 0 0 0 0 0 0 0 0 0 0 0 0 0 0 0 0 0 0 2894 2914 2914 2954 2891 2874 2943 2858 2916 2893 2952 2897 2927 2908 2877 2875 2881 2885 2882 0 0 0 0 0 0 0 0 0 0 0 0 0 0 0 0 0 0 0 0 0 0 0 0 0 0 0 0 0 0 0 0 0 0 0 0 0 0 0 0 0 0 0 0 0 0 0 0 0 0 0 0 0 0
595 722 0 0 0 0 0 0 0 0 1038 1003 1006 1000 997 980 979 986 973 966 965 956 960 970 974 976 953 1009 1040 1070 0 0 0 0 0 0 0 0 0 0 0 0 0 0 0 0 0 2872 2958 2905 2947 2916 2865 2911 2904 2927 2900 2893 2888 2904 2904 2938 2867 2901 2931 2885 0 0 0 0 0 0 0 0 0 0 0 0 0 0 0 0 0 0 0 0 0 0 0 0 0 0 0 0 0 0 0 0 0 0 0 0 0 0 0 0 0 0 0 0 0 0 0 0 0 0 0 0 0 0
568 572 581 0 1143 1122 1152 1148 1168 1168 1130 1139 1147 1140 1156 1133 1118 1054 0 0 1006 1071 1058 978 1037 1026 1139 1128 1136 1082 1088 0 0 0 0 0 0 0 0 0 0 0 0 0 0 0 0 2917 2958 2897 2933 2928 2915 2925 2931 2886 2882 2927 2930 2879 2858 2929 2892 2904 2877 0 0 0 0 0 0 0 0 0 0 0 0 0 0 0 0 0 0 0 0 0 0 0 0 0 0 0 0 0 0 0 0 0 0 0 0 0 0 0 0 0 0 0 0 0 0 0 0 0 0 0 0 0 0 0
572 588 605 552 0 0 0 0 0 0 0 0 0 0 0 0 0 957 965 0 1075 1148 1086 1023 0 1078 1127 1119 1124 1133 1111 0 0 0 0 0 0 0 0 0 0 0 0 0 0 0 0 2925 2910 2935 2969 2969 2913 2990 2934 2892 2912 2934 2920 2961 2898 2895 2911 2861 2894 0 0 0 0 0 0 0 0 0 0 0 0 0 0 0 0 0 0 0 0 0 0 0 0 0 0 0 0 0 0 0 0 0 0 0 0 0 0 0 0 0 0 0 0 0 0 0 0 0 0 0 0 0 0 0
594 582 605 598 596 0 0 0 0 0 0 0 0 0 0 0 0 982 1002 0 0 0 0 0 0 0 0 0 0 0 0 0 0 0 0 0 0 0 0 0 0 0 0 0 0 0 0 2910 2918 2878 2870 2937 2934 2918 2878 2904 2912 2867 2898 2894 2923 2885 2878 2886 2964 0 0 0 0 0 0 0 0 0 0 0 0 0 0 0 0 0 0 0 0 0 0 0 0 0 0 0 0 0 0 0 0 0 0 0 0 0 0 0 0 0 0 0 0 0 0 0 0 0 0 0 0 0 0 0
554 588 596 603 598 596 0 0 0 0 0 0 0 0 0 0 0 0 0 0 0 0 0 0 0 0 0 0 0 0 0 0 0 0 0 0 0 0 0 0 0 0 0 0 0 0 0 2957 2959 2959 2915 2882 2896 2867 2862 2933 2903 2896 2886 2892 2898 2902 2880 2886 2912 0 0 0 0 0 0 0 0 0 0 0 0 0 0 0 0 0 0 0 0 0 0 0 0 0 0 0 0 0 0 0 0 0 0 0 0 0 0 0 0 0 0 0 0 0 0 0 0 0 0 0 0 0 0 0
562 602 600 642 598 611 0 0 0 0 0 0 0 0 0 0 0 0 0 0 0 0 963 0 0 0 0 0 0 0 0 0 0 0 0 0 0 0 0 0 0 0 0 0 0 0 0 2932 2901 2915 2895 2931 2904 2864 2885 2947 2895 2893 2941 2881 2892 2940 2887 2858 2887 0 0 0 0 0 0 0 0 0 0 0 0 0 0 0 0 0 0 0 0 0 0 0 0 0 0 0 0 0 0 0 0 0 0 0 0 0 0 0 0 0 0 0 0 0 0 0 0 0 0 0 0 0 0 0
607 623 598 607 613 611 0 0 0 0 0 0 0 0 0 0 0 0 0 0 0 0 0 0 0 0 0 0 0 0 0 0 0 0 0 0 0 0 0 0 0 0 0 0 0 0 0 2903 2904 2908 2901 2879 2871 2935 2887 2904 2896 2845 2905 2849 2912 2882 2893 2867 2881 2835 0 0 0 0 0 0 0 0 0 0 0 0 0 0 0 0 0 0 0 0 0 0 0 0 0 0 0 0 0 0 0 0 0 0 0 0 0 0 0 0 0 0 0 0 0 0 0 0 0 0 0 0 0 0
592 574 590 583 600 610 590 0 0 0 0 0 0 0 0 0 0 0 0 0 0 0 0 0 0 0 0 0 0 0 0 0 0 0 0 0 0 0 0 0 0 0 0 0 0 0 0 2928 2862 2892 2891 2960 2918 2872 2890 2920 2910 2886 2875 2890 2890 2901 2894 2904 2885 2845 0 0 0 0 0 0 0 0 0 0 0 0 0 0 0 0 0 0 0 0 0 0 0 0 0 0 0 0 0 0 0 0 0 0 0 0 0 0 0 0 0 0 0 0 0 0 0 0 0 0 0 0 0 0
605 592 619 671 601 608 659 0 0 0 0 0 0 0 0 0 2263 0 0 0 0 0 977 969 0 0 0 0 0 0 0 0 0 0 0 0 0 0 0 0 0 0 0 0 0 0 0 2867 2889 2910 2905 2871 2874 2875 2829 2888 2888 2866 2864 2881 2871 2875 2861 2869 2876 2843 0 0 0 0 0 0 0 0 0 0 0 0 0 0 0 0 0 0 0 0 0 0 0 0 0 0 0 0 0 0 0 0 0 0 0 0 0 0 0 0 0 0 0 0 0 0 0 0 0 0 0 0 0 0
548 595 580 599 572 613 645 0 0 0 0 0 0 0 0 0 0 0 0 0 0 0 0 0 0 0 0 0 0 0 0 0 0 0 0 0 0 0 0 0 0 0 0 0 0 0 0 2933 2908 2904 2888 2929 2917 2877 2935 2934 2934 2901 2890 2914 2904 2878 2909 2885 2894 2905 0 0 0 0 0 0 0 0 0 0 0 0 0 0 0 0 0 0 0 0 0 0 0 0 0 0 0 0 0 0 0 0 0 0 0 0 0 0 0 0 0 0 0 0 0 0 0 0 0 0 0 0 0 0
577 581 577 614 593 613 0 0 0 0 0 0 0 0 0 0 0 0 0 0 0 0 0 0 0 0 0 0 0 0 0 0 0 0 0 0 0 0 0 0 0 0 0 0 0 0 0 0 0 0 0 0 0 0 0 0 0 0 0 0 0 0 3004 2884 2895 0 0 0 0 0 0 0 0 0 0 0 0 0 0 0 0 0 0 0 0 0 0 0 0 0 0 0 0 0 0 0 0 0 0 0 0 0 0 0 0 0 0 0 0 0 0 0 0 0 0 0 0 0 0 0
597 587 587 617 604 579 0 0 0 0 0 0 0 0 0 0 0 0 0 0 0 0 0 0 0 0 0 0 0 0 0 0 0 0 0 0 0 0 0 0 0 0 0 0 0 0 0 0 0 0 0 0 0 0 0 0 0 0 0 0 0 0 0 0 0 0 0 0 0 0 0 0 0 0 0 0 0 0 0 0 0 0 0 0 0 0 0 0 0 0 0 0 0 0 0 0 0 0 0 0 0 0 0 0 0 0 0 0 0 0 0 0 0 0 0 0 0 0 0 0
590 592 608 586 601 620 0 0 0 0 0 0 0 0 0 0 0 0 0 0 0 0 0 0 0 0 0 0 0 0 0 0 0 0 0 0 0 0 0 0 0 0 0 0 0 0 0 0 0 0 0 0 0 0 0 0 0 0 0 0 0 0 0 0 0 0 0 0 0 0 0 0 0 0 0 0 0 0 0 0 0 0 0 0 0 0 0 0 0 0 0 0 0 0 0 0 0 0 0 0 0 0 0 0 0 0 0 0 0 0 0 0 0 0 0 0 0 0 0 0
584 588 600 608 567 0 0 0 0 0 0 0 0 0 0 0 0 0 0 0 0 0 0 0 0 0 0 0 0 0 0 0 0 0 0 0 0 0 0 0 0 0 0 0 0 0 0 0 0 0 0 0 0 0 0 0 0 0 0 0 0 0 0 0 0 0 0 0 0 0 0 0 0 0 0 0 0 0 0 0 0 0 0 0 0 0 0 0 0 0 0 0 0 0 0 0 0 0 0 0 0 0 0 0 0 0 0 0 0 0 0 0 0 0 0 0 0 0 0 0
617 615 633 625 0 0 0 0 0 0 0 0 0 0 0 0 0 0 0 0 0 0 0 0 0 0 934 894 876 902 927 0 920 930 916 949 0 955 962 1004 922 941 967 0 0 0 0 0 0 0 0 0 0 0 0 0 0 0 0 0 0 0 0 0 0 0 0 0 0 0 0 0 0 0 0 0 0 0 0 0 0 0 0 0 0 0 0 0 0 0 0 0 0 0 0 0 0 0 0 0 0 0 0 0 0 0 0 0 0 0 0 0 0 0 0 0 0 0 0 0
600 577 0 0 0 0 0 744 704 695 704 687 730 748 720 723 717 721 722 718 698 736 743 731 745 744 733 750 701 731 736 706 728 716 746 793 752 776 726 758 761 827 743 801 815 796 802 751 809 749 795 791 789 771 761 783 752 781 801 775 783 797 818 794 845 817 797 815 865 818 805 0 814 0 0 0 0 0 0 0 0 0 0 0 0 0 0 0 0 0 0 0 0 0 0 0 0 0 0 0 0 0 0 0 0 0 0 0 0 0 0 0 0 0 0 0 0 0 0 0
547 607 607 556 561 579 572 583 566 598 584 588 600 612 602 579 616 633 625 623 598 591 599 611 621 616 582 585 611 598 602 630 634 622 607 649 659 634 651 620 638 615 650 658 624 618 643 655 606 635 640 623 651 691 664 668 637 672 637 673 630 649 637 705 635 663 649 670 640 708 689 669 692 626 697 677 684 696 676 691 742 690 691 692 665 655 723 674 687 692 682 719 725 715 0 0 0 779 751 0 738 0 0 0 0 0 0 0 0 0 0 0 0 0 0 0 0 0 0 0
514 497 500 508 483 510 491 515 493 509 491 502 528 495 480 511 485 508 518 495 515 496 523 507 513 512 513 514 507 526 497 533 517 528 523 527 539 522 515 505 515 547 518 510 524 531 538 530 545 515 531 532 538 532 532 529 550 532 540 525 550 530 548 550 544 570 544 559 547 528 557 535 547 555 546 564 564 568 536 560 550 567 567 537 574 593 591 613 594 587 568 588 555 540 551 602 596 577 606 619 599 595 633 575 0 585 0 607 623 630 601 0 0 0 0 0 0 0 0 0
407 396 413 429 401 436 434 405 434 431 445 423 453 434 425 438 449 434 427 447 442 454 438 438 455 446 455 443 438 448 462 448 454 451 447 453 455 467 468 460 447 461 439 478 454 475 471 464 476 478 473 476 485 452 462 449 461 477 465 497 453 467 475 485 464 487 493 470 470 481 489 470 495 491 486 470 478 468 470 485 481 463 484 479 469 500 506 476 489 461 461 493 463 480 481 476 526 493 479 494 470 478 505 475 517 501 506 496 463 454 487 493 0 0 0 0 0 0 0 0
400 408 390 381 387 399 401 400 396 387 404 393 387 415 410 402 423 396 397 410 426 404 407 419 409 412 406 416 409 422 414 419 407 422 426 417 423 416 414 420 423 407 440 409 411 419 419 436 426 426 426 427 418 425 425 417 432 417 434 432 424 441 411 431 437 440 405 430 436 428 430 435 426 431 416 423 428 431 427 423 426 447 430 441 448 446 439 425 428 439 430 427 437 448 435 438 420 443 434 441 433 450 450 435 439 428 424 458 446 434 441 422 425 458 0 0 0 0 0 0
349 340 337 353 333 348 366 345 358 344 370 364 357 353 351 355 374 365 367 364 368 355 362 379 375 356 363 370 372 361 375 370 373 349 362 364 374 377 379 365 362 363 370 371 361 369 370 369 375 362 369 370 380 366 372 372 376 373 366 385 366 378 376 371 392 394 374 381 402 390 390 391 397 382 392 378 389 377 384 383 380 393 396 393 391 384 385 395 383 392 383 399 397 382 400 392 390 381 390 403 373 389 384 388 395 396 387 392 392 387 380 415 378 379 383 394 0 0 0 0
322 335 320 336 326 318 331 344 337 339 331 325 336 330 358 349 346 341 320 337 359 339 342 328 353 337 322 328 337 357 342 347 339 345 334 341 341 334 332 330 341 350 341 343 336 344 351 346 350 345 348 335 345 347 345 341 330 336 343 351 351 347 347 355 347 344 342 347 350 354 352 346 354 336 352 344 344 349 342 349 356 355 351 334 348 345 341 354 349 349 347 362 365 358 361 360 344 350 344 358 367 358 361 369 356 342 343 376 360 344 350 364 370 375 338 371 398 0 0 0
287 297 286 293 300 305 309 298 290 301 314 308 302 293 303 304 306 300 305 307 308 303 317 297 291 295 298 315 298 304 294 302 297 309 316 306 314 299 304 316 315 318 313 311 310 305 307 299 309 307 323 309 305 314 312 315 318 313 312 316 312 312 308 314 309 313 313 319 319 314 320 314 313 323 308 317 316 315 310 323 324 322 314 316 323 338 317 322 322 326 319 328 318 326 328 328 323 345 323 332 343 341 326 342 334 336 329 356 347 333 337 352 339 333 340 347 328 323 332 0
276 274 264 275 289 283 260 288 274 287 274 278 281 292 290 278 281 281 283 285 276 278 279 277 277 280 277 273 288 280 284 276 283 280 285 282 284 284 288 280 293 281 290 280 282 286 286 281 281 287 282 279 287 283 291 290 285 287 280 287 283 293 288 296 295 286 290 286 298 291 282 289 291 284 296 291 291 291 292 283 282 284 292 308 297 288 285 300 288 282 295 294 289 290 299 289 288 293 301 287 297 296 296 314 292 315 301 284 300 282 305 322 291 294 278 314 284 274 308 350
253 249 256 257 261 256 258 253 256 253 251 243 246 254 266 257 254 263 251 256 257 263 254 247 255 257 256 253 252 260 247 267 258 258 259 264 266 268 267 259 265 261 267 260 264 267 266 260 261 269 261 268 265 261 264 263 265 265 267 267 269 268 270 261 268 274 268 268 268 265 269 265 271 269 272 267 268 270 263 266 266 262 263 270 270 268 270 261 260 263 263 265 266 271 269 267 273 273 279 278 270 273 270 272 274 280 279 272 282 277 270 286 284 273 276 267 264 287 251 293
233 231 238 231 242 237 237 230 233 236 231 232 252 243 240 246 236 233 243 241 231 241 238 234 238 236 240 245 240 246 237 242 240 240 251 245 244 246 255 244 245 247 246 244 245 246 247 246 245 248 253 250 245 247 252 247 247 245 245 246 255 254 253 246 242 250 253 249 252 249 247 251 248 246 256 253 249 255 244 250 248 251 250 247 241 256 254 255 253 250 258 256 250 254 257 246 249 251 259 255 245 242 261 249 258 241 248 255 245 259 259 231 255 264 255 247 258 298 245 252
207 205 215 215 211 225 221 212 221 211 221 221 222 227 222 222 215 222 230 226 228 222 226 230 230 226 228 231 228 222 221 225 225 221 233 232 224 227 226 236 234 231 233 226 233 228 224 226 232 232 237 226 225 230 227 231 227 234 233 231 234 230 236 229 235 242 234 235 229 232 230 236 230 233 227 226 228 225 227 234 229 229 231 230 236 231 233 235 232 225 227 234 236 239 233 231 239 238 237 236 239 232 230 229 231 237 235 227 228 237 232 231 227 244 240 232 212 228 217 218
205 209 216 217 211 206 210 209 212 212 210 210 212 222 219 222 215 210 206 216 217 212 211 210 216 214 216 215 212 217 214 212 211 216 211 215 219 199 220 226 217 220 198 216 225 216 219 206 226 217 215 206 219 206 220 220 218 218 227 220 202 219 204 226 218 221 220 221 218 223 220 222 222 198 217 217 221 201 220 223 218 225 223 233 222 224 223 221 218 220 224 212 223 225 224 215 217 213 220 226 217 220 221 227 217 227 217 220 224 235 223 229 219 216 229 237 228 214 229 226
192 195 197 198 204 200 205 198 185 183 200 199 183 193 205 188 184 208 206 191 190 185 198 191 184 189 189 187 182 191 188 189 193 188 194 194 190 196 197 188 199 192 199 190 190 194 199 189 196 195 195 200 201 194 191 201 199 194 201 197 194 191 195 196 193 198 195 196 199 193 191 194 196 198 191 189 197 188 192 190 186 197 198 193 213 201 186 185 196 214 191 193 193 209 189 189 190 191 215 192 204 213 203 196 206 213 208 204 204 205 200 206 213 202 204 178 216 172 169 186
179 180 199 195 193 181 180 185 197 181 187 184 176 185 183 183 190 187 179 186 178 182 185 186 182 193 189 190 183 194 194 187 191 191 190 194 192 188 193 197 191 195 199 197 188 196 189 191 195 197 194 199 197 192 197 198 199 198 195 196 200 199 198 200 199 196 194 197 193 198 194 192 200 198 193 193 199 191 199 191 195 195 193 197 197 188 193 189 195 196 182 193 193 193 178 190 180 181 188 182 192 205 180 180 190 187 180 202 191 207 189 176 184 198 177 207 181 175 174 194
168 168 173 169 172 174 173 180 174 184 182 181 176 177 185 179 183 178 185 186 185 187 185 186 183 185 182 187 190 191 188 182 187 185 184 187 179 185 192 182 185 178 190 193 190 189 186 192 185 187 190 188 186 187 192 189 190 192 191 192 186 189 187 186 193 192 189 189 188 187 193 191 192 190 186 188 191 189 192 191 189 189 182 185 187 191 192 192 190 187 187 192 189 189 192 185 186 189 188 190 183 187 177 182 178 175 187 175 181 183 176 175 177 185 171 171 195 184 199 183
174 171 161 168 164 166 168 176 168 170 173 167 167 172 175 176 171 178 179 181 173 177 175 168 175 171 179 175 170 179 180 181 178 170 174 172 181 172 177 176 174 178 182 171 186 182 177 182 181 182 179 177 172 182 182 183 181 180 180 180 177 179 179 177 179 183 180 184 175 180 177 178 179 183 180 177 183 184 181 182 181 176 178 173 176 183 175 181 181 179 180 183 179 183 182 172 179 181 185 174 179 183 178 179 177 178 173 176 175 175 180 178 177 178 179 175 171 173 167 166
162 167 165 162 159 168 158 160 172 165 168 169 163 169 165 170 165 166 171 167 170 168 167 170 167 162 171 170 170 172 175 176 167 170 168 167 174 166 173 168 174 170 172 167 169 176 169 173 173 169 171 172 173 177 178 174 171 174 175 173 172 176 173 172 173 174 174 174 170 168 170 174 175 176 173 172 172 175 171 171 168 167 167 174 170 175 174 170 178 170 172 173 174 172 170 168 176 168 169 179 172 175 172 166 179 176 183 160 170 166 168 173 172 173 174 173 173 177 158 170
157 158 168 162 161 161 163 159 158 161 165 157 155 159 167 167 161 166 170 164 157 159 166 160 162 161 160 158 163 163 159 168 162 163 161 160 160 166 159 158 163 164 162 160 161 168 167 159 165 162 166 166 166 162 165 168 166 165 163 169 165 167 167 163 167 166 160 160 165 166 165 160 160 165 163 165 168 167 163 169 163 159 169 164 162 164 164 166 166 163 165 160 162 163 164 165 161 157 170 163 165 167 160 164 157 157 171 161 160 158 163 169 159 168 168 153 161 153 167 173
143 148 149 148 154 149 150 151 155 152 148 154 146 148 150 155 149 154 152 165 154 147 154 152 153 150 148 158 160 156 159 152 151 149 153 152 150 154 153 156 150 154 159 157 151 154 155 156 155 159 160 159 162 157 156 160 160 157 158 158 161 155 160 156 162 159 158 150 158 156 154 158 158 162 157 165 161 157 158 153 157 155 153 155 156 155 157 155 158 156 156 159 150 161 163 153 151 154 153 155 156 159 149 157 158 150 151 154 154 153 151 160 153 159 158 149 153 148 153 146
139 141 143 141 146 146 140 149 147 144 146 147 147 146 147 145 143 149 143 151 156 151 151 151 153 145 152 149 151 147 149 150 144 148 151 146 148 150 146 150 150 152 148 149 149 151 151 145 151 152 153 154 150 151 155 144 153 149 153 155 151 157 148 157 148 153 153 150 152 151 151 154 148 151 150 151 157 161 156 151 151 155 156 150 148 150 155 151 153 149 153 154 155 155 155 152 148 148 158 150 154 152 156 158 153 152 147 150 152 147 146 152 159 150 170 149 155 157 148 131
137 136 140 138 135 135 138 139 136 138 144 142 141 137 137 135 148 139 143 148 142 143 146 142 139 147 147 146 144 144 124 132 141 142 139 131 146 141 148 145 147 141 144 148 142 147 142 129 147 147 142 147 144 143 133 132 148 148 147 145 145 143 144 149 145 146 150 151 144 147 147 145 145 144 148 145 151 146 149 146 140 146 145 129 142 142 148 143 147 146 149 147 145 145 150 150 142 144 150 151 143 142 150 137 145 141 137 142 137 138 132 141 142 144 152 151 135 134 135 131
129 134 130 130 133 138 139 139 137 136 136 0 133 140 132 137 138 139 141 143 146 142 141 141 140 144 147 138 139 129 138 129 129 130 140 132 140 126 141 139 129 146 142 140 142 131 132 130 138 139 129 142 134 145 136 142 145 144 134 132 132 131 131 145 143 128 146 143 135 129 131 142 131 145 145 144 147 141 142 146 148 130 125 132 143 141 141 140 143 141 139 140 145 144 143 148 142 142 145 139 140 143 141 138 143 139 129 137 143 139 136 139 137 133 140 137 137 126 136 136
134 130 130 134 134 141 140 135 139 140 133 133 142 139 135 134 124 140 137 126 142 145 137 140 140 136 139 136 138 126 128 128 129 128 127 129 127 129 130 129 140 140 131 129 0 133 129 131 128 121 124 129 132 135 0 142 0 135 131 123 130 132 135 135 141 127 141 129 140 141 127 131 129 141 131 129 133 129 139 139 128 132 139 141 140 137 130 128 142 141 134 141 141 136 139 123 144 138 142 145 136 134 138 141 139 134 131 131 141 142 131 138 138 141 141 150 140 154 152 158
111 101 123 108 125 127 138 119 115 111 120 116 117 132 123 122 117 126 122 118 118 127 130 124 121 139 139 137 0 129 129 117 124 122 120 118 127 128 124 124 125 128 126 131 0 0 129 127 129 121 119 121 125 128 124 127 131 127 124 123 125 122 126 128 125 126 128 132 121 126 126 126 121 123 117 123 119 130 122 126 127 120 122 127 117 129 120 125 123 121 120 124 127 124 122 120 125 137 136 126 132 119 119 120 121 111 115 120 112 118 132 128 134 138 117 126 113 134 114 121
111 116 121 112 114 119 122 121 127 116 117 121 121 119 117 114 115 124 123 121 125 123 137 121 124 124 131 126 125 123 130 0 125 120 116 112 117 125 0 122 127 124 0 0 0 0 125 126 122 123 125 122 124 123 123 127 121 124 124 116 125 123 117 121 124 125 126 124 120 116 124 118 127 122 118 119 118 128 126 125 122 116 123 122 117 121 125 122 126 121 112 121 120 126 120 120 124 123 121 121 120 119 120 116 113 120 124 115 124 137 128 132 130 137 135 130 130 111 113 154
108 100 115 116 112 105 111 112 112 112 117 111 116 109 119 111 118 109 117 122 115 113 105 120 119 116 117 118 114 120 122 0 116 120 116 110 113 0 114 115 120 0 0 121 124 0 121 118 114 112 116 117 120 119 120 120 120 120 115 119 120 120 119 120 119 121 121 117 119 115 116 120 113 114 116 106 119 114 117 121 114 118 113 119 114 114 120 115 115 123 115 114 121 116 106 117 121 120 113 117 120 115 119 110 116 108 117 121 103 120 126 127 112 125 119 134 112 114 95 122
92 103 106 101 99 103 108 108 101 114 115 108 112 106 122 117 113 110 104 104 110 104 108 102 109 108 115 117 116 109 118 116 111 111 111 110 107 116 0 113 115 111 110 107 108 116 115 0 115 0 113 110 118 117 0 0 105 105 116 111 120 116 106 110 108 108 109 112 116 107 112 105 113 102 105 106 109 106 102 109 108 106 102 105 111 102 109 111 110 114 106 109 104 107 108 114 117 111 105 106 107 107 118 103 109 102 105 113 107 118 109 112 105 106 97 107 101 89 88 111
104 94 110 110 103 105 108 108 111 110 106 113 111 116 113 117 111 114 111 98 104 97 97 105 116 106 112 112 101 115 108 107 106 104 111 112 114 0 106 113 110 111 111 101 105 106 107 109 116 0 112 116 107 118 108 117 103 106 114 110 101 112 116 0 116 107 107 109 108 109 107 102 106 110 101 100 105 104 100 106 108 104 105 110 95 108 98 105 107 103 106 114 104 98 95 106 106 100 110 110 107 109 114 115 103 97 106 101 101 112 105 99 119 121 111 106 97 127 130 94
93 91 104 109 97 94 99 97 92 88 102 99 100 100 102 103 97 100 101 102 105 101 87 103 100 103 106 97 98 103 106 104 103 103 104 97 102 106 102 103 105 100 95 94 100 101 104 100 107 98 108 104 103 106 104 105 96 100 103 102 101 110 101 0 109 105 0 109 98 104 102 101 96 104 103 105 100 101 0 102 0 103 95 97 101 100 98 100 102 102 99 98 99 101 95 90 94 99 105 94 99 99 99 104 106 101 95 98 86 92 91 91 89 114 94 88 83 118 86 127
86 92 89 98 93 98 96 91 94 98 96 100 96 97 104 100 95 91 106 95 97 92 94 88 98 93 102 102 99 100 102 106 102 100 100 103 97 100 97 100 100 103 95 97 100 97 107 99 103 103 107 98 98 101 96 98 98 105 102 104 105 100 105 100 112 105 105 106 107 98 98 102 103 100 96 98 102 97 98 98 0 105 94 89 103 97 98 110 95 96 104 105 99 104 96 98 91 94 87 101 96 91 99 93 93 102 99 91 95 101 85 88 102 83 84 97 97 85 80 95
90 96 92 98 91 90 94 85 85 89 94 95 96 89 92 83 95 93 104 106 103 95 82 96 95 93 95 95 90 103 98 98 103 93 98 103 98 95 99 107 97 92 93 89 102 96 100 98 92 98 103 95 86 90 94 102 89 94 97 98 97 99 99 0 98 101 99 94 96 96 98 101 104 99 84 103 100 98 98 107 97 95 90 111 96 96 90 92 90 96 100 95 99 82 89 91 95 88 104 90 97 98 100 93 101 100 100 84 92 86 96 94 101 94 104 83 132 98 102 85
86 80 78 79 88 82 90 88 87 89 83 89 96 89 91 89 88 84 83 92 90 91 90 93 91 86 96 88 89 96 89 90 97 93 87 92 85 94 94 93 88 99 96 97 88 97 89 91 91 96 97 94 98 95 94 99 94 98 91 94 88 96 92 90 99 95 91 96 91 93 95 93 95 91 86 98 90 99 93 95 89 97 90 94 86 86 93 96 92 91 94 89 95 89 91 93 94 91 87 94 85 89 91 80 91 81 88 85 89 87 83 85 84 84 90 87 85 82 94 85
91 79 86 82 88 84 84 102 90 88 88 84 88 93 92 91 88 91 92 87 92 92 91 92 93 91 94 87 90 87 89 92 100 93 101 87 89 93 96 97 88 91 91 90 94 96 91 94 89 95 99 89 96 91 91 99 96 95 98 94 90 94 96 93 89 99 98 92 86 92 97 89 95 98 93 89 98 96 83 99 93 87 93 96 96 87 93 92 88 90 94 95 100 90 90 87 90 83 88 98 87 90 91 93 91 90 89 81 89 79 91 88 88 86 100 88 81 88 0 0
86 87 83 92 92 84 87 85 86 0 82 82 83 86 90 79 89 88 91 93 93 92 89 97 79 89 91 85 90 88 88 86 90 96 97 91 93 93 95 93 95 90 93 83 96 89 95 96 88 97 91 94 94 96 93 95 88 98 99 99 92 98 95 96 89 89 93 94 93 88 88 93 82 94 94 90 88 93 88 97 94 93 89 91 96 90 83 92 99 93 88 98 101 88 91 85 91 84 94 86 82 89 93 88 82 88 91 87 89 84 89 96 90 85 87 86 90 72 77 0
78 80 77 84 85 83 91 88 84 78 82 80 86 91 88 85 85 87 82 83 86 90 89 82 87 82 89 86 93 85 87 89 86 87 88 89 88 88 92 90 93 86 95 96 99 86 96 96 92 89 95 93 85 85 97 97 92 93 96 91 88 91 92 84 89 94 90 81 89 88 89 92 91 92 91 83 97 94 90 81 79 87 91 89 86 89 86 90 95 85 95 85 84 86 82 75 83 89 84 91 78 77 88 81 81 86 87 83 79 83 79 89 86 86 82 69 83 77 0 0
82 78 76 78 87 87 90 94 90 89 86 77 92 85 80 85 80 90 90 91 84 94 88 84 80 82 85 88 85 92 90 85 89 93 93 86 92 88 84 88 92 81 90 95 92 93 94 90 92 96 89 91 92 82 89 86 94 94 89 97 94 96 84 96 88 98 84 83 90 92 94 87 90 92 95 88 88 94 96 85 88 87 92 87 93 93 92 91 95 89 88 91 81 84 88 87 86 84 94 94 79 91 82 80 87 90 84 93 93 82 88 93 91 81 95 99 0 0 0 0
80 71 65 61 77 82 82 86 83 75 82 80 74 86 82 76 81 75 80 80 89 76 77 76 80 75 83 86 80 80 87 70 80 83 85 77 84 79 85 75 84 80 81 73 74 77 78 87 82 80 86 75 75 89 81 81 84 86 88 79 82 80 77 81 78 76 71 79 79 73 83 87 83 79 84 85 79 83 87 85 80 79 71 79 78 82 80 78 80 76 81 71 84 73 81 82 74 84 70 74 74 75 74 54 74 71 79 82 62 86 77 75 80 69 53 86 0 0 0 0
71 65 84 76 69 80 87 88 82 80 80 87 73 75 76 85 86 83 74 79 73 82 69 78 86 81 74 76 83 81 82 79 78 79 83 69 79 80 82 78 88 81 84 88 83 85 85 80 85 83 78 73 80 75 85 79 86 82 76 81 88 81 84 78 77 79 81 80 90 75 68 77 82 79 87 82 80 87 82 87 85 73 79 76 67 74 77 68 89 94 73 83 68 78 82 78 85 81 69 79 89 74 71 66 69 79 75 90 70 80 83 82 71 84 85 0 0 0 0 0
