0 0 0 0 0 0 0 0 0 0 0 0 0 0 0 0 0 0 0 0 0 0 0 0 0 0 0 0 0 0 0 0 0 0 0 0 0 0 0 0 0 0 0 0 0 0 0 0 0 0 0 0 0 0 0 0 0 0 0 0 0 0 0 0 0 0 0 0 0 0 0 0 0 0 0 0 0 0 0 0 0 0 0 0 0 0 0 0 0 0 0 0 0 0 0 0 0 0 0 0 0 0 0 0 0 0 0 0 0 0 0 0 0 0 0 0 0 0 0 0
0 0 0 0 0 0 0 0 0 0 0 0 0 0 0 0 0 0 0 0 0 0 0 0 0 0 0 0 0 0 0 0 0 0 0 0 0 0 0 0 0 0 0 0 0 0 0 0 0 0 0 0 0 0 0 0 0 0 0 0 0 0 0 0 0 0 0 0 0 0 0 0 0 0 0 0 0 0 0 0 0 0 0 0 0 0 0 0 0 0 0 0 0 0 0 0 0 0 0 0 0 0 0 0 0 0 0 0 0 0 0 0 0 0 0 0 0 0 0 0
0 0 0 0 0 0 0 0 0 0 0 0 0 0 0 0 0 1242 0 0 0 0 1252 0 0 0 0 0 0 0 0 0 0 0 0 0 0 0 0 0 0 0 0 0 0 0 0 0 0 0 0 0 0 0 0 0 0 0 0 0 0 0 0 0 0 0 0 0 0 0 0 0 0 0 0 0 0 0 0 0 0 0 0 0 0 0 0 0 0 0 0 0 0 0 0 0 0 0 0 0 0 0 0 0 0 0 0 0 0 0 0 0 0 0 0 0 0 0 0 0
0 0 0 0 0 0 0 0 0 0 0 1143 1149 0 0 0 1280 1311 0 0 0 0 1290 0 0 0 0 0 0 0 0 0 0 0 0 0 0 0 0 0 0 0 0 0 0 0 0 0 0 0 0 0 0 0 0 0 0 0 0 0 0 0 0 0 0 0 0 0 0 0 0 0 0 0 0 0 0 0 0 0 0 0 0 0 0 0 0 0 0 0 0 0 0 0 0 0 0 0 0 0 0 0 0 0 0 0 0 0 0 0 0 0 0 0 0 0 0 0 0 0
0 0 0 0 0 0 0 0 1093 1086 1119 1096 1119 1148 1135 0 1266 1268 1289 0 1218 1238 1254 0 0 0 0 0 0 0 0 0 0 0 0 0 0 0 0 0 0 0 0 0 0 0 0 0 0 0 0 0 0 0 0 0 0 0 0 0 0 0 0 0 0 0 0 0 0 0 0 0 0 0 0 0 0 0 0 0 0 0 0 0 0 0 0 0 0 0 0 0 0 0 0 0 0 0 0 0 0 0 0 0 0 0 0 0 0 0 0 0 0 0 0 0 0 0 0 0
0 0 0 0 0 0 0 1150 1080 1112 1116 0 1134 1151 1154 1227 1236 1238 1270 1237 1253 1258 1258 1291 0 0 0 0 0 0 0 1416 0 0 0 0 0 0 0 0 0 0 0 0 0 0 0 0 0 0 0 0 0 0 0 0 0 0 0 0 0 0 0 0 0 0 0 0 0 0 0 0 0 0 0 0 0 0 0 0 0 0 0 0 0 0 0 0 0 0 0 0 0 0 0 0 0 0 0 0 0 0 0 0 0 0 0 0 0 0 0 0 0 0 0 0 0 0 0 0
0 0 0 0 0 0 0 0 0 0 0 0 1201 1193 1233 1243 1249 1311 1265 1250 1236 1234 1278 1239 0 0 0 0 0 0 0 1389 0 0 0 0 0 0 0 0 0 0 0 0 0 0 0 0 0 0 0 0 0 0 0 0 0 0 0 0 0 0 0 0 0 0 0 0 0 0 0 0 0 0 0 0 0 0 0 0 0 0 0 0 0 0 0 0 0 0 0 0 0 0 0 0 0 0 0 0 0 0 0 0 0 0 0 0 0 0 0 0 0 0 0 0 0 0 0 0
0 0 0 0 0 0 0 0 0 0 0 0 1231 1245 1273 1274 1275 1261 1254 1265 1266 1249 1268 1283 0 1333 1309 1339 1310 1310 0 1404 0 0 0 0 0 0 0 0 0 0 0 0 0 0 0 0 0 0 0 0 0 0 0 0 0 0 0 0 0 0 0 0 0 0 0 0 0 0 0 0 0 0 0 0 0 0 0 0 0 0 0 0 0 0 0 0 0 0 0 0 0 0 0 0 0 0 0 0 0 0 0 0 0 0 0 0 0 0 0 0 0 0 0 0 0 0 0 0
0 0 0 0 0 0 0 0 0 0 0 0 1260 1284 1274 1296 1309 1277 1287 1296 1258 1285 1283 1269 0 0 1380 1378 1370 1353 1411 1427 0 0 0 0 0 0 0 0 0 0 0 0 0 0 0 0 0 0 0 0 0 0 0 0 0 0 0 0 0 0 0 0 0 0 0 0 0 0 0 0 0 0 0 0 0 0 0 0 0 0 0 0 0 0 0 0 0 0 0 0 0 0 0 0 0 0 0 0 0 0 0 0 0 0 0 0 0 0 0 0 0 0 0 0 0 0 0 0
0 0 0 0 0 0 0 0 0 0 0 0 0 0 1271 1328 1283 1261 1287 1269 1239 1271 1293 1273 1278 0 0 1340 1341 1344 1369 1434 1424 0 0 0 0 0 0 0 0 0 0 0 0 0 0 0 0 0 0 0 0 0 0 0 0 0 0 0 0 0 0 0 0 0 0 0 0 0 0 0 0 0 0 0 0 0 0 0 0 0 0 0 0 0 0 0 0 0 0 0 0 0 0 0 0 0 0 0 0 0 0 0 0 0 0 0 0 0 0 0 0 0 0 0 0 0 0 0
0 0 0 0 0 0 0 0 0 0 0 0 0 0 0 0 0 0 0 0 0 1267 1284 1276 1291 0 0 1391 1345 1382 1388 1439 1467 0 0 0 0 0 0 0 0 0 0 0 0 0 0 0 0 0 0 0 0 0 0 0 0 0 0 0 0 0 0 0 0 0 0 0 0 0 0 0 0 0 0 0 0 0 0 0 0 0 0 0 0 0 0 0 0 0 0 0 0 0 0 0 0 0 0 0 0 0 0 0 0 0 0 0 0 0 0 0 0 0 0 0 0 0 0 0
0 0 0 0 0 0 0 0 0 0 0 0 0 0 0 0 0 0 0 0 0 0 0 1352 1341 0 0 1307 1318 1370 1353 1378 1431 0 0 0 0 0 0 0 0 0 0 0 0 0 0 0 0 0 0 0 0 0 0 0 0 0 0 0 0 0 0 0 0 0 0 0 0 0 0 0 0 0 0 0 0 0 0 0 0 0 0 0 0 0 0 0 0 0 0 0 0 0 0 0 0 0 0 0 0 0 0 0 0 0 0 1734 1740 0 0 0 0 0 0 0 0 0 0 0
0 0 0 0 0 0 0 0 0 0 0 0 0 0 0 0 0 0 0 0 0 0 0 1385 1362 1296 1248 0 1335 1327 1329 1397 1405 0 0 0 0 0 0 0 0 0 0 0 0 0 0 0 0 0 0 0 0 0 0 0 0 0 0 0 0 0 0 0 0 0 0 0 0 0 0 0 0 0 0 0 0 0 0 0 0 0 0 0 0 0 0 0 0 0 0 0 0 0 0 0 0 0 0 0 0 0 0 0 0 0 1689 1734 0 0 0 0 0 0 0 0 0 0 0 0
0 0 0 0 0 0 0 0 0 0 0 0 0 0 0 0 0 0 0 0 0 0 0 1346 1364 1357 1319 1302 1327 1327 1372 1387 1428 0 0 0 0 0 0 0 0 0 0 0 0 0 0 0 0 0 0 0 0 0 0 0 0 0 0 0 0 0 0 0 0 0 0 0 0 0 0 0 0 0 0 0 0 0 0 0 0 0 0 0 0 0 0 0 0 0 0 0 0 0 0 0 0 0 0 0 0 0 0 0 0 1704 1741 1656 1654 0 0 0 0 0 0 0 0 0 0 0
0 0 0 0 0 0 0 0 0 0 0 0 0 0 0 0 0 0 0 0 0 0 0 1340 1375 1375 1362 1322 1336 1338 1361 1391 1414 0 0 0 0 0 0 0 0 0 0 0 0 0 0 0 0 0 0 0 0 0 0 0 0 0 0 0 0 0 0 0 0 0 0 0 0 0 0 0 0 0 0 0 0 0 0 0 0 0 0 0 0 0 0 0 0 0 0 0 0 0 0 0 0 0 0 0 0 0 0 0 0 0 1718 0 0 0 0 0 0 0 0 0 0 0 0 0
0 0 0 0 0 0 0 0 0 0 0 0 0 0 0 0 0 0 0 0 0 0 0 1396 1347 1362 1368 1353 1356 1325 1368 1404 1435 0 0 0 0 0 0 0 0 0 0 0 0 0 0 0 0 0 0 0 0 0 0 0 0 0 0 0 0 0 0 0 0 0 0 0 0 0 0 0 0 0 0 0 0 0 0 0 0 0 0 0 0 0 0 0 0 0 0 0 0 0 0 0 0 0 0 0 0 0 0 0 0 1742 0 1673 1692 0 0 0 0 1617 0 0 0 0 0 0
1249 1291 1288 1291 1301 1312 1337 0 0 0 0 0 0 0 0 0 0 0 0 0 0 0 0 0 1373 1393 1373 1370 1382 1390 1372 1413 1428 0 0 0 0 0 0 0 0 0 0 0 0 0 0 0 0 0 0 0 0 0 0 0 0 0 0 0 0 0 0 0 0 0 0 0 0 0 0 0 0 0 0 0 0 0 0 0 0 0 0 0 0 0 0 0 0 0 0 0 0 0 0 0 0 0 0 0 0 0 0 0 1731 1708 1750 1745 1727 1728 0 0 1634 0 0 0 0 0 0 0
1281 1278 1280 1273 1292 1300 1311 1315 1357 1323 1359 0 0 0 0 0 0 0 0 0 0 0 0 1342 1342 1364 1371 1371 1384 1372 1384 1449 1458 0 0 0 0 0 0 0 0 0 0 0 0 0 0 0 0 0 0 0 0 0 0 0 0 0 0 0 0 0 0 0 0 0 0 0 0 0 0 0 0 0 0 0 0 0 0 0 0 0 0 0 0 0 0 0 0 0 0 0 0 0 0 0 0 0 0 0 0 0 0 1810 1823 1813 1746 1730 1716 1740 1704 1712 0 0 0 0 0 0 0 0
1271 1275 1256 1290 1284 1294 1319 1311 1319 1356 1368 1354 1393 1359 1425 1403 0 0 0 0 0 0 0 0 0 1368 0 0 1426 0 0 1444 1417 0 0 0 0 0 0 0 0 0 0 0 0 0 0 0 0 0 0 0 0 0 0 0 0 0 0 0 0 0 0 0 0 0 0 0 0 0 0 0 0 0 0 0 0 0 0 0 0 0 0 0 0 0 0 0 0 0 0 0 0 0 0 0 0 0 0 0 0 0 0 1814 1742 1777 1689 1678 1699 1661 1664 1656 0 0 0 0 0 0 0 0
0 0 0 0 1310 1305 1310 1318 1322 1333 1322 1377 1377 1374 1386 1418 1418 1429 1423 1493 0 0 0 0 0 0 0 0 0 0 0 1445 1425 1446 0 0 0 0 0 0 0 0 0 0 0 0 0 0 0 0 0 0 0 0 0 0 0 0 0 0 0 0 0 0 0 0 0 0 0 0 0 0 0 0 0 0 0 0 0 0 0 0 0 0 0 0 0 0 0 0 0 0 0 0 0 0 0 0 0 0 0 0 0 1823 1791 1744 1724 1700 1668 1677 1653 0 0 0 0 0 0 0 0 0
0 0 0 0 0 0 0 0 0 1291 1334 1344 1360 1363 1382 1399 1398 1402 1438 1431 1439 1421 0 0 0 0 0 0 0 0 0 1423 1505 1440 0 0 0 0 0 0 0 0 0 0 0 0 0 0 0 0 0 0 0 0 0 0 0 0 0 0 0 0 0 0 0 0 0 0 0 0 0 0 0 0 0 0 0 0 0 0 0 0 0 0 0 0 0 0 0 0 0 0 0 0 0 0 0 0 0 0 0 0 0 1723 1641 1638 1621 1568 1576 1540 1598 1558 1559 1541 1547 0 0 0 0 0
0 0 0 0 0 0 0 0 0 0 0 0 0 0 0 1372 1414 1428 1427 1490 1423 1431 0 0 0 0 0 0 0 0 0 0 1469 0 0 0 0 0 0 0 0 0 0 0 0 0 0 0 0 0 0 0 0 0 0 0 0 0 0 0 0 0 0 0 0 0 0 0 0 0 0 0 0 0 0 0 0 0 0 0 0 0 0 0 0 0 0 0 0 0 0 0 0 0 0 0 0 0 0 0 0 1734 1606 1634 1598 1599 1569 1589 1574 1604 1567 1599 1542 1531 1561 0 0 0 0 0
0 0 0 0 0 0 0 0 0 0 0 0 0 0 0 0 0 0 0 0 0 1429 0 0 0 0 0 0 0 0 0 0 0 0 0 0 0 0 0 0 0 0 0 0 0 0 0 0 0 0 0 0 0 0 0 0 0 0 0 0 0 0 0 0 0 0 0 0 0 0 0 0 0 0 0 0 0 0 0 0 0 0 0 0 0 0 0 0 0 0 0 0 0 0 0 0 0 0 0 0 0 1589 1598 1564 1588 1568 1595 1570 1563 1585 1552 1580 1590 1576 0 0 0 0 0 0
0 0 0 0 0 0 0 0 0 0 0 0 0 0 0 0 0 0 0 0 0 0 0 0 0 0 0 0 0 0 0 0 0 0 0 0 0 0 0 0 0 0 0 0 0 0 0 0 0 0 0 0 0 0 0 0 0 0 0 0 0 0 0 0 0 0 0 0 0 0 0 0 0 0 0 0 0 0 0 0 0 0 0 0 0 0 0 0 0 0 0 0 0 0 0 0 0 0 0 0 0 0 0 1557 1567 1594 1579 1570 1568 1580 1557 1557 0 0 0 0 0 0 0 0
0 0 0 0 0 0 0 0 0 0 0 0 0 0 0 0 0 0 0 0 0 0 0 0 0 0 0 0 0 0 0 0 0 0 0 0 0 0 0 0 0 0 0 0 0 0 0 0 0 0 0 0 0 0 0 0 0 0 0 0 0 0 0 0 0 0 0 0 0 0 0 0 0 0 0 0 0 0 0 0 0 0 0 0 0 0 0 0 0 0 0 0 0 0 0 0 0 0 0 0 0 0 0 0 0 0 0 1572 1596 0 0 0 0 0 0 0 0 0 0 0
0 0 0 0 0 0 0 0 0 0 0 0 0 0 0 0 0 0 0 0 0 0 0 0 0 0 0 0 0 0 0 0 0 0 0 0 0 0 0 0 0 0 0 0 0 0 0 0 0 0 0 0 0 0 0 0 0 0 0 0 0 0 0 0 0 0 0 0 0 0 0 0 0 0 0 0 0 0 0 0 0 0 0 0 0 0 0 0 0 0 0 0 0 0 0 0 0 1683 0 0 0 0 0 0 0 0 0 0 0 0 0 0 0 0 0 0 0 0 0 0
575 608 0 0 0 0 0 0 0 0 0 0 0 0 0 0 0 0 0 0 0 0 0 0 0 1838 1910 0 0 0 0 0 0 0 0 0 0 0 0 0 0 0 0 0 0 0 0 2914 2920 2903 2934 2893 2877 2899 2861 2924 2909 2946 2909 2942 2878 2868 2870 2894 2898 2900 0 0 0 0 0 0 0 0 0 0 0 0 0 0 0 0 0 0 0 0 0 0 0 0 0 0 0 0 0 1756 1704 0 0 0 0 0 0 0 0 0 0 0 0 0 0 0 0 0 0 0 0 0 0 0
562 600 595 588 594 634 0 0 0 0 0 0 0 0 0 0 0 0 0 0 0 0 0 0 0 0 0 1915 1990 0 0 0 0 0 0 0 0 0 0 0 0 0 0 0 0 0 0 2928 2902 2884 2875 2896 2895 2913 2923 2934 2908 2880 2872 2855 2885 2921 2853 2890 2900 2942 0 0 0 0 0 0 0 0 0 0 0 0 0 0 0 0 0 0 0 0 0 0 0 0 0 0 0 0 0 0 0 0 0 0 0 0 0 0 0 0 0 0 0 0 0 0 0 0 0 0 0 0 0 0
572 575 572 574 611 627 636 634 640 0 0 0 0 0 0 0 0 0 0 0 0 0 0 0 0 0 0 0 0 0 0 0 0 0 0 0 0 0 0 0 0 0 0 0 0 0 0 2992 2950 2958 2913 2919 2923 2917 2945 2915 2958 2937 2852 2886 2956 2937 2963 2950 2975 0 0 0 0 0 0 0 0 0 0 0 0 0 0 0 0 0 0 0 0 0 0 0 0 0 0 0 0 0 0 0 0 0 0 0 0 0 0 0 0 0 0 0 0 0 0 0 0 0 0 0 0 0 0 0
562 598 600 591 620 614 616 651 655 653 659 707 0 0 0 0 0 0 0 0 0 0 0 0 0 0 0 0 0 0 0 0 0 0 0 0 0 0 0 0 0 0 0 0 0 0 0 2933 2972 2957 2999 2894 2948 2935 2981 2912 2915 2919 2877 2905 2928 2962 2900 2949 2936 0 0 0 0 0 0 0 0 0 0 0 0 0 0 0 0 0 0 0 0 0 0 0 0 0 0 0 0 0 0 0 0 0 0 0 0 0 0 0 0 0 0 0 0 0 0 0 0 0 0 0 0 0 0 0
560 582 592 599 623 615 634 629 663 673 672 724 690 726 733 0 0 0 0 0 0 0 0 0 0 0 0 0 0 0 0 0 0 0 0 0 0 0 0 0 0 0 0 0 0 0 0 2936 2958 3013 2911 2934 2929 2935 2898 2949 2954 2933 2940 2962 2915 2915 2943 2924 2952 2903 0 0 0 0 0 0 0 0 0 0 0 0 0 0 0 0 0 0 0 0 0 0 0 0 0 0 0 0 0 0 0 0 0 0 0 0 0 0 0 0 0 0 0 0 0 0 0 0 0 0 0 0 0 0
753 757 748 745 728 672 641 672 653 660 688 686 707 716 731 732 761 772 0 0 0 0 0 0 0 0 0 0 0 0 0 0 0 0 0 0 0 0 0 0 0 0 0 0 0 0 0 2999 2897 2944 2891 2955 2898 2920 2892 2915 2912 2895 2902 2906 2943 2879 2951 2887 2865 0 0 0 0 0 0 0 0 0 0 0 0 0 0 0 0 0 0 0 0 0 0 0 0 0 0 0 0 0 0 0 0 0 0 0 0 0 0 0 0 0 0 0 0 0 0 0 0 0 0 0 0 0 0 0
778 818 810 821 841 863 858 856 841 799 751 746 736 750 754 767 779 789 798 845 825 0 0 0 0 0 0 0 0 0 0 0 0 0 0 0 0 0 0 0 0 0 0 0 0 0 0 2896 2877 2855 2894 2848 2863 2903 2892 2895 2928 2890 2858 2851 2919 2892 2865 2855 2887 2822 0 0 0 0 0 0 0 0 0 0 0 0 0 0 0 0 0 0 0 0 0 0 0 0 0 0 0 0 0 0 0 0 0 0 0 0 0 0 0 0 0 0 0 0 0 0 0 0 0 0 0 0 0 0
803 810 826 838 833 869 898 887 898 903 910 911 931 910 863 800 790 792 793 817 828 858 882 873 0 0 0 0 0 0 0 0 0 0 0 0 0 0 0 0 0 0 0 0 0 0 0 2925 2903 2879 2917 2938 2903 2890 2862 2882 2903 2883 2864 2934 2884 2888 2861 2896 2895 2882 0 0 0 0 0 0 0 0 0 0 0 0 0 0 0 0 0 0 0 0 0 0 0 0 0 0 0 0 0 0 0 0 0 0 0 0 0 0 0 0 0 0 0 0 0 0 0 0 0 0 0 0 0 0
646 0 871 850 860 871 894 892 908 913 940 952 958 953 944 947 950 931 915 874 832 855 889 909 941 931 978 0 0 0 0 0 0 0 0 0 0 0 0 0 0 0 0 0 0 0 0 2873 2935 2887 2889 2914 2860 2881 2833 2860 2936 2894 2866 2879 2837 2876 2878 2852 2889 2847 0 0 0 0 0 0 0 0 0 0 0 0 0 0 0 0 0 0 0 0 0 0 0 0 0 0 0 0 0 0 0 0 0 0 0 0 0 0 0 0 0 0 0 0 0 0 0 0 0 0 0 0 0 0
661 942 977 955 951 961 972 945 933 922 951 952 949 943 955 953 965 948 961 951 956 940 910 917 931 926 1000 973 1046 0 0 0 0 0 0 0 0 0 0 0 0 0 0 0 0 0 0 2914 2907 2940 2912 2905 2907 2912 2910 2900 2868 2890 2876 2879 2846 2853 2886 2874 2866 2933 0 0 0 0 0 0 0 0 0 0 0 0 0 0 0 0 0 0 0 0 0 0 0 0 0 0 0 0 0 0 0 0 0 0 0 0 0 0 0 0 0 0 0 0 0 0 0 0 0 0 0 0 0 0
550 653 0 0 0 0 0 0 0 944 961 964 960 967 939 956 956 948 930 945 949 945 925 924 920 928 929 992 997 1015 1043 0 0 0 0 0 0 0 0 0 0 0 0 0 0 0 0 2960 2956 2926 2913 2941 2903 2973 2976 2917 0 2924 2955 2947 2919 2943 2893 2927 2945 2910 0 0 0 0 0 0 0 0 0 0 0 0 0 0 0 0 0 0 0 0 0 0 0 0 0 0 0 0 0 0 0 0 0 0 0 0 0 0 0 0 0 0 0 0 0 0 0 0 0 0 0 0 0 0
585 585 563 0 1090 1120 1131 1127 1137 1143 1151 1158 1130 1132 1113 1125 1118 1024 0 1018 993 1037 1046 958 1021 1032 1126 1116 1098 1078 1027 0 0 0 0 0 0 0 0 0 0 0 0 0 0 0 0 2927 2976 2918 2929 2939 2945 2879 2937 2904 2925 2925 2886 2907 2943 2968 2853 2927 2879 0 0 0 0 0 0 0 0 0 0 0 0 0 0 0 0 0 0 0 0 0 0 0 0 0 0 0 0 0 0 0 0 0 0 0 0 0 0 0 0 0 0 0 0 0 0 0 0 0 0 0 0 0 0 0
588 602 630 566 0 0 0 0 0 0 0 0 0 0 0 0 0 1014 971 0 0 1129 1106 0 0 1120 1138 1125 1141 1166 1095 0 0 0 0 0 0 0 0 0 0 0 0 0 0 0 0 2927 2933 2908 2916 2927 2956 2955 2944 2975 2875 2928 2925 2934 2916 2886 2942 2934 2879 2906 0 0 0 0 0 0 0 0 0 0 0 0 0 0 0 0 0 0 0 0 0 0 0 0 0 0 0 0 0 0 0 0 0 0 0 0 0 0 0 0 0 0 0 0 0 0 0 0 0 0 0 0 0 0
584 591 573 578 612 0 0 0 0 0 0 0 0 0 0 0 0 953 934 0 0 0 0 0 0 0 0 0 0 0 0 0 0 0 0 0 0 0 0 0 0 0 0 0 0 0 0 2905 2883 2915 2931 2947 2917 2951 2898 2884 2901 2951 2912 2895 2930 2934 2915 2897 2880 0 0 0 0 0 0 0 0 0 0 0 0 0 0 0 0 0 0 0 0 0 0 0 0 0 0 0 0 0 0 0 0 0 0 0 0 0 0 0 0 0 0 0 0 0 0 0 0 0 0 0 0 0 0 0
577 591 605 605 596 664 0 0 0 0 0 0 0 0 0 0 0 1006 0 0 0 0 981 0 0 0 0 0 0 0 0 0 0 0 0 0 0 0 0 0 0 0 0 0 0 0 0 2879 2906 2919 2877 2879 2907 2880 2885 2908 2885 2901 2897 2931 2873 2884 2887 2902 2882 0 0 0 0 0 0 0 0 0 0 0 0 0 0 0 0 0 0 0 0 0 0 0 0 0 0 0 0 0 0 0 0 0 0 0 0 0 0 0 0 0 0 0 0 0 0 0 0 0 0 0 0 0 0 0
590 608 603 647 594 603 0 0 0 0 0 0 0 0 0 0 0 0 0 0 0 0 0 0 0 0 0 0 0 0 0 0 0 0 0 0 0 0 0 0 0 0 0 0 0 0 0 2899 2920 2903 2921 2850 2912 2865 2916 2925 2880 2906 2904 2879 2903 2875 2872 2890 2866 0 0 0 0 0 0 0 0 0 0 0 0 0 0 0 0 0 0 0 0 0 0 0 0 0 0 0 0 0 0 0 0 0 0 0 0 0 0 0 0 0 0 0 0 0 0 0 0 0 0 0 0 0 0 0
583 603 629 647 621 579 643 0 0 0 0 0 0 0 0 0 0 0 0 0 0 0 0 0 0 0 0 0 0 0 0 0 0 0 0 0 0 0 0 0 0 0 0 0 0 0 0 2875 2884 2894 2890 2925 2859 2856 2892 2874 2872 2893 2873 2898 2885 2896 2884 2877 2892 2846 0 0 0 0 0 0 0 0 0 0 0 0 0 0 0 0 0 0 0 0 0 0 0 0 0 0 0 0 0 0 0 0 0 0 0 0 0 0 0 0 0 0 0 0 0 0 0 0 0 0 0 0 0 0
613 607 622 575 602 624 614 0 0 0 0 0 0 0 0 0 0 0 0 0 0 0 0 0 0 0 0 0 0 0 0 0 0 0 0 0 0 0 0 0 0 0 0 0 0 0 0 2935 2893 2905 2931 2932 2880 2915 2867 2913 2868 2904 2889 2858 2877 2873 2861 2858 2875 0 0 0 0 0 0 0 0 0 0 0 0 0 0 0 0 0 0 0 0 0 0 0 0 0 0 0 0 0 0 0 0 0 0 0 0 0 0 0 0 0 0 0 0 0 0 0 0 0 0 0 0 0 0 0
576 560 592 581 595 584 618 0 0 0 0 0 0 0 0 0 2282 0 0 0 920 0 932 948 0 0 0 0 0 0 0 0 0 0 0 0 0 0 0 0 0 0 0 0 0 0 0 2946 2896 2944 2916 2923 2898 2943 2956 2867 2933 2898 2929 2949 2899 2914 2919 2912 2917 2888 0 0 0 0 0 0 0 0 0 0 0 0 0 0 0 0 0 0 0 0 0 0 0 0 0 0 0 0 0 0 0 0 0 0 0 0 0 0 0 0 0 0 0 0 0 0 0 0 0 0 0 0 0 0
599 579 596 605 587 611 576 0 0 0 0 0 0 0 0 0 0 0 0 0 0 0 0 0 0 0 0 0 0 0 0 0 0 0 0 0 0 0 0 0 0 0 0 0 0 0 0 2885 2944 2899 2892 2887 2905 2899 2894 2860 2887 2904 2903 2892 2915 2886 2862 2872 2859 2879 0 0 0 0 0 0 0 0 0 0 0 0 0 0 0 0 0 0 0 0 0 0 0 0 0 0 0 0 0 0 0 0 0 0 0 0 0 0 0 0 0 0 0 0 0 0 0 0 0 0 0 0 0 0
584 613 590 598 614 631 0 0 0 0 0 0 0 0 0 0 0 0 0 0 0 0 0 0 0 0 0 0 0 0 0 0 0 0 0 0 0 0 0 0 0 0 0 0 0 0 0 0 0 0 0 0 0 0 0 0 0 0 0 0 0 2923 3004 2902 2926 0 0 0 0 0 0 0 0 0 0 0 0 0 0 0 0 0 0 0 0 0 0 0 0 0 0 0 0 0 0 0 0 0 0 0 0 0 0 0 0 0 0 0 0 0 0 0 0 0 0 0 0 0 0 0
596 590 597 618 594 636 0 0 0 0 0 0 0 0 0 0 0 0 0 0 0 0 0 0 0 0 0 0 0 0 0 0 0 0 0 0 0 0 0 0 0 0 0 0 0 0 0 0 0 0 0 0 0 0 0 0 0 0 0 0 0 0 0 0 0 0 0 0 0 0 0 0 0 0 0 0 0 0 0 0 0 0 0 0 0 0 0 0 0 0 0 0 0 0 0 0 0 0 0 0 0 0 0 0 0 0 0 0 0 0 0 0 0 0 0 0 0 0 0 0
626 604 609 614 646 0 0 0 0 0 0 0 0 0 0 0 0 0 0 0 0 0 0 0 0 0 0 0 0 0 0 0 0 0 0 0 0 0 0 0 0 0 0 0 0 0 0 0 0 0 0 0 0 0 0 0 0 0 0 0 0 0 0 0 0 0 0 0 0 0 0 0 0 0 0 0 0 0 0 0 0 0 0 0 0 0 0 0 0 0 0 0 0 0 0 0 0 0 0 0 0 0 0 0 0 0 0 0 0 0 0 0 0 0 0 0 0 0 0 0
602 598 606 641 594 0 0 0 0 0 0 0 0 0 0 0 0 0 0 0 0 0 0 0 0 0 0 0 0 0 0 0 0 0 0 0 0 0 0 0 0 0 0 0 0 0 0 0 0 0 0 0 0 0 0 0 0 0 0 0 0 0 0 0 0 0 0 0 0 0 0 0 0 0 0 0 0 0 0 0 0 0 0 0 0 0 0 0 0 0 0 0 0 0 0 0 0 0 0 0 0 0 0 0 0 0 0 0 0 0 0 0 0 0 0 0 0 0 0 0
609 611 617 652 0 0 0 0 0 0 0 0 0 0 0 0 0 0 0 0 0 0 0 0 0 0 865 916 872 902 954 917 942 913 915 920 0 934 0 939 944 929 958 0 0 0 0 0 0 0 0 0 0 0 0 0 0 0 0 0 0 0 0 0 0 0 0 0 0 0 0 0 0 0 0 0 0 0 0 0 0 0 0 0 0 0 0 0 0 0 0 0 0 0 0 0 0 0 0 0 0 0 0 0 0 0 0 0 0 0 0 0 0 0 0 0 0 0 0 0
589 560 617 0 0 0 0 701 670 713 709 700 703 706 733 735 731 781 694 694 753 777 714 738 709 752 733 726 725 740 704 697 728 771 770 747 782 736 757 758 761 750 774 786 738 728 806 775 763 766 732 777 767 739 753 767 796 789 770 796 812 803 792 808 797 759 780 799 820 820 821 843 826 0 0 0 0 0 0 0 0 0 0 0 0 0 0 0 0 0 0 0 0 0 0 0 0 0 0 0 0 0 0 0 0 0 0 0 0 0 0 0 0 0 0 0 0 0 0 0
566 564 558 551 578 532 565 538 540 600 600 605 586 594 582 548 518 572 570 591 578 601 574 590 578 591 599 554 586 576 604 597 609 577 564 611 618 602 583 568 623 616 574 588 601 592 584 615 626 594 594 609 620 639 615 603 613 639 588 641 603 649 614 660 621 647 611 632 644 651 652 649 640 672 636 650 646 612 648 654 658 612 677 670 676 686 644 636 679 693 636 691 642 630 692 0 630 675 586 640 687 678 0 0 0 0 0 0 0 0 0 0 0 0 0 0 0 0 0 0
478 498 505 510 504 486 483 492 499 504 503 498 536 523 515 494 480 507 498 502 511 517 500 518 511 488 502 502 508 511 496 504 532 491 518 506 524 503 521 520 515 491 501 520 512 524 509 517 543 535 501 542 524 523 515 527 556 525 541 520 524 549 542 536 553 545 550 553 527 528 509 553 539 576 541 539 561 550 557 543 561 551 556 548 583 558 569 544 554 549 550 582 589 552 585 578 580 583 559 595 576 595 557 580 0 559 0 622 587 589 0 0 0 0 0 0 0 0 0 0
409 390 426 414 424 434 430 412 435 441 432 431 442 428 439 449 425 436 430 438 470 453 442 443 432 446 447 437 444 444 436 454 446 458 456 461 467 446 472 462 461 452 466 470 468 464 458 457 473 468 462 470 479 468 488 458 491 466 471 461 475 478 479 474 465 487 469 471 469 474 493 470 486 476 472 489 477 480 472 474 487 484 476 473 482 469 482 473 477 491 487 486 488 464 484 503 531 490 466 484 497 481 496 462 492 486 467 470 468 457 497 501 440 0 0 0 0 0 0 0
363 383 394 405 392 393 388 415 397 386 407 390 397 400 404 404 399 401 400 402 394 407 408 399 418 409 413 394 395 423 394 417 417 414 421 420 424 411 410 421 412 413 413 408 418 403 426 417 439 411 417 422 429 423 435 420 428 434 430 426 424 426 420 428 437 448 415 438 426 429 433 415 422 413 434 422 430 445 442 432 435 420 446 456 427 437 436 433 431 433 439 439 425 445 442 440 423 453 444 435 435 441 449 457 432 450 419 424 439 453 447 440 429 434 0 0 0 0 0 0
359 365 349 351 349 370 370 378 353 371 378 365 373 365 373 380 357 377 359 380 369 379 366 374 376 375 375 379 373 369 377 384 373 369 378 369 393 373 379 376 378 373 379 365 368 376 390 379 394 385 376 390 393 386 377 388 375 393 383 398 390 403 375 396 382 388 388 401 395 387 394 398 403 395 393 396 396 398 385 400 407 404 401 408 404 405 392 403 395 396 407 422 410 394 409 409 406 419 410 389 382 384 413 407 426 418 383 395 412 417 398 416 396 417 400 410 0 0 0 0
311 343 312 321 324 340 351 334 337 330 331 343 334 342 341 329 346 332 322 347 322 330 340 338 349 339 337 351 341 339 329 353 349 349 339 338 353 333 342 338 328 343 345 359 340 344 341 349 333 352 359 347 349 354 338 340 348 338 341 343 344 360 346 360 345 344 349 343 348 346 357 357 351 345 358 361 358 361 348 348 348 359 345 358 346 357 350 353 364 357 367 359 352 367 355 345 355 343 349 366 358 356 363 361 339 366 362 370 381 358 340 377 359 371 368 335 360 0 0 0
303 301 290 290 308 293 304 317 297 310 305 295 301 307 301 293 309 313 297 308 298 303 313 306 292 302 312 306 319 311 306 313 302 313 301 315 316 311 312 312 311 326 301 306 313 313 309 300 320 307 305 313 318 309 311 315 303 307 312 320 317 316 318 317 306 325 326 322 313 316 320 316 328 319 314 325 326 312 328 323 322 318 322 325 326 344 328 328 322 322 332 319 328 330 323 342 332 333 327 343 328 326 344 342 327 351 328 332 339 336 336 338 357 349 350 351 359 354 370 0
289 270 269 280 275 287 278 285 284 297 274 278 289 286 289 281 278 278 285 305 279 283 276 275 284 274 276 285 285 278 278 276 278 283 282 284 272 285 282 282 287 282 290 280 281 281 284 288 283 283 287 283 283 286 279 294 288 293 285 286 286 280 282 290 285 288 282 290 288 285 285 294 296 287 288 296 285 288 295 288 290 299 288 292 283 295 283 290 295 290 284 304 297 314 293 295 308 296 295 312 294 296 295 284 289 300 282 300 297 313 297 272 296 301 293 285 284 306 299 284
253 250 247 257 246 255 249 255 259 257 247 252 258 248 267 251 268 255 257 251 257 259 264 249 256 253 257 255 250 260 249 262 253 258 254 261 261 268 271 260 266 258 265 266 261 262 260 254 261 259 265 259 264 259 270 268 261 261 267 264 267 259 259 262 275 268 266 266 274 263 263 272 268 269 267 265 264 271 270 264 268 255 267 274 264 267 268 267 263 253 267 262 272 271 258 259 260 269 272 279 269 260 270 280 269 276 269 270 274 268 255 285 265 261 276 261 287 251 273 297
231 230 232 238 230 235 235 236 239 231 233 231 241 241 241 242 239 242 248 240 235 245 244 240 241 242 239 238 247 252 248 248 243 243 248 240 235 242 248 252 254 243 242 245 247 243 243 246 244 247 248 243 244 248 255 245 247 247 248 247 246 252 251 251 252 247 249 255 250 253 250 253 244 251 248 246 248 251 252 251 247 246 252 255 256 257 261 253 245 247 248 251 249 247 252 251 250 249 253 252 255 253 253 253 249 249 257 247 247 243 261 236 252 248 240 250 251 249 252 261
217 213 222 215 221 220 225 218 217 216 221 220 227 227 221 221 227 225 230 221 228 229 226 230 224 228 218 230 232 226 225 226 226 229 229 231 229 224 230 232 227 226 229 233 234 238 233 236 232 232 232 228 233 227 229 236 228 231 236 234 234 237 235 236 238 231 232 234 231 233 235 233 234 239 228 229 239 231 235 228 236 232 240 229 240 226 244 239 227 231 234 243 239 227 228 225 231 236 234 228 234 244 238 238 230 234 234 236 246 234 230 242 235 233 245 224 238 225 226 224
206 203 219 219 212 204 206 212 204 218 211 210 214 217 212 220 216 210 211 218 214 215 216 210 208 217 216 216 216 215 217 219 215 213 215 212 218 203 225 217 221 218 220 222 219 218 216 206 215 221 215 221 220 220 209 220 206 204 220 223 217 228 223 226 217 220 224 221 218 223 222 223 224 218 221 218 222 221 200 223 220 222 229 224 221 224 220 225 221 221 221 220 225 225 228 219 222 218 225 227 214 218 231 229 218 233 219 224 229 236 223 217 230 217 215 238 220 223 218 218
198 197 196 196 201 201 202 200 198 199 198 204 200 195 190 187 191 189 195 208 188 189 199 192 189 187 188 196 187 188 188 190 195 198 199 199 186 190 198 213 199 199 190 192 196 195 191 191 200 195 195 191 195 201 190 195 199 196 197 198 202 193 201 199 202 196 197 198 200 195 200 201 196 195 198 198 198 193 197 195 189 194 201 195 200 196 196 185 196 210 209 211 208 190 210 212 195 211 212 198 216 209 186 187 214 215 210 202 210 205 215 203 209 219 222 209 205 181 206 182
175 178 193 193 181 177 184 180 176 182 184 177 176 178 181 188 184 187 189 188 181 183 188 186 179 181 185 194 194 195 195 188 192 195 187 191 193 188 193 192 196 198 198 198 187 196 197 197 196 194 194 197 196 196 191 199 197 198 198 200 196 197 195 198 192 194 195 200 199 201 195 192 198 195 196 196 198 193 192 195 195 189 196 186 197 184 196 192 195 195 193 184 191 183 192 190 191 191 188 186 187 190 183 188 183 184 190 190 210 189 201 199 188 195 184 183 199 174 208 177
171 169 177 179 182 178 175 184 180 175 182 184 179 184 183 182 185 188 185 178 186 184 187 188 183 188 189 187 190 189 186 195 184 185 192 181 180 180 185 186 183 184 194 193 188 194 186 191 191 189 186 189 193 190 187 192 189 191 187 187 183 189 190 196 190 194 191 191 189 190 189 189 190 187 190 185 191 191 191 185 193 189 190 194 191 189 190 189 189 190 188 188 188 185 182 187 187 183 178 186 183 184 185 182 185 182 184 179 183 177 184 181 181 205 197 202 181 185 175 181
172 161 161 171 166 167 167 173 165 166 170 174 171 170 172 176 175 176 178 180 176 177 175 171 175 170 174 176 176 175 178 174 179 178 180 169 181 178 178 179 177 180 182 179 182 177 178 179 179 183 180 182 177 180 181 175 183 190 176 181 174 177 184 179 174 180 181 185 181 178 177 182 177 181 180 178 178 184 182 181 178 180 183 179 178 177 179 179 177 187 182 177 176 177 180 183 178 179 186 178 178 178 182 184 179 173 177 184 173 179 176 191 180 169 179 173 167 170 172 170
164 163 165 162 153 162 153 159 163 163 171 167 162 168 167 166 169 170 172 171 164 163 169 168 170 163 169 169 171 169 173 172 167 168 168 170 173 166 171 172 172 165 172 167 172 173 167 170 174 168 167 164 170 168 172 169 170 172 174 169 167 169 170 173 176 175 172 167 171 171 168 170 172 166 176 169 172 175 178 170 171 167 171 168 170 172 168 172 174 166 169 168 173 170 169 169 173 166 173 175 163 167 168 160 180 168 169 168 171 163 169 162 167 173 165 178 178 160 168 151
155 160 162 163 163 155 163 159 156 160 164 158 161 167 165 160 163 163 170 168 159 162 162 166 164 161 162 156 162 164 168 165 165 164 159 163 159 162 162 160 162 163 163 162 157 166 166 164 160 166 160 168 165 162 166 166 164 162 161 172 164 167 164 169 171 166 163 161 167 164 164 164 162 166 166 167 167 162 166 167 166 162 166 161 166 163 168 164 167 166 159 167 166 161 166 162 162 158 168 167 167 166 162 168 166 156 164 153 162 162 169 170 152 162 177 160 178 165 171 155
143 144 151 144 151 149 143 149 154 153 151 145 156 149 151 151 149 155 156 158 152 153 157 159 155 157 150 153 153 158 156 157 150 153 153 154 155 156 155 156 157 155 159 159 160 158 160 152 156 157 156 155 160 162 158 153 159 156 163 157 160 153 158 160 157 162 160 154 157 155 158 157 153 159 157 163 161 161 161 151 161 162 153 157 156 152 157 159 160 160 157 158 153 157 156 155 157 154 153 152 154 160 157 155 159 154 156 158 151 150 153 166 152 163 148 148 155 160 155 119
141 141 147 146 150 147 144 149 145 143 146 148 150 151 148 143 146 153 142 151 154 149 154 148 148 151 145 147 152 145 150 150 149 147 149 148 150 155 150 148 154 149 152 153 150 152 155 152 151 150 150 151 154 150 152 151 154 154 155 158 156 148 155 151 149 154 153 152 152 151 148 154 151 152 153 151 157 160 154 152 153 152 150 147 149 152 149 151 154 151 151 152 155 152 161 152 151 148 159 158 154 154 156 154 150 147 146 149 152 151 156 145 161 153 161 155 151 154 157 128
138 138 137 136 137 141 141 142 142 140 136 140 144 141 139 139 144 140 142 146 142 147 142 152 146 149 151 144 144 140 138 133 146 142 139 143 142 143 145 145 148 149 148 143 151 145 144 146 151 148 147 149 149 148 148 144 146 149 150 149 147 142 143 145 148 143 149 151 150 147 142 146 150 149 147 147 153 155 150 147 144 147 144 141 144 145 149 150 152 145 149 151 143 147 147 149 145 144 152 150 149 146 151 139 142 144 148 143 141 152 142 145 147 150 141 162 141 145 142 141
132 133 133 131 134 141 135 139 138 136 135 0 133 138 137 137 139 139 140 135 146 143 140 141 141 143 0 142 131 141 129 128 142 129 139 127 132 125 129 139 142 147 141 129 142 131 130 143 128 126 133 144 133 142 144 144 145 134 147 133 130 136 133 148 143 129 132 144 143 140 141 133 136 140 140 142 148 140 143 144 150 140 129 140 146 142 142 144 131 141 126 140 142 144 142 138 142 146 143 142 146 141 133 139 139 126 131 142 142 137 139 140 132 134 136 138 133 137 153 148
132 127 129 133 131 136 145 135 136 134 137 132 142 136 138 125 129 140 137 126 141 141 140 137 142 138 140 136 138 124 128 127 129 128 127 128 129 130 127 128 138 139 142 131 0 141 128 125 130 123 126 130 131 133 0 141 0 132 140 145 133 129 132 132 141 130 142 127 141 141 131 123 129 130 130 131 134 133 141 130 138 130 128 141 130 130 137 124 141 140 136 141 141 139 139 127 138 143 141 144 135 122 135 123 136 137 123 136 136 140 129 139 137 146 137 128 132 156 148 143
116 103 123 104 125 127 136 130 117 111 118 116 124 123 124 126 122 125 122 120 120 126 129 127 125 137 127 138 0 130 125 121 118 122 120 115 126 126 126 120 130 127 129 130 0 0 130 126 128 122 124 120 126 130 124 127 133 129 129 121 125 120 129 127 119 126 129 127 125 129 126 126 123 122 115 124 123 132 125 127 128 126 122 128 120 130 117 127 128 126 123 127 121 125 125 116 126 138 135 129 130 122 122 125 119 126 113 123 129 131 116 133 139 140 138 123 117 132 143 101
113 108 107 107 112 130 121 118 128 122 119 119 116 121 115 111 106 120 123 123 127 125 126 120 121 118 130 126 126 125 129 0 125 122 118 116 123 122 0 119 124 122 0 0 0 0 122 128 123 123 124 126 125 121 119 126 122 123 124 121 125 123 113 125 125 124 129 122 119 120 122 119 123 125 118 118 124 125 127 122 120 116 120 125 117 120 121 122 126 128 117 121 120 125 122 121 126 122 119 122 122 120 122 119 109 118 117 119 129 122 118 133 122 122 109 127 120 125 104 146
107 99 111 117 108 110 116 117 110 111 117 113 112 111 110 117 117 115 115 122 116 110 109 119 116 113 121 118 119 122 122 0 117 120 113 112 116 0 114 117 125 0 0 119 125 0 120 118 114 114 118 117 122 119 120 122 120 115 116 116 124 119 121 118 119 124 124 120 120 116 114 120 113 117 117 114 120 112 119 122 112 118 114 118 114 116 120 117 115 120 116 116 115 117 108 117 126 120 114 121 118 122 111 112 113 110 114 115 111 134 110 110 112 133 123 119 125 112 99 138
97 101 106 101 100 101 114 114 103 108 103 108 106 110 124 115 118 110 108 107 114 105 112 99 112 110 111 114 116 112 119 116 114 111 115 113 107 112 114 115 115 115 113 108 113 115 117 0 113 0 116 109 118 115 0 0 108 107 116 113 121 118 106 111 103 113 112 111 116 108 114 105 109 105 102 110 106 108 108 111 111 110 111 113 112 107 113 107 106 110 109 106 99 111 106 114 114 115 104 103 104 107 115 107 107 107 102 107 109 115 105 111 100 106 111 113 90 91 90 89
106 102 111 109 103 104 108 106 108 111 105 111 111 110 118 119 112 114 113 98 106 98 106 107 110 113 111 109 109 118 110 108 110 106 117 113 115 0 105 111 105 108 113 108 112 107 107 110 115 0 110 114 109 113 109 114 108 109 114 112 108 111 117 0 114 106 109 112 110 107 107 97 106 113 100 104 103 102 100 107 109 102 107 111 102 106 99 105 105 106 104 112 104 104 102 103 108 110 110 106 106 112 108 113 110 106 104 115 101 106 106 96 120 113 114 104 98 114 129 122
91 92 108 108 100 94 99 97 94 89 100 99 102 101 105 106 96 104 106 102 104 102 94 102 105 105 106 102 99 107 107 107 103 103 108 102 102 109 103 105 103 104 98 103 98 106 105 101 107 98 109 105 108 105 101 107 99 105 107 101 105 108 108 0 109 108 0 109 104 105 102 103 100 106 106 107 102 101 0 100 0 103 95 102 99 100 100 96 104 104 102 102 94 102 99 93 99 101 105 102 101 98 98 104 104 106 93 101 102 100 95 108 99 109 109 95 98 122 108 120
88 91 90 93 88 98 98 91 94 92 100 98 100 100 100 97 100 95 108 94 96 94 90 89 97 100 102 97 101 99 107 104 104 101 100 103 99 102 104 99 104 98 98 93 97 101 106 100 105 104 106 98 96 105 97 98 99 107 102 103 107 99 109 102 111 106 108 106 103 101 100 101 102 98 94 98 100 96 96 96 0 103 97 88 99 97 94 111 92 101 100 92 102 99 97 104 89 98 95 109 96 95 95 91 95 99 102 95 104 98 90 91 85 90 90 116 92 101 87 114
97 101 93 97 92 93 94 84 91 96 93 102 99 87 95 90 93 95 109 108 104 98 90 88 97 93 100 92 96 107 100 99 104 100 101 104 99 99 97 105 97 97 91 93 101 93 102 102 91 100 100 94 100 93 92 102 92 93 100 99 97 99 101 0 100 102 97 98 98 97 100 99 97 101 86 107 101 100 100 106 93 102 88 105 97 100 89 91 93 94 90 97 96 82 91 91 98 92 96 90 96 96 99 97 102 96 102 75 92 90 89 94 98 82 123 96 103 96 104 77
85 80 88 80 78 84 81 87 81 90 85 89 96 90 93 93 87 89 95 92 94 93 90 87 92 86 96 91 92 94 88 89 100 91 89 90 88 94 92 93 85 98 96 86 93 98 93 89 93 94 99 93 91 99 97 90 95 98 98 88 89 99 97 95 88 92 93 97 97 97 86 95 98 95 85 96 95 89 98 95 88 95 96 95 97 96 95 96 99 94 93 96 92 90 93 94 94 91 90 94 89 85 91 92 84 83 89 82 90 88 77 79 77 89 85 79 81 83 68 87
87 86 83 88 90 91 94 96 89 91 86 84 90 94 91 90 90 93 92 90 84 93 90 88 92 90 97 91 93 85 91 92 97 90 98 85 87 90 92 96 88 93 94 93 94 97 92 95 90 91 99 96 97 91 90 95 93 99 93 93 98 88 96 96 89 92 89 91 86 92 99 89 97 97 95 98 93 96 87 88 98 90 97 92 93 95 92 91 92 92 97 99 101 86 95 89 90 83 93 94 92 86 90 94 93 96 93 84 88 80 89 82 92 85 93 86 96 98 0 0
81 94 85 84 94 90 87 85 84 0 82 83 86 87 82 81 89 89 90 89 93 94 91 94 92 89 91 93 91 88 90 92 91 96 94 94 87 89 93 94 87 92 95 88 86 97 92 95 98 86 89 96 94 93 91 87 97 96 98 97 98 99 96 88 96 92 97 90 98 95 98 97 83 96 96 90 88 92 97 96 95 95 97 85 93 96 82 98 101 93 92 96 97 89 85 92 92 90 94 85 82 89 89 92 89 85 89 89 91 86 87 90 69 82 81 79 90 76 76 0
73 84 77 87 82 81 91 88 85 82 83 82 85 91 86 87 78 86 87 90 93 90 90 83 87 85 88 88 89 85 86 82 87 92 90 89 90 85 91 94 91 87 92 91 87 86 92 94 93 91 95 97 89 81 96 88 90 94 91 94 90 91 93 89 87 95 87 84 85 98 90 96 93 97 95 86 91 94 90 86 82 85 93 88 90 91 93 89 90 82 95 91 88 86 84 73 87 88 85 88 76 81 87 85 82 91 88 85 73 80 71 89 88 88 81 87 58 109 0 0
78 75 79 81 82 83 94 91 81 87 91 77 86 85 79 85 81 90 88 89 88 92 86 85 83 88 91 87 87 92 89 86 88 88 88 85 90 89 88 93 90 86 85 95 97 88 95 93 95 90 94 90 87 85 83 86 94 97 85 94 94 89 89 96 89 81 88 85 85 97 92 88 92 85 95 91 90 94 95 84 90 92 90 84 92 89 84 87 92 85 92 93 81 85 84 82 94 92 93 85 79 85 87 80 92 90 79 90 90 68 89 84 104 74 84 73 0 0 0 0
76 69 67 65 81 80 81 84 83 76 81 80 81 82 81 80 78 82 78 79 84 75 85 79 89 70 80 81 87 80 86 73 83 81 87 80 82 83 85 74 89 82 81 72 80 83 84 89 91 78 74 84 76 81 86 85 85 89 88 77 85 79 83 86 75 87 77 82 78 84 85 82 82 82 87 80 77 85 86 84 78 83 73 76 75 85 83 84 80 83 87 72 83 79 80 78 81 90 73 87 70 75 81 72 79 74 78 72 79 73 84 68 89 86 104 98 0 0 0 0
68 70 79 79 72 83 85 89 84 76 81 87 73 76 80 84 80 82 81 78 78 78 76 81 86 80 76 68 81 79 83 82 81 81 81 76 80 76 80 81 88 84 88 88 85 88 83 79 83 82 82 72 84 77 84 84 81 82 82 75 85 83 84 84 75 86 82 79 84 73 80 85 88 81 82 76 81 86 90 86 83 80 78 83 71 78 82 71 84 85 68 83 74 78 86 77 90 80 72 77 85 76 72 69 72 74 70 76 84 76 77 76 51 61 75 0 0 0 0 0
