0 0 0 0 0 0 0 0 0 0 0 0 0 0 0 0 0 0 0 0 0 0 0 0 0 0 0 0 0 0 0 0 0 0 0 0 0 0 0 0 0 0 0 0 0 0 0 0 0 0 0 0 0 0 0 0 0 0 0 0 0 0 0 0 0 0 0 0 0 0 0 0 0 0 0 0 0 0 0 0 0 0 0 0 0 0 0 0 0 0 0 0 0 0 0 0 0 0 0 0 0 0 0 0 0 0 0 0 0 0 0 0 0 0 0 0 0 0 0 0
0 0 0 0 0 0 0 0 0 0 0 0 0 0 0 0 0 0 0 0 0 0 0 0 0 0 0 0 0 0 0 0 0 0 0 0 0 0 0 0 0 0 0 0 0 0 0 0 0 0 0 0 0 0 0 0 0 0 0 0 0 0 0 0 0 0 0 0 0 0 0 0 0 0 0 0 0 0 0 0 0 0 0 0 0 0 0 0 0 0 0 0 0 0 0 0 0 0 0 0 0 0 0 0 0 0 0 0 0 0 0 0 0 0 0 0 0 0 0 0
0 0 0 0 0 0 0 0 0 0 0 0 0 0 0 0 1231 1296 0 0 0 0 0 0 0 0 0 0 0 0 0 0 0 0 0 0 0 0 0 0 0 0 0 0 0 0 0 0 0 0 0 0 0 0 0 0 0 0 0 0 0 0 0 0 0 0 0 0 0 0 0 0 0 0 0 0 0 0 0 0 0 0 0 0 0 0 0 0 0 0 0 0 0 0 0 0 0 0 0 0 0 0 0 0 0 0 0 0 0 0 0 0 0 0 0 0 0 0 0 0
0 0 0 0 0 0 0 0 0 0 0 1114 1141 1171 0 0 1262 1287 0 0 0 0 1256 0 0 0 0 0 0 0 0 0 0 0 0 0 0 0 0 0 0 0 0 0 0 0 0 0 0 0 0 0 0 0 0 0 0 0 0 0 0 0 0 0 0 0 0 0 0 0 0 0 0 0 0 0 0 0 0 0 0 0 0 0 0 0 0 0 0 0 0 0 0 0 0 0 0 0 0 0 0 0 0 0 0 0 0 0 0 0 0 0 0 0 0 0 0 0 0 0
0 0 0 0 0 0 0 0 1092 1120 1128 1103 1126 1145 1113 1168 1244 1249 1236 1264 1236 1234 1271 0 0 0 0 0 0 0 0 0 0 0 0 0 0 0 0 0 0 0 0 0 0 0 0 0 0 0 0 0 0 0 0 0 0 0 0 0 0 0 0 0 0 0 0 0 0 0 0 0 0 0 0 0 0 0 0 0 0 0 0 0 0 0 0 0 0 0 0 0 0 0 0 0 0 0 0 0 0 0 0 0 0 0 0 0 0 0 0 0 0 0 0 0 0 0 0 0
0 0 0 0 0 0 0 1131 1111 1130 0 0 1165 1159 1138 1185 1253 1299 1317 1317 1288 1265 1242 1257 0 0 0 0 0 0 0 0 0 0 0 0 0 0 0 0 0 0 0 0 0 0 0 0 0 0 0 0 0 0 0 0 0 0 0 0 0 0 0 0 0 0 0 0 0 0 0 0 0 0 0 0 0 0 0 0 0 0 0 0 0 0 0 0 0 0 0 0 0 0 0 0 0 0 0 0 0 0 0 0 0 0 0 0 0 0 0 0 0 0 0 0 0 0 0 0
0 0 0 0 0 0 0 0 0 0 0 0 1225 1205 1272 1306 1301 1283 1283 1274 1273 1272 1261 1292 1317 0 0 0 1376 0 0 1399 0 0 0 0 0 0 0 0 0 0 0 0 0 0 0 0 0 0 0 0 0 0 0 0 0 0 0 0 0 0 0 0 0 0 0 0 0 0 0 0 0 0 0 0 0 0 0 0 0 0 0 0 0 0 0 0 0 0 0 0 0 0 0 0 0 0 0 0 0 0 0 0 0 0 0 0 0 0 0 0 0 0 0 0 0 0 0 0
0 0 0 0 0 0 0 0 0 0 0 0 1267 1268 1274 1286 1283 1285 1287 1297 1271 1276 1284 1258 0 1324 1352 1372 1345 1343 0 1428 0 0 0 0 0 0 0 0 0 0 0 0 0 0 0 0 0 0 0 0 0 0 0 0 0 0 0 0 0 0 0 0 0 0 0 0 0 0 0 0 0 0 0 0 0 0 0 0 0 0 0 0 0 0 0 0 0 0 0 0 0 0 0 0 0 0 0 0 0 0 0 0 0 0 0 0 0 0 0 0 0 0 0 0 0 0 0 0
0 0 0 0 0 0 0 0 0 0 0 0 1250 1283 1276 1289 1303 1263 1295 1253 1251 1269 1282 1280 0 0 1358 1366 1364 1364 1359 1428 0 0 0 0 0 0 0 0 0 0 0 0 0 0 0 0 0 0 0 0 0 0 0 0 0 0 0 0 0 0 0 0 0 0 0 0 0 0 0 0 0 0 0 0 0 0 0 0 0 0 0 0 0 0 0 0 0 0 0 0 0 0 0 0 0 0 0 0 0 0 0 0 0 0 0 0 0 0 0 0 0 0 0 0 0 0 0 0
0 0 0 0 0 0 0 0 0 0 0 0 0 0 1249 1288 1283 1283 1264 1258 1253 1267 1265 1254 1277 0 0 1342 1351 1374 1372 1424 0 0 0 0 0 0 0 0 0 0 0 0 0 0 0 0 0 0 0 0 0 0 0 0 0 0 0 0 0 0 0 0 0 0 0 0 0 0 0 0 0 0 0 0 0 0 0 0 0 0 0 0 0 0 0 0 0 0 0 0 0 0 0 0 0 0 0 0 0 0 0 0 0 0 0 0 0 0 0 0 0 0 0 0 0 0 0 0
0 0 0 0 0 0 0 0 0 0 0 0 0 0 0 0 0 0 0 0 0 1256 1244 1259 1216 0 0 1303 1328 1328 1390 1361 1377 0 0 0 0 0 0 0 0 0 0 0 0 0 0 0 0 0 0 0 0 0 0 0 0 0 0 0 0 0 0 0 0 0 0 0 0 0 0 0 0 0 0 0 0 0 0 0 0 0 0 0 0 0 0 0 0 0 0 0 0 0 0 0 0 0 0 0 0 0 0 0 0 0 0 0 0 0 0 0 0 0 0 0 0 0 0 0
0 0 0 0 0 0 0 0 0 0 0 0 0 0 0 0 0 0 0 0 0 0 0 1360 1307 0 0 1357 1343 1350 1361 1405 1455 0 0 0 0 0 0 0 0 0 0 0 0 0 0 0 0 0 0 0 0 0 0 0 0 0 0 0 0 0 0 0 0 0 0 0 0 0 0 0 0 0 0 0 0 0 0 0 0 0 0 0 0 0 0 0 0 0 0 0 0 0 0 0 0 0 0 0 0 0 0 0 0 0 0 1721 0 0 0 0 0 0 0 0 0 0 0 0
0 0 0 0 0 0 0 0 0 0 0 0 0 0 0 0 0 0 0 0 0 0 0 1356 1355 1302 1260 1328 1314 1345 1341 1352 1392 0 0 0 0 0 0 0 0 0 0 0 0 0 0 0 0 0 0 0 0 0 0 0 0 0 0 0 0 0 0 0 0 0 0 0 0 0 0 0 0 0 0 0 0 0 0 0 0 0 0 0 0 0 0 0 0 0 0 0 0 0 0 0 0 0 0 0 0 0 0 0 0 0 1713 1693 0 0 0 0 0 0 0 0 0 0 0 0
0 0 0 0 0 0 0 0 0 0 0 0 0 0 0 0 0 0 0 0 0 0 0 1359 1387 1358 1337 1316 1307 1336 1338 1407 1435 0 0 0 0 0 0 0 0 0 0 0 0 0 0 0 0 0 0 0 0 0 0 0 0 0 0 0 0 0 0 0 0 0 0 0 0 0 0 0 0 0 0 0 0 0 0 0 0 0 0 0 0 0 0 0 0 0 0 0 0 0 0 0 0 0 0 0 0 0 0 0 0 0 1720 0 1706 0 0 0 0 0 0 0 0 0 0 0
0 0 0 0 0 0 0 0 0 0 0 0 0 0 0 0 0 0 0 0 0 0 0 1401 1395 1385 1373 1343 1323 1349 1373 1408 1436 0 0 0 0 0 0 0 0 0 0 0 0 0 0 0 0 0 0 0 0 0 0 0 0 0 0 0 0 0 0 0 0 0 0 0 0 0 0 0 0 0 0 0 0 0 0 0 0 0 0 0 0 0 0 0 0 0 0 0 0 0 0 0 0 0 0 0 0 0 0 0 0 1766 1720 0 1712 0 0 0 0 0 0 0 0 0 0 0
0 0 0 0 0 0 0 0 0 0 0 0 0 0 0 0 0 0 0 0 0 0 0 1388 1371 1369 1384 1371 1365 1327 1354 1421 1439 0 0 0 0 0 0 0 0 0 0 0 0 0 0 0 0 0 0 0 0 0 0 0 0 0 0 0 0 0 0 0 0 0 0 0 0 0 0 0 0 0 0 0 0 0 0 0 0 0 0 0 0 0 0 0 0 0 0 0 0 0 0 0 0 0 0 0 0 0 0 0 0 0 0 1717 1725 0 0 0 0 1656 0 0 0 0 0 0
1260 1270 1277 1299 1313 1321 1349 0 0 0 0 0 0 0 0 0 0 0 0 0 0 0 0 0 1365 1369 1366 1379 1389 1376 1370 1438 1471 0 0 0 0 0 0 0 0 0 0 0 0 0 0 0 0 0 0 0 0 0 0 0 0 0 0 0 0 0 0 0 0 0 0 0 0 0 0 0 0 0 0 0 0 0 0 0 0 0 0 0 0 0 0 0 0 0 0 0 0 0 0 0 0 0 0 0 0 0 0 0 1758 1797 1763 1685 1700 1684 0 0 1693 0 0 0 0 0 0 0
1251 1260 1281 1269 1284 1311 1305 1322 1332 1362 1351 0 0 0 0 0 0 0 0 0 0 0 0 1424 1338 1364 1372 1383 1384 1364 1358 1434 1433 0 0 0 0 0 0 0 0 0 0 0 0 0 0 0 0 0 0 0 0 0 0 0 0 0 0 0 0 0 0 0 0 0 0 0 0 0 0 0 0 0 0 0 0 0 0 0 0 0 0 0 0 0 0 0 0 0 0 0 0 0 0 0 0 0 0 0 0 0 0 1787 1780 1778 1737 1661 1704 1674 1717 1678 0 0 0 0 0 0 0 0
1226 1263 1254 1268 1274 1296 1294 1313 1333 1329 1345 1327 1331 1395 1407 1370 0 0 0 0 0 0 0 0 0 1306 0 0 1342 0 0 1421 1411 0 0 0 0 0 0 0 0 0 0 0 0 0 0 0 0 0 0 0 0 0 0 0 0 0 0 0 0 0 0 0 0 0 0 0 0 0 0 0 0 0 0 0 0 0 0 0 0 0 0 0 0 0 0 0 0 0 0 0 0 0 0 0 0 0 0 0 0 0 0 1780 1779 1706 1696 1682 1676 1635 1617 1671 0 0 0 0 0 0 0 0
0 0 0 0 1269 1285 1288 1320 1323 1322 1325 1339 1364 1371 1379 1387 1394 1425 1409 1461 0 0 0 0 0 0 0 0 0 0 0 1424 1421 1418 0 0 0 0 0 0 0 0 0 0 0 0 0 0 0 0 0 0 0 0 0 0 0 0 0 0 0 0 0 0 0 0 0 0 0 0 0 0 0 0 0 0 0 0 0 0 0 0 0 0 0 0 0 0 0 0 0 0 0 0 0 0 0 0 0 0 0 0 1812 1726 1746 1739 1688 1649 1633 1671 0 0 0 0 0 0 0 0 0 0
0 0 0 0 0 0 0 0 0 1311 1332 1347 1319 1354 1384 1387 1390 1424 1403 1436 1463 1464 0 0 0 0 0 0 0 0 0 1431 1464 1445 0 0 0 0 0 0 0 0 0 0 0 0 0 0 0 0 0 0 0 0 0 0 0 0 0 0 0 0 0 0 0 0 0 0 0 0 0 0 0 0 0 0 0 0 0 0 0 0 0 0 0 0 0 0 0 0 0 0 0 0 0 0 0 0 0 0 0 0 0 1749 1674 1673 1608 1586 1599 1538 1602 1587 1572 1562 0 0 0 0 0 0
0 0 0 0 0 0 0 0 0 0 0 0 0 0 0 1397 1415 1419 1399 1442 1457 1466 0 0 0 0 0 0 0 0 0 0 1455 0 0 0 0 0 0 0 0 0 0 0 0 0 0 0 0 0 0 0 0 0 0 0 0 0 0 0 0 0 0 0 0 0 0 0 0 0 0 0 0 0 0 0 0 0 0 0 0 0 0 0 0 0 0 0 0 0 0 0 0 0 0 0 0 0 0 0 0 0 1607 1570 1607 1604 1597 1599 1581 1616 1578 1583 1594 1619 1587 0 0 0 0 0
0 0 0 0 0 0 0 0 0 0 0 0 0 0 0 0 0 0 0 0 0 1471 0 0 0 0 0 0 0 0 0 0 0 0 0 0 0 0 0 0 0 0 0 0 0 0 0 0 0 0 0 0 0 0 0 0 0 0 0 0 0 0 0 0 0 0 0 0 0 0 0 0 0 0 0 0 0 0 0 0 0 0 0 0 0 0 0 0 0 0 0 0 0 0 0 0 0 0 0 0 0 1630 1616 1603 1590 1606 1588 1629 1614 1589 1613 1584 1614 1555 0 0 0 0 0 0
0 0 0 0 0 0 0 0 0 0 0 0 0 0 0 0 0 0 0 0 0 0 0 0 0 0 0 0 0 0 0 0 0 0 0 0 0 0 0 0 0 0 0 0 0 0 0 0 0 0 0 0 0 0 0 0 0 0 0 0 0 0 0 0 0 0 0 0 0 0 0 0 0 0 0 0 0 0 0 0 0 0 0 0 0 0 0 0 0 0 0 0 0 0 0 0 0 0 0 0 0 0 0 1594 1610 1598 1576 1579 1577 1573 1583 1579 0 0 0 0 0 0 0 0
0 0 0 0 0 0 0 0 0 0 0 0 0 0 0 0 0 0 0 0 0 0 0 0 0 0 0 0 0 0 0 0 0 0 0 0 0 0 0 0 0 0 0 0 0 0 0 0 0 0 0 0 0 0 0 0 0 0 0 0 0 0 0 0 0 0 0 0 0 0 0 0 0 0 0 0 0 0 0 0 0 0 0 0 0 0 0 0 0 0 0 0 0 0 0 0 0 0 0 0 0 0 0 0 0 0 0 1579 1602 0 0 0 0 0 0 0 0 0 0 0
0 0 0 0 0 0 0 0 0 0 0 0 0 0 0 0 0 0 0 0 0 0 0 0 0 0 0 0 0 0 0 0 0 0 0 0 0 0 0 0 0 0 0 0 0 0 0 0 0 0 0 0 0 0 0 0 0 0 0 0 0 0 0 0 0 0 0 0 0 0 0 0 0 0 0 0 0 0 0 0 0 0 0 0 0 0 0 0 0 0 0 0 0 0 0 0 0 0 0 0 0 0 0 0 0 0 0 0 0 0 0 0 0 0 0 0 0 0 0 0
548 578 0 0 0 0 0 0 0 0 0 0 0 0 0 0 0 0 0 0 0 0 0 0 0 1829 1885 0 0 0 0 0 0 0 0 0 0 0 0 0 0 0 0 0 0 0 0 2925 2947 2944 2899 2950 2932 2956 2951 2938 2901 2937 0 2852 0 2909 2902 2906 2912 2917 0 0 0 0 0 0 0 0 0 0 0 0 0 0 0 0 0 0 0 0 0 0 0 0 0 0 0 0 0 0 1703 0 0 0 0 0 0 0 0 0 0 0 0 0 0 0 0 0 0 0 0 0 0 0
568 592 594 589 621 666 0 0 0 0 0 0 0 0 0 0 0 0 0 0 0 0 0 0 0 0 0 1915 1972 0 0 0 0 0 0 0 0 0 0 0 0 0 0 0 0 0 0 2907 2905 2925 2942 2925 2938 2886 2921 2955 2877 2876 2929 2905 2847 2963 2868 2869 2922 2881 0 0 0 0 0 0 0 0 0 0 0 0 0 0 0 0 0 0 0 0 0 0 0 0 0 0 0 0 0 0 0 0 0 0 0 0 0 0 0 0 0 0 0 0 0 0 0 0 0 0 0 0 0 0
572 575 582 592 614 638 621 633 648 0 0 0 0 0 0 0 0 0 0 0 0 0 0 0 0 0 0 0 0 0 0 0 0 0 0 0 0 0 0 0 0 0 0 0 0 0 0 2969 2913 2934 2930 2934 2931 2872 2933 2961 2926 2894 2908 2911 2923 2886 2930 2907 2905 0 0 0 0 0 0 0 0 0 0 0 0 0 0 0 0 0 0 0 0 0 0 0 0 0 0 0 0 0 0 0 0 0 0 0 0 0 0 0 0 0 0 0 0 0 0 0 0 0 0 0 0 0 0 0
585 584 593 578 639 624 621 646 656 646 671 661 0 0 0 0 0 0 0 0 0 0 0 0 0 0 0 0 0 0 0 0 0 0 0 0 0 0 0 0 0 0 0 0 0 0 0 2905 2906 2863 2892 2915 2917 2893 2932 2919 2926 2902 2889 2898 2909 2933 2937 2923 2850 0 0 0 0 0 0 0 0 0 0 0 0 0 0 0 0 0 0 0 0 0 0 0 0 0 0 0 0 0 0 0 0 0 0 0 0 0 0 0 0 0 0 0 0 0 0 0 0 0 0 0 0 0 0 0
608 609 611 613 642 633 644 648 685 672 679 693 715 740 746 0 0 0 0 0 0 0 0 0 0 0 0 0 0 0 0 0 0 0 0 0 0 0 0 0 0 0 0 0 0 0 0 2893 2851 2886 2901 2923 2912 2878 2871 2924 2867 2866 2930 2955 2914 2894 2876 2843 2858 2893 0 0 0 0 0 0 0 0 0 0 0 0 0 0 0 0 0 0 0 0 0 0 0 0 0 0 0 0 0 0 0 0 0 0 0 0 0 0 0 0 0 0 0 0 0 0 0 0 0 0 0 0 0 0
734 761 764 777 726 636 657 653 659 657 689 691 713 733 740 755 752 821 0 0 0 0 0 0 0 0 0 0 0 0 0 0 0 0 0 0 0 0 0 0 0 0 0 0 0 0 0 2939 2864 2905 2933 2875 2949 2919 2925 2937 2889 2895 2902 2896 2909 2950 2969 2898 2912 2953 0 0 0 0 0 0 0 0 0 0 0 0 0 0 0 0 0 0 0 0 0 0 0 0 0 0 0 0 0 0 0 0 0 0 0 0 0 0 0 0 0 0 0 0 0 0 0 0 0 0 0 0 0 0
789 794 820 843 829 847 856 858 829 817 764 756 732 753 732 765 780 777 792 816 841 0 0 0 0 0 0 0 0 0 0 0 0 0 0 0 0 0 0 0 0 0 0 0 0 0 0 2840 2889 2876 2930 2904 2888 2921 2889 2884 2853 2908 2889 2866 2912 2899 2914 2871 2879 2889 0 0 0 0 0 0 0 0 0 0 0 0 0 0 0 0 0 0 0 0 0 0 0 0 0 0 0 0 0 0 0 0 0 0 0 0 0 0 0 0 0 0 0 0 0 0 0 0 0 0 0 0 0 0
760 808 811 816 854 874 867 867 890 906 913 914 926 921 852 808 785 790 800 805 833 859 897 894 0 0 0 0 0 0 0 0 0 0 0 0 0 0 0 0 0 0 0 0 0 0 0 2922 2935 2929 2890 2917 2893 2852 2916 2883 2884 2872 2920 2921 2862 2868 2888 2908 2885 2915 0 0 0 0 0 0 0 0 0 0 0 0 0 0 0 0 0 0 0 0 0 0 0 0 0 0 0 0 0 0 0 0 0 0 0 0 0 0 0 0 0 0 0 0 0 0 0 0 0 0 0 0 0 0
624 0 842 835 835 873 860 862 887 905 932 934 947 956 945 951 950 917 899 855 844 835 860 878 909 927 957 0 0 0 0 0 0 0 0 0 0 0 0 0 0 0 0 0 0 0 0 2952 2913 2871 2913 2936 2919 2920 2952 2928 2964 2935 2919 2934 2923 2877 2926 2956 2909 0 0 0 0 0 0 0 0 0 0 0 0 0 0 0 0 0 0 0 0 0 0 0 0 0 0 0 0 0 0 0 0 0 0 0 0 0 0 0 0 0 0 0 0 0 0 0 0 0 0 0 0 0 0 0
684 912 946 934 932 934 911 914 903 939 931 948 958 937 956 944 961 957 954 950 950 933 905 918 894 948 958 990 998 0 0 0 0 0 0 0 0 0 0 0 0 0 0 0 0 0 0 2890 2921 2944 2876 2911 2934 2928 2933 2883 2897 2847 2930 2862 2919 2927 2917 2899 2899 2884 0 0 0 0 0 0 0 0 0 0 0 0 0 0 0 0 0 0 0 0 0 0 0 0 0 0 0 0 0 0 0 0 0 0 0 0 0 0 0 0 0 0 0 0 0 0 0 0 0 0 0 0 0 0
557 653 0 0 0 0 0 0 0 0 981 953 948 953 945 931 956 930 938 923 950 958 950 932 940 942 945 964 1018 985 1042 0 0 0 0 0 0 0 0 0 0 0 0 0 0 0 0 2950 2936 2935 2887 2937 2892 2940 2908 2941 2939 2914 2976 2913 2914 2948 2897 2912 2905 0 0 0 0 0 0 0 0 0 0 0 0 0 0 0 0 0 0 0 0 0 0 0 0 0 0 0 0 0 0 0 0 0 0 0 0 0 0 0 0 0 0 0 0 0 0 0 0 0 0 0 0 0 0 0
568 636 588 0 1103 1129 1163 1147 1151 1145 1140 1126 1138 1165 1146 1149 1113 1034 0 0 1017 1082 1066 993 1025 1019 1138 1107 1113 1084 1073 0 0 0 0 0 0 0 0 0 0 0 0 0 0 0 0 2925 2901 2905 2920 2913 2899 2910 2868 2950 2881 2917 2914 2901 2912 2851 2877 2936 2922 0 0 0 0 0 0 0 0 0 0 0 0 0 0 0 0 0 0 0 0 0 0 0 0 0 0 0 0 0 0 0 0 0 0 0 0 0 0 0 0 0 0 0 0 0 0 0 0 0 0 0 0 0 0 0
607 589 597 655 0 0 0 0 0 0 0 0 0 0 0 0 1458 0 0 0 0 1165 1106 0 0 1132 1169 1162 1153 1168 1128 0 0 0 0 0 0 0 0 0 0 0 0 0 0 0 0 2861 2913 2895 2875 2912 2936 2914 2878 2841 2860 2881 2910 2901 2887 2902 2842 2900 2852 2923 0 0 0 0 0 0 0 0 0 0 0 0 0 0 0 0 0 0 0 0 0 0 0 0 0 0 0 0 0 0 0 0 0 0 0 0 0 0 0 0 0 0 0 0 0 0 0 0 0 0 0 0 0 0
566 593 587 612 646 0 0 0 0 0 0 0 0 0 0 0 0 978 1000 0 0 0 0 0 0 0 0 0 0 0 0 0 0 0 0 0 0 0 0 0 0 0 0 0 0 0 0 2921 2963 2907 2907 2960 2965 2892 2927 2901 2941 2878 2902 2919 2932 2907 2925 2896 2901 2909 0 0 0 0 0 0 0 0 0 0 0 0 0 0 0 0 0 0 0 0 0 0 0 0 0 0 0 0 0 0 0 0 0 0 0 0 0 0 0 0 0 0 0 0 0 0 0 0 0 0 0 0 0 0
606 600 608 609 628 649 0 0 0 0 0 0 0 0 0 0 0 0 0 0 0 0 0 0 0 0 0 0 0 0 0 0 0 0 0 0 0 0 0 0 0 0 0 0 0 0 0 2879 2915 2952 2939 2890 2860 2883 2911 2940 2884 2909 2863 2877 2892 2880 2890 2866 2891 0 0 0 0 0 0 0 0 0 0 0 0 0 0 0 0 0 0 0 0 0 0 0 0 0 0 0 0 0 0 0 0 0 0 0 0 0 0 0 0 0 0 0 0 0 0 0 0 0 0 0 0 0 0 0
584 579 587 626 591 645 0 0 0 0 0 0 0 0 0 0 0 0 0 0 0 0 0 0 0 0 0 0 0 0 0 0 0 0 0 0 0 0 0 0 0 0 0 0 0 0 0 2925 2920 2910 2954 2904 2914 2919 2888 2910 2931 2872 2899 2889 2878 2920 2923 2902 2901 2929 0 0 0 0 0 0 0 0 0 0 0 0 0 0 0 0 0 0 0 0 0 0 0 0 0 0 0 0 0 0 0 0 0 0 0 0 0 0 0 0 0 0 0 0 0 0 0 0 0 0 0 0 0 0
590 595 553 604 591 570 0 0 0 0 0 0 0 0 0 0 0 0 0 0 0 0 925 0 0 0 0 0 0 0 0 0 0 0 0 0 0 0 0 0 0 0 0 0 0 0 0 2963 2936 2957 2906 2958 2938 2903 2957 2902 2944 2915 2980 2879 2917 2971 2897 2889 2889 0 0 0 0 0 0 0 0 0 0 0 0 0 0 0 0 0 0 0 0 0 0 0 0 0 0 0 0 0 0 0 0 0 0 0 0 0 0 0 0 0 0 0 0 0 0 0 0 0 0 0 0 0 0 0
561 589 569 596 600 589 621 0 0 0 0 0 0 0 0 0 0 0 0 0 0 0 0 0 0 0 0 0 0 0 0 0 0 0 0 0 0 0 0 0 0 0 0 0 0 0 0 2873 2883 2909 2915 2926 2874 2924 2930 2935 2950 2922 2890 2933 2938 2892 2878 2891 2886 0 0 0 0 0 0 0 0 0 0 0 0 0 0 0 0 0 0 0 0 0 0 0 0 0 0 0 0 0 0 0 0 0 0 0 0 0 0 0 0 0 0 0 0 0 0 0 0 0 0 0 0 0 0 0
565 581 585 608 591 574 598 0 0 0 0 0 0 0 0 0 2330 0 0 0 0 0 903 929 0 0 0 0 0 0 0 0 0 0 0 0 0 0 0 0 0 0 0 0 0 0 0 2928 2963 2923 2921 2923 2953 2924 2942 2949 2920 2944 2935 2890 2938 2902 2903 2916 2900 2872 0 0 0 0 0 0 0 0 0 0 0 0 0 0 0 0 0 0 0 0 0 0 0 0 0 0 0 0 0 0 0 0 0 0 0 0 0 0 0 0 0 0 0 0 0 0 0 0 0 0 0 0 0 0
570 569 596 574 601 621 614 0 0 0 0 0 0 0 0 0 0 0 0 0 0 0 0 0 0 0 0 0 0 0 0 0 0 0 0 0 0 0 0 0 0 0 0 0 0 0 0 2933 2886 2920 2920 2889 2899 2910 2930 2901 2938 2934 2890 2878 2899 2905 2908 2899 2883 2893 0 0 0 0 0 0 0 0 0 0 0 0 0 0 0 0 0 0 0 0 0 0 0 0 0 0 0 0 0 0 0 0 0 0 0 0 0 0 0 0 0 0 0 0 0 0 0 0 0 0 0 0 0 0
585 581 618 617 620 648 0 0 0 0 0 0 0 0 0 0 0 0 0 0 0 0 0 0 0 0 0 0 0 0 0 0 0 0 0 0 0 0 0 0 0 0 0 0 0 0 0 0 0 0 0 0 0 0 0 0 0 0 0 0 0 2940 2962 2883 2918 0 0 0 0 0 0 0 0 0 0 0 0 0 0 0 0 0 0 0 0 0 0 0 0 0 0 0 0 0 0 0 0 0 0 0 0 0 0 0 0 0 0 0 0 0 0 0 0 0 0 0 0 0 0 0
597 580 619 623 576 602 0 0 0 0 0 0 0 0 0 0 0 0 0 0 0 0 0 0 0 0 0 0 0 0 0 0 0 0 0 0 0 0 0 0 0 0 0 0 0 0 0 0 0 0 0 0 0 0 0 0 0 0 0 0 0 0 0 0 0 0 0 0 0 0 0 0 0 0 0 0 0 0 0 0 0 0 0 0 0 0 0 0 0 0 0 0 0 0 0 0 0 0 0 0 0 0 0 0 0 0 0 0 0 0 0 0 0 0 0 0 0 0 0 0
629 610 615 639 635 0 0 0 0 0 0 0 0 0 0 0 0 0 0 0 0 0 0 0 0 0 0 0 0 0 0 0 0 0 0 0 0 0 0 0 0 0 0 0 0 0 0 0 0 0 0 0 0 0 0 0 0 0 0 0 0 0 0 0 0 0 0 0 0 0 0 0 0 0 0 0 0 0 0 0 0 0 0 0 0 0 0 0 0 0 0 0 0 0 0 0 0 0 0 0 0 0 0 0 0 0 0 0 0 0 0 0 0 0 0 0 0 0 0 0
618 589 581 585 615 0 0 0 0 0 0 0 0 0 0 0 0 0 0 0 0 0 0 0 0 0 0 0 0 0 0 0 0 0 0 0 0 0 0 0 0 0 0 0 0 0 0 0 0 0 0 0 0 0 0 0 0 0 0 0 0 0 0 0 0 0 0 0 0 0 0 0 0 0 0 0 0 0 0 0 0 0 0 0 0 0 0 0 0 0 0 0 0 0 0 0 0 0 0 0 0 0 0 0 0 0 0 0 0 0 0 0 0 0 0 0 0 0 0 0
596 591 577 617 0 0 0 0 0 0 0 0 0 0 0 0 0 0 0 0 0 0 0 0 0 0 832 797 853 825 833 841 894 858 862 838 0 851 851 900 0 864 0 0 0 0 0 0 0 0 0 0 0 0 0 0 0 0 0 0 0 0 0 0 0 0 0 0 0 0 0 0 0 0 0 0 0 0 0 0 0 0 0 0 0 0 0 0 0 0 0 0 0 0 0 0 0 0 0 0 0 0 0 0 0 0 0 0 0 0 0 0 0 0 0 0 0 0 0 0
564 582 632 0 0 0 709 693 690 706 662 632 696 742 720 716 676 707 700 702 714 694 677 731 744 707 739 702 701 661 728 751 728 710 746 685 774 768 751 730 740 772 750 749 761 761 784 744 770 749 740 776 759 746 720 714 745 787 769 774 737 794 768 775 805 783 747 821 794 767 773 768 778 0 0 0 0 0 0 0 0 0 0 0 0 0 0 0 0 0 0 0 0 0 0 0 0 0 0 0 0 0 0 0 0 0 0 0 0 0 0 0 0 0 0 0 0 0 0 0
534 567 571 552 582 536 546 553 564 565 581 555 572 543 545 558 562 546 560 530 555 560 550 586 574 607 547 522 607 612 578 602 590 573 602 599 626 609 598 580 578 573 616 577 609 579 612 589 630 610 611 603 599 666 640 633 630 615 635 644 639 628 653 634 617 627 599 614 624 652 594 570 654 639 606 637 616 639 653 659 626 632 646 665 642 623 694 661 680 661 702 653 667 647 691 640 714 667 637 733 679 686 0 0 0 0 0 0 0 0 0 0 0 0 0 0 0 0 0 0
486 442 479 501 479 513 493 490 515 489 503 511 492 506 509 499 485 518 513 484 490 499 501 509 490 507 512 505 506 497 504 524 524 499 522 507 523 519 522 506 504 525 520 514 536 547 544 516 528 550 535 546 511 534 532 555 533 528 541 540 551 543 555 546 556 549 517 522 550 526 533 571 557 572 547 518 581 548 579 572 536 571 567 563 576 532 558 562 549 566 581 553 535 566 544 547 584 577 570 571 599 595 593 570 0 620 0 589 580 606 0 0 0 0 0 0 0 0 0 0
438 417 421 450 404 438 422 436 434 463 462 454 441 451 447 454 438 465 442 440 464 464 440 462 459 445 445 459 462 458 466 453 460 453 458 475 473 457 471 471 466 459 466 470 475 476 473 480 482 495 497 477 471 473 473 471 489 482 487 485 491 488 493 510 472 509 508 485 490 488 482 484 492 484 494 494 486 514 478 471 481 510 503 483 494 525 465 485 497 479 486 513 509 503 504 512 516 510 502 515 497 533 498 542 521 521 564 533 494 545 496 566 0 0 0 0 0 0 0 0
396 399 389 397 413 400 381 407 406 389 421 399 397 414 406 407 400 400 403 398 408 417 406 418 411 406 419 413 404 407 409 418 407 431 420 411 416 424 413 428 419 409 432 420 428 419 421 413 427 412 428 437 427 431 430 423 431 426 436 433 422 428 417 412 436 424 429 440 435 443 433 434 429 427 420 422 428 431 414 423 411 428 432 440 437 437 444 454 441 427 444 428 445 454 439 439 431 441 442 445 430 446 419 428 446 445 433 437 441 441 436 431 451 519 0 0 0 0 0 0
374 363 364 336 355 364 362 368 352 367 367 354 362 365 356 363 361 368 376 366 362 376 365 378 375 368 366 370 364 359 374 383 369 369 377 360 379 385 381 365 382 379 372 382 368 378 388 386 382 375 385 380 388 391 379 379 379 380 389 391 386 377 390 387 385 387 393 392 380 398 402 400 395 397 382 393 392 394 393 395 396 381 403 411 398 396 389 389 395 369 410 393 405 388 397 396 399 385 403 394 379 383 400 407 401 396 383 408 402 407 401 408 372 413 410 433 0 0 0 0
320 337 332 302 318 310 330 348 344 327 341 339 336 341 332 341 331 324 329 334 348 339 339 345 353 339 330 332 327 345 337 353 330 350 336 342 343 343 329 342 339 346 336 355 344 344 338 357 338 351 351 345 328 351 330 343 339 340 342 348 345 358 340 355 344 335 333 342 341 346 346 357 342 345 348 346 342 346 353 343 346 362 350 357 337 343 352 361 358 356 360 355 362 357 360 353 333 358 362 356 376 351 344 355 361 355 349 354 373 351 367 342 348 375 377 370 359 0 0 0
280 314 305 281 287 297 304 302 303 306 312 291 292 301 300 291 307 309 309 301 300 301 302 307 291 296 291 291 310 311 310 303 303 305 306 305 318 304 303 311 310 312 315 309 314 304 313 310 315 318 315 312 317 303 304 313 317 317 312 314 323 314 315 325 313 326 319 318 314 317 318 327 318 315 315 321 313 299 316 310 311 318 325 321 313 319 328 322 325 319 321 322 320 323 334 325 333 340 319 343 333 317 331 317 341 324 323 321 328 337 320 314 333 327 326 336 267 357 351 0
290 270 278 275 270 292 277 277 275 282 280 279 278 287 277 287 279 277 284 282 286 276 274 285 273 277 276 277 286 277 276 280 277 284 285 283 280 282 285 283 290 286 286 286 279 290 278 282 286 285 291 288 295 280 286 287 286 295 289 295 287 290 284 289 292 290 290 284 289 288 289 283 290 296 292 290 278 290 286 297 289 283 286 300 298 285 288 293 294 282 301 288 295 303 302 303 291 292 297 297 284 300 310 299 296 305 286 303 293 273 305 280 284 294 294 269 276 286 321 363
260 247 258 255 256 258 251 245 250 254 255 255 249 246 264 251 256 252 256 248 257 257 256 254 256 253 255 258 252 252 255 263 265 264 262 266 264 269 264 264 265 254 261 265 264 266 262 251 268 267 261 261 266 262 269 257 269 261 260 271 266 262 270 258 272 262 266 264 269 266 267 271 259 270 264 268 268 264 261 260 260 261 270 267 267 267 267 266 269 264 259 265 261 274 265 259 265 267 273 274 272 267 263 281 260 274 264 275 272 265 260 272 273 265 267 254 254 268 265 247
236 233 240 238 230 240 243 233 243 235 227 237 245 247 241 247 240 244 247 237 241 251 241 243 245 239 240 242 246 250 244 253 250 243 244 248 243 248 251 248 251 239 244 247 253 252 249 243 248 248 247 252 253 253 254 243 240 242 250 244 253 253 255 249 244 252 254 254 251 250 249 243 260 254 252 252 255 255 251 247 250 249 248 253 251 258 248 249 254 247 256 250 258 253 245 257 252 254 258 258 257 257 249 256 261 257 255 253 256 250 256 256 263 263 249 246 270 271 248 244
211 218 216 212 218 226 227 213 219 215 222 226 224 230 226 221 223 224 234 222 224 230 232 230 225 228 225 232 232 226 227 229 222 227 229 232 226 224 229 235 224 232 234 231 227 234 231 232 237 234 231 233 226 231 234 235 230 232 239 235 232 238 229 233 239 235 229 236 233 231 234 230 229 236 235 231 230 227 230 228 237 236 233 232 238 228 243 237 229 233 234 228 236 233 242 232 235 245 237 236 237 238 248 234 239 235 235 239 231 238 238 248 236 242 242 226 225 237 207 256
206 205 219 211 216 206 207 207 212 215 207 210 213 219 212 213 215 210 209 216 213 211 211 208 210 218 215 216 210 212 211 209 213 216 212 215 218 222 215 217 216 214 218 224 222 202 219 204 215 219 218 203 223 202 205 223 222 218 222 219 217 206 222 220 218 219 221 219 221 216 217 224 224 219 215 212 220 219 215 218 202 220 225 225 220 220 219 223 225 217 220 224 226 220 221 222 222 217 226 220 216 215 226 226 220 222 227 221 226 228 224 216 221 226 232 207 216 225 207 222
194 204 194 200 205 200 201 202 198 183 198 205 202 208 204 189 193 192 192 205 192 192 196 190 186 188 190 193 183 195 196 185 187 189 201 195 190 187 185 189 196 191 195 190 193 193 196 190 196 196 192 194 195 199 191 198 199 202 198 202 199 198 200 199 197 197 200 195 201 194 194 200 192 191 195 194 194 192 188 191 191 197 215 199 199 203 215 187 196 198 195 211 188 209 208 205 193 208 217 209 210 212 189 212 216 194 210 205 209 206 212 212 202 214 223 204 215 208 194 216
170 174 178 190 177 180 180 181 183 181 186 175 180 187 181 179 186 188 187 179 186 185 184 188 180 181 189 191 184 184 191 190 192 189 194 195 193 191 192 190 191 194 198 191 187 196 193 197 195 192 193 196 194 199 197 196 193 202 197 197 197 200 198 190 199 202 198 194 195 197 198 195 195 199 196 199 194 194 197 189 193 195 193 185 184 188 188 193 194 191 194 185 190 190 187 190 182 183 193 184 191 190 205 202 190 179 187 186 205 204 189 177 184 195 174 173 198 169 196 176
170 172 171 175 178 178 182 182 176 176 176 177 185 183 181 182 182 178 185 185 186 185 185 187 183 185 182 184 184 189 183 183 184 184 183 184 185 182 185 187 188 181 190 191 194 186 191 191 188 185 191 187 187 187 184 192 193 189 189 192 182 186 186 192 191 194 192 188 183 188 191 188 189 190 189 188 186 190 183 186 191 195 189 186 181 190 180 181 189 189 189 192 190 184 191 190 186 190 183 180 177 187 187 183 186 174 180 175 182 179 174 177 185 181 180 177 200 179 172 187
173 169 163 168 166 164 175 176 168 167 173 167 168 173 176 179 174 176 178 179 174 171 172 176 173 171 182 174 174 177 172 188 178 175 181 174 172 174 177 175 180 179 181 184 182 180 180 176 180 187 181 182 177 183 181 181 178 181 184 177 178 176 183 179 177 187 180 185 175 179 175 179 181 180 179 176 182 185 180 181 186 181 181 180 178 183 175 181 178 180 180 188 173 174 181 175 177 177 182 176 181 186 187 182 179 176 174 180 177 182 180 178 177 179 175 169 173 196 160 169
160 163 168 164 158 168 161 156 164 161 168 168 163 169 166 174 167 168 172 165 167 163 172 170 170 159 172 171 165 165 172 162 170 166 166 170 165 165 167 168 165 166 170 170 171 171 172 174 172 167 174 171 172 169 173 171 170 173 173 171 171 172 176 170 175 174 170 170 168 170 175 178 174 173 174 174 170 177 167 168 171 174 174 175 165 171 171 173 178 168 168 167 168 170 165 171 171 170 167 175 175 177 172 170 179 168 172 161 172 165 174 168 171 173 174 177 165 164 160 172
156 158 163 163 164 163 160 155 158 160 162 157 161 163 159 157 162 163 171 166 160 161 163 164 163 163 163 156 163 163 166 170 161 165 159 165 163 162 162 160 160 166 169 163 162 165 165 162 164 165 164 164 169 165 167 169 165 169 160 171 159 164 168 164 163 169 164 167 163 161 165 164 165 159 165 168 168 165 169 168 163 159 166 164 161 165 166 163 167 164 168 163 163 161 163 166 161 160 169 168 166 159 163 164 164 166 167 166 166 162 171 169 165 156 173 150 175 173 169 172
145 152 151 148 153 149 148 153 154 155 148 146 152 154 151 150 159 162 158 160 154 151 157 159 154 161 151 155 155 160 156 158 153 157 154 157 152 157 151 162 160 155 164 156 154 150 159 157 157 159 154 159 161 159 161 157 158 157 156 156 158 157 158 160 159 161 159 158 154 154 157 160 158 150 158 159 166 160 158 155 156 158 157 155 154 152 162 160 159 159 157 159 152 157 159 156 155 153 156 161 157 159 158 156 162 154 156 150 155 155 153 160 156 164 163 151 151 167 171 166
137 143 145 141 144 149 151 147 146 144 144 152 148 148 147 144 148 151 148 147 153 150 156 148 150 151 151 150 151 149 153 146 148 144 145 144 151 153 151 152 156 150 153 151 152 150 152 147 148 152 153 154 150 155 155 150 150 152 151 155 154 152 150 157 144 152 159 157 153 157 149 154 148 155 152 155 159 162 152 149 150 157 155 147 150 151 152 156 153 152 150 150 155 149 155 149 146 150 156 154 152 157 158 154 154 152 149 148 143 151 156 144 163 140 158 151 146 149 160 128
133 131 137 136 141 140 135 137 139 140 144 141 142 140 137 139 145 138 141 150 143 142 140 151 139 142 149 143 142 138 138 141 140 147 141 143 140 141 145 147 145 146 145 143 143 145 140 145 148 147 141 148 143 146 151 144 151 150 144 144 149 143 143 143 147 148 148 148 146 150 150 146 147 145 146 148 146 151 154 145 143 144 149 142 144 143 150 146 146 148 150 148 145 146 147 145 142 147 148 152 150 148 154 144 142 146 143 146 142 144 134 148 145 144 141 153 143 129 150 149
129 132 132 136 133 141 135 139 141 139 136 0 133 137 134 137 137 141 140 139 143 140 144 139 143 144 145 140 137 137 137 129 139 129 139 138 133 126 138 140 140 144 140 140 138 127 132 131 144 127 141 141 134 142 131 144 134 136 134 128 133 130 131 145 144 140 141 142 146 138 130 145 127 140 139 144 145 149 140 144 142 144 140 131 143 142 141 141 144 140 127 143 142 145 142 139 143 142 147 143 147 143 142 144 136 140 133 144 147 137 144 135 132 128 138 146 137 126 109 134
127 130 124 134 136 138 139 135 131 135 136 132 139 136 139 125 129 136 135 136 139 146 137 137 140 137 140 136 136 125 127 121 130 128 125 127 126 130 128 127 138 140 131 128 0 141 129 129 128 122 126 130 132 133 0 142 0 133 132 140 136 142 143 132 128 129 133 128 144 131 130 128 129 125 131 129 134 123 128 130 138 139 127 139 124 129 137 121 139 142 135 139 136 140 135 128 140 138 140 141 129 119 134 140 132 118 133 133 136 133 134 142 132 140 136 142 126 138 145 166
123 107 125 107 128 128 139 133 129 111 120 128 122 123 122 123 125 132 124 118 120 126 127 125 125 137 135 137 0 130 130 124 116 127 123 116 128 125 126 123 129 125 128 129 0 0 126 123 129 120 119 127 127 127 124 128 130 130 128 123 126 123 128 125 124 141 129 128 123 126 127 124 121 125 116 128 121 133 125 127 128 128 122 128 121 131 120 127 126 128 119 128 136 125 122 120 125 139 137 128 121 123 123 121 117 114 113 128 121 130 115 131 129 137 135 141 115 135 143 121
109 112 110 112 112 111 120 113 127 115 119 115 120 123 117 113 115 133 123 125 135 125 126 119 123 123 132 125 121 126 132 0 123 118 110 117 120 121 0 119 130 127 0 0 0 0 121 126 120 123 127 126 126 121 121 120 123 121 121 121 125 120 116 121 125 123 128 122 117 119 121 116 127 120 119 115 116 127 124 122 121 118 125 122 115 119 124 119 128 125 117 117 118 122 117 122 122 121 121 123 117 114 125 117 113 115 115 114 118 132 126 135 127 122 107 129 129 108 100 113
104 105 113 116 114 114 112 112 111 112 119 116 115 109 112 115 115 115 111 121 118 110 109 119 120 114 123 115 113 120 127 0 116 117 114 114 115 0 114 117 121 0 0 123 122 0 119 118 110 116 118 115 119 119 121 118 116 120 115 119 119 123 125 118 120 122 119 118 118 115 116 119 116 114 113 113 122 111 115 121 113 121 112 119 117 113 120 114 119 119 120 119 117 112 105 117 123 119 111 115 114 121 115 108 112 116 117 112 123 113 126 126 111 127 121 123 118 105 119 133
95 103 102 96 100 103 113 113 102 112 110 110 106 110 120 115 116 111 105 110 113 111 110 103 114 111 116 117 117 115 116 114 110 114 115 105 106 116 0 115 117 113 113 107 109 114 113 0 113 0 114 109 117 114 0 0 109 109 117 112 122 114 108 107 109 115 111 110 120 112 112 107 112 104 108 106 110 107 104 114 113 108 113 105 105 104 108 104 105 111 105 110 96 112 116 116 118 115 108 111 109 114 114 109 110 108 112 110 113 119 109 112 107 103 105 129 95 102 109 144
105 107 110 111 104 107 105 107 109 106 105 114 107 111 116 115 110 108 112 110 107 98 106 102 113 111 110 117 105 119 110 105 113 112 111 114 113 0 110 108 111 109 109 101 103 109 108 108 113 0 110 116 110 112 110 114 104 110 114 107 108 111 112 0 116 108 109 113 112 111 110 106 111 111 103 100 99 103 101 110 109 104 108 111 103 107 101 110 106 106 114 111 99 99 96 107 106 110 109 108 105 111 107 119 113 107 110 109 106 119 107 102 120 108 108 106 105 129 131 134
95 94 108 109 96 93 94 97 94 92 105 99 104 100 100 105 98 110 102 104 101 107 87 102 105 103 106 99 99 105 106 105 104 100 103 99 103 100 105 102 108 105 95 102 100 105 104 101 106 102 104 107 105 105 99 104 100 101 107 98 104 105 107 0 108 103 0 111 104 103 104 106 98 107 101 106 103 104 0 100 0 104 96 99 99 100 98 95 99 103 102 105 95 95 99 95 95 101 100 98 102 104 102 101 98 102 98 94 103 94 105 109 93 107 108 91 109 100 109 121
84 91 93 92 92 94 92 90 95 93 97 100 100 96 102 100 95 105 105 92 96 93 98 91 97 98 106 97 101 98 109 103 105 103 99 100 102 101 99 99 102 103 98 91 97 99 98 105 105 102 107 101 102 100 92 97 100 107 103 103 104 100 108 100 117 105 105 109 104 97 101 104 101 104 98 95 103 102 98 97 0 102 93 92 99 98 98 107 95 100 102 100 99 99 94 104 92 96 95 106 96 89 103 86 97 104 91 97 100 100 83 99 100 92 89 105 129 87 95 111
86 95 94 99 89 93 95 90 88 96 93 95 94 93 93 86 92 96 107 105 103 94 94 91 92 89 98 94 91 105 97 95 103 95 94 97 96 97 94 105 93 94 90 91 101 94 105 97 93 102 102 96 88 92 98 99 91 97 98 99 93 93 99 0 97 101 97 91 97 96 96 98 103 106 84 104 100 100 97 104 94 97 97 100 101 97 92 89 96 97 95 91 94 86 90 86 94 89 103 91 96 94 95 96 100 94 104 79 90 81 95 90 96 86 98 88 109 97 98 77
84 79 76 88 77 87 78 91 81 78 90 88 91 88 85 93 89 90 84 93 90 94 92 87 94 87 97 90 92 96 93 89 99 95 88 92 89 96 91 90 85 95 94 98 89 97 90 90 90 90 98 94 91 92 93 91 98 99 98 92 86 94 88 93 89 91 92 88 92 96 97 92 97 92 86 93 94 86 91 87 90 91 89 92 90 93 91 95 91 94 90 91 92 89 92 92 94 94 88 84 82 88 89 79 86 90 91 86 88 87 82 82 83 92 79 80 81 65 69 84
88 83 85 88 92 87 90 102 87 90 85 89 91 89 89 87 89 91 87 88 90 93 89 87 95 89 94 89 89 91 91 90 99 85 99 94 88 92 89 97 93 92 89 90 96 94 93 93 88 93 94 90 94 97 94 91 96 95 90 93 98 99 94 90 99 96 92 90 89 91 98 85 93 95 95 90 96 93 87 89 94 84 96 91 89 86 96 93 94 90 99 96 103 85 94 91 91 82 87 95 92 92 85 94 91 92 94 85 86 84 90 84 82 82 95 92 105 77 0 0
76 91 86 82 84 92 81 88 84 0 82 83 82 88 90 91 91 92 87 85 91 89 89 96 89 91 88 84 92 94 88 89 91 93 92 89 85 95 97 88 86 88 93 94 97 95 93 96 89 86 91 95 92 93 94 99 91 93 98 95 93 96 94 87 88 88 99 96 98 96 97 96 97 96 93 92 86 89 88 96 94 85 87 91 89 92 84 97 96 92 89 96 102 90 89 85 89 94 89 86 82 88 87 85 92 82 93 89 83 85 87 78 89 83 87 82 81 91 70 0
78 83 80 84 88 88 96 90 84 79 85 82 90 89 88 87 82 88 83 84 90 90 88 88 90 87 91 87 92 87 85 87 87 93 85 90 87 89 92 93 90 87 92 90 88 83 96 95 94 92 95 95 95 85 89 98 95 93 95 98 86 93 93 89 89 93 88 88 92 93 90 89 96 95 97 88 90 94 90 83 89 89 93 91 90 93 92 89 90 86 90 90 87 86 85 88 88 84 87 92 73 80 92 89 82 84 90 87 72 90 76 83 89 89 87 80 83 106 0 0
82 75 80 81 78 84 96 92 80 83 83 90 89 89 92 83 81 92 92 89 89 90 90 84 85 87 83 86 91 90 88 85 89 91 89 88 90 89 86 89 92 81 88 94 95 88 95 88 89 95 89 91 78 86 88 93 87 92 86 94 94 92 85 95 91 94 87 84 88 95 85 90 92 87 91 87 92 92 95 84 94 93 84 84 93 91 93 87 89 84 88 94 85 84 86 91 89 89 93 85 86 89 86 89 80 88 84 89 84 82 85 85 87 75 112 99 0 0 117 0
77 69 64 66 79 79 82 83 82 77 83 76 76 78 82 80 82 80 75 77 84 74 82 71 72 74 83 80 81 78 91 75 78 81 89 79 85 79 82 80 89 78 85 70 76 86 82 86 89 80 82 81 76 87 82 86 82 89 89 68 88 79 80 81 81 84 75 82 80 75 83 82 75 79 85 80 77 85 84 87 82 76 71 78 73 85 80 74 73 80 87 69 83 78 81 78 78 89 74 78 75 75 74 59 79 70 78 82 74 76 81 68 76 59 72 99 0 0 0 0
67 68 77 81 70 84 87 84 84 80 77 86 73 78 84 80 81 81 72 78 79 81 68 77 90 86 76 77 83 81 88 83 81 76 86 75 78 69 83 75 87 80 85 88 85 88 81 80 84 83 84 80 74 80 79 82 83 81 87 72 81 83 85 86 82 78 77 78 95 71 70 81 83 78 83 80 79 85 88 87 81 82 77 78 69 82 81 67 79 83 80 83 75 72 83 79 90 77 70 80 87 68 78 68 69 75 75 71 68 83 78 65 59 78 82 0 0 0 0 0
