0 0 0 0 0 0 0 0 0 0 0 0 0 0 0 0 0 0 0 0 0 0 0 0 0 0 0 0 0 0 0 0 0 0 0 0 0 0 0 0 0 0 0 0 0 0 0 0 0 0 0 0 0 0 0 0 0 0 0 0 0 0 0 0 0 0 0 0 0 0 0 0 0 0 0 0 0 0 0 0 0 0 0 0 0 0 0 0 0 0 0 0 0 0 0 0 0 0 0 0 0 0 0 0 0 0 0 0 0 0 0 0 0 0 0 0 0 0 0 0
0 0 0 0 0 0 0 0 0 0 0 0 0 0 0 0 0 0 0 0 0 0 0 0 0 0 0 0 0 0 0 0 0 0 0 0 0 0 0 0 0 0 0 0 0 0 0 0 0 0 0 0 0 0 0 0 0 0 0 0 0 0 0 0 0 0 0 0 0 0 0 0 0 0 0 0 0 0 0 0 0 0 0 0 0 0 0 0 0 0 0 0 0 0 0 0 0 0 0 0 0 0 0 0 0 0 0 0 0 0 0 0 0 0 0 0 0 0 0 0
0 0 0 0 0 0 0 0 0 0 0 0 0 0 0 0 0 1298 0 0 0 0 0 0 0 0 0 0 0 0 0 0 0 0 0 0 0 0 0 0 0 0 0 0 0 0 0 0 0 0 0 0 0 0 0 0 0 0 0 0 0 0 0 0 0 0 0 0 0 0 0 0 0 0 0 0 0 0 0 0 0 0 0 0 0 0 0 0 0 0 0 0 0 0 0 0 0 0 0 0 0 0 0 0 0 0 0 0 0 0 0 0 0 0 0 0 0 0 0 0
0 0 0 0 0 0 0 0 0 0 0 1175 1153 1172 0 0 1279 1314 0 0 0 1264 1267 0 0 0 0 0 0 0 0 0 0 0 0 0 0 0 0 0 0 0 0 0 0 0 0 0 0 0 0 0 0 0 0 0 0 0 0 0 0 0 0 0 0 0 0 0 0 0 0 0 0 0 0 0 0 0 0 0 0 0 0 0 0 0 0 0 0 0 0 0 0 0 0 0 0 0 0 0 0 0 0 0 0 0 0 0 0 0 0 0 0 0 0 0 0 0 0 0
0 0 0 0 0 0 0 0 1128 1153 1142 1155 1145 1197 1181 1213 1252 1325 1324 0 1291 1264 1280 0 0 0 0 0 0 0 0 0 0 0 0 0 0 0 0 0 0 0 0 0 0 0 0 0 0 0 0 0 0 0 0 0 0 0 0 0 0 0 0 0 0 0 0 0 0 0 0 0 0 0 0 0 0 0 0 0 0 0 0 0 0 0 0 0 0 0 0 0 0 0 0 0 0 0 0 0 0 0 0 0 0 0 0 0 0 0 0 0 0 0 0 0 0 0 0 0
0 0 0 0 0 0 0 1122 1110 1124 0 1122 1207 1172 1194 1193 1294 1271 1283 1237 1268 1262 1265 1249 0 0 0 0 0 0 0 0 0 0 0 0 0 0 0 0 0 0 0 0 0 0 0 0 0 0 0 0 0 0 0 0 0 0 0 0 0 0 0 0 0 0 0 0 0 0 0 0 0 0 0 0 0 0 0 0 0 0 0 0 0 0 0 0 0 0 0 0 0 0 0 0 0 0 0 0 0 0 0 0 0 0 0 0 0 0 0 0 0 0 0 0 0 0 0 0
0 0 0 0 0 0 0 0 0 0 0 0 1164 1203 1246 1258 1288 1274 1276 1257 1278 1283 1270 1277 0 0 0 0 0 0 0 1410 0 0 0 0 0 0 0 0 0 0 0 0 0 0 0 0 0 0 0 0 0 0 0 0 0 0 0 0 0 0 0 0 0 0 0 0 0 0 0 0 0 0 0 0 0 0 0 0 0 0 0 0 0 0 0 0 0 0 0 0 0 0 0 0 0 0 0 0 0 0 0 0 0 0 0 0 0 0 0 0 0 0 0 0 0 0 0 0
0 0 0 0 0 0 0 0 0 0 0 0 1217 1245 1257 1299 1292 1285 1267 1238 1248 1251 1249 1291 0 1359 1375 1355 1335 1346 0 1426 0 0 0 0 0 0 0 0 0 0 0 0 0 0 0 0 0 0 0 0 0 0 0 0 0 0 0 0 0 0 0 0 0 0 0 0 0 0 0 0 0 0 0 0 0 0 0 0 0 0 0 0 0 0 0 0 0 0 0 0 0 0 0 0 0 0 0 0 0 0 0 0 0 0 0 0 0 0 0 0 0 0 0 0 0 0 0 0
0 0 0 0 0 0 0 0 0 0 0 0 1244 1274 1253 1254 1282 1264 1250 1251 1262 1277 1275 1263 0 0 1319 1321 1334 1350 1361 1383 0 0 0 0 0 0 0 0 0 0 0 0 0 0 0 0 0 0 0 0 0 0 0 0 0 0 0 0 0 0 0 0 0 0 0 0 0 0 0 0 0 0 0 0 0 0 0 0 0 0 0 0 0 0 0 0 0 0 0 0 0 0 0 0 0 0 0 0 0 0 0 0 0 0 0 0 0 0 0 0 0 0 0 0 0 0 0 0
0 0 0 0 0 0 0 0 0 0 0 0 0 0 1327 1299 1280 1261 1284 1255 1264 1293 1256 1270 1303 0 0 1345 1366 1368 1347 1429 1431 0 0 0 0 0 0 0 0 0 0 0 0 0 0 0 0 0 0 0 0 0 0 0 0 0 0 0 0 0 0 0 0 0 0 0 0 0 0 0 0 0 0 0 0 0 0 0 0 0 0 0 0 0 0 0 0 0 0 0 0 0 0 0 0 0 0 0 0 0 0 0 0 0 0 0 0 0 0 0 0 0 0 0 0 0 0 0
0 0 0 0 0 0 0 0 0 0 0 0 0 0 0 0 0 0 0 0 0 1315 1294 1266 1298 0 0 1351 1366 1358 1388 1402 1460 0 0 0 0 0 0 0 0 0 0 0 0 0 0 0 0 0 0 0 0 0 0 0 0 0 0 0 0 0 0 0 0 0 0 0 0 0 0 0 0 0 0 0 0 0 0 0 0 0 0 0 0 0 0 0 0 0 0 0 0 0 0 0 0 0 0 0 0 0 0 0 0 0 0 0 0 0 0 0 0 0 0 0 0 0 0 0
0 0 0 0 0 0 0 0 0 0 0 0 0 0 0 0 0 0 0 0 0 0 0 1360 1341 0 0 0 1369 1340 1352 1411 1416 0 0 0 0 0 0 0 0 0 0 0 0 0 0 0 0 0 0 0 0 0 0 0 0 0 0 0 0 0 0 0 0 0 0 0 0 0 0 0 0 0 0 0 0 0 0 0 0 0 0 0 0 0 0 0 0 0 0 0 0 0 0 0 0 0 0 0 0 0 0 0 0 0 0 1765 0 0 0 0 0 0 0 0 0 0 0 0
0 0 0 0 0 0 0 0 0 0 0 0 0 0 0 0 0 0 0 0 0 0 0 1416 1372 1329 1319 1287 1353 1335 1353 1407 1438 0 0 0 0 0 0 0 0 0 0 0 0 0 0 0 0 0 0 0 0 0 0 0 0 0 0 0 0 0 0 0 0 0 0 0 0 0 0 0 0 0 0 0 0 0 0 0 0 0 0 0 0 0 0 0 0 0 0 0 0 0 0 0 0 0 0 0 0 0 0 0 0 0 1793 1746 0 0 0 0 0 0 0 0 0 0 0 0
0 0 0 0 0 0 0 0 0 0 0 0 0 0 0 0 0 0 0 0 0 0 0 1376 1394 1364 1301 1307 1331 1334 1331 1401 1400 0 0 0 0 0 0 0 0 0 0 0 0 0 0 0 0 0 0 0 0 0 0 0 0 0 0 0 0 0 0 0 0 0 0 0 0 0 0 0 0 0 0 0 0 0 0 0 0 0 0 0 0 0 0 0 0 0 0 0 0 0 0 0 0 0 0 0 0 0 0 0 0 1734 1759 1697 0 0 0 0 0 0 0 0 0 0 0 0
0 0 0 0 0 0 0 0 0 0 0 0 0 0 0 0 0 0 0 0 0 0 0 1363 1378 1363 1359 1341 1320 1346 1364 1402 1422 0 0 0 0 0 0 0 0 0 0 0 0 0 0 0 0 0 0 0 0 0 0 0 0 0 0 0 0 0 0 0 0 0 0 0 0 0 0 0 0 0 0 0 0 0 0 0 0 0 0 0 0 0 0 0 0 0 0 0 0 0 0 0 0 0 0 0 0 0 0 0 0 1673 1737 0 0 0 0 0 0 0 0 0 0 0 0 0
0 0 0 0 0 0 0 0 0 0 0 0 0 0 0 0 0 0 0 0 0 0 0 1342 1339 1386 1373 1354 1357 1335 1372 1405 1427 0 0 0 0 0 0 0 0 0 0 0 0 0 0 0 0 0 0 0 0 0 0 0 0 0 0 0 0 0 0 0 0 0 0 0 0 0 0 0 0 0 0 0 0 0 0 0 0 0 0 0 0 0 0 0 0 0 0 0 0 0 0 0 0 0 0 0 0 0 0 0 0 0 0 0 1708 0 0 0 0 1625 0 0 0 0 0 0
1234 1252 1258 1308 1245 1291 1283 0 0 0 0 0 0 0 0 0 0 0 0 0 0 0 0 0 1360 1359 1375 1381 1360 1334 1341 1406 1420 0 0 0 0 0 0 0 0 0 0 0 0 0 0 0 0 0 0 0 0 0 0 0 0 0 0 0 0 0 0 0 0 0 0 0 0 0 0 0 0 0 0 0 0 0 0 0 0 0 0 0 0 0 0 0 0 0 0 0 0 0 0 0 0 0 0 0 0 0 0 0 0 1697 1718 1681 1676 1682 0 0 0 0 0 0 0 0 0 0
1249 1269 1261 1277 1303 1295 1314 1296 1346 1338 1389 0 0 0 0 0 0 0 0 0 0 0 0 1399 1342 1377 1361 1351 1376 1390 1410 1420 1432 0 0 0 0 0 0 0 0 0 0 0 0 0 0 0 0 0 0 0 0 0 0 0 0 0 0 0 0 0 0 0 0 0 0 0 0 0 0 0 0 0 0 0 0 0 0 0 0 0 0 0 0 0 0 0 0 0 0 0 0 0 0 0 0 0 0 0 0 0 0 1856 1742 1740 1741 1741 1703 1695 0 1680 0 0 0 0 0 0 0 0
1282 1239 1258 1285 1292 1300 1308 1319 1328 1336 1351 1365 1393 1370 1394 1420 1432 0 0 0 0 0 0 0 0 1399 0 0 1419 0 0 1430 1440 0 0 0 0 0 0 0 0 0 0 0 0 0 0 0 0 0 0 0 0 0 0 0 0 0 0 0 0 0 0 0 0 0 0 0 0 0 0 0 0 0 0 0 0 0 0 0 0 0 0 0 0 0 0 0 0 0 0 0 0 0 0 0 0 0 0 0 0 0 0 1765 1774 1748 1748 1697 1752 1727 1701 1646 0 0 0 0 0 0 0 0
0 0 0 0 1310 1292 1301 1316 1311 1348 1325 1350 1367 1365 1395 1360 1390 1409 1415 1442 0 0 0 0 0 0 0 0 0 0 0 1435 1417 1437 0 0 0 0 0 0 0 0 0 0 0 0 0 0 0 0 0 0 0 0 0 0 0 0 0 0 0 0 0 0 0 0 0 0 0 0 0 0 0 0 0 0 0 0 0 0 0 0 0 0 0 0 0 0 0 0 0 0 0 0 0 0 0 0 0 0 0 0 1811 1822 1760 1720 1740 1712 1682 0 0 0 0 0 0 0 0 0 0 0
0 0 0 0 0 0 0 0 0 1338 1337 1344 1365 1375 1387 1389 1439 1408 1419 1445 1478 1472 0 0 0 0 0 0 0 0 0 1479 1475 1494 0 0 0 0 0 0 0 0 0 0 0 0 0 0 0 0 0 0 0 0 0 0 0 0 0 0 0 0 0 0 0 0 0 0 0 0 0 0 0 0 0 0 0 0 0 0 0 0 0 0 0 0 0 0 0 0 0 0 0 0 0 0 0 0 0 0 0 0 0 1758 1674 1635 1598 1600 1614 1608 1633 1591 1558 1573 1576 0 0 0 0 0
0 0 0 0 0 0 0 0 0 0 0 0 0 0 0 1441 1381 1440 1431 1440 1461 1472 0 0 0 0 0 0 0 0 0 0 1510 0 0 0 0 0 0 0 0 0 0 0 0 0 0 0 0 0 0 0 0 0 0 0 0 0 0 0 0 0 0 0 0 0 0 0 0 0 0 0 0 0 0 0 0 0 0 0 0 0 0 0 0 0 0 0 0 0 0 0 0 0 0 0 0 0 0 0 0 1748 1619 1643 1563 1590 1577 1584 1602 1562 1576 1602 1570 1584 1556 0 0 0 0 0
0 0 0 0 0 0 0 0 0 0 0 0 0 0 0 0 0 0 0 0 0 1482 0 0 0 0 0 0 0 0 0 0 0 0 0 0 0 0 0 0 0 0 0 0 0 0 0 0 0 0 0 0 0 0 0 0 0 0 0 0 0 0 0 0 0 0 0 0 0 0 0 0 0 0 0 0 0 0 0 0 0 0 0 0 0 0 0 0 0 0 0 0 0 0 0 0 0 0 0 0 0 1570 1565 1593 1589 1592 1608 1580 1577 1596 1577 1577 1584 1552 0 0 0 0 0 0
0 0 0 0 0 0 0 0 0 0 0 0 0 0 0 0 0 0 0 0 0 0 0 0 0 0 0 0 0 0 0 0 0 0 0 0 0 0 0 0 0 0 0 0 0 0 0 0 0 0 0 0 0 0 0 0 0 0 0 0 0 0 0 0 0 0 0 0 0 0 0 0 0 0 0 0 0 0 0 0 0 0 0 0 0 0 0 0 0 0 0 0 0 0 0 0 0 0 0 0 0 0 0 1570 1607 1606 1599 1612 1588 1603 1588 1575 0 0 0 0 0 0 0 0
0 0 0 0 0 0 0 0 0 0 0 0 0 0 0 0 0 0 0 0 0 0 0 0 0 0 0 0 0 0 0 0 0 0 0 0 0 0 0 0 0 0 0 0 0 0 0 0 0 0 0 0 0 0 0 0 0 0 0 0 0 0 0 0 0 0 0 0 0 0 0 0 0 0 0 0 0 0 0 0 0 0 0 0 0 0 0 0 0 0 0 0 0 0 0 0 0 0 0 0 0 0 0 0 0 0 0 1540 1566 0 0 0 0 0 0 0 0 0 0 0
0 0 0 0 0 0 0 0 0 0 0 0 0 0 0 0 0 0 0 0 0 0 0 0 0 0 0 0 0 0 0 0 0 0 0 0 0 0 0 0 0 0 0 0 0 0 0 0 0 0 0 0 0 0 0 0 0 0 0 0 0 0 0 0 0 0 0 0 0 0 0 0 0 0 0 0 0 0 0 0 0 0 0 0 0 0 0 0 0 0 0 0 0 0 0 0 0 1691 0 0 0 0 0 0 0 0 0 0 0 0 0 0 0 0 0 0 0 0 0 0
575 597 0 0 0 0 0 0 0 0 0 0 0 0 0 0 0 0 0 0 0 0 0 0 0 1879 1911 0 0 0 0 0 0 0 0 0 0 0 0 0 0 0 0 0 0 0 0 2930 2915 2919 2930 2877 2946 2904 2921 2857 2860 2927 2860 2876 2863 2917 2893 2892 2871 2895 0 0 0 0 0 0 0 0 0 0 0 0 0 0 0 0 0 0 0 0 0 0 0 0 0 0 0 0 0 0 1759 0 0 0 0 0 0 0 0 0 0 0 0 0 0 0 0 0 0 0 0 0 0 0
566 585 589 590 621 649 0 0 0 0 0 0 0 0 0 0 0 0 0 0 0 0 0 0 0 0 0 1915 1955 0 0 0 0 0 0 0 0 0 0 0 0 0 0 0 0 0 0 2897 2919 2899 2933 2892 2896 2912 2881 2870 2888 2919 2914 2905 2864 2918 2894 2891 2847 2930 0 0 0 0 0 0 0 0 0 0 0 0 0 0 0 0 0 0 0 0 0 0 0 0 0 0 0 0 0 0 0 0 0 0 0 0 0 0 0 0 0 0 0 0 0 0 0 0 0 0 0 0 0 0
558 582 583 603 603 638 643 650 646 0 0 0 0 0 0 0 0 0 0 0 0 0 0 0 0 0 0 0 0 0 0 0 0 0 0 0 0 0 0 0 0 0 0 0 0 0 0 2906 2906 2892 2901 2896 2914 2885 2864 2953 2916 2884 2903 2879 2935 2869 2873 2925 2886 2898 0 0 0 0 0 0 0 0 0 0 0 0 0 0 0 0 0 0 0 0 0 0 0 0 0 0 0 0 0 0 0 0 0 0 0 0 0 0 0 0 0 0 0 0 0 0 0 0 0 0 0 0 0 0
583 590 602 600 614 630 640 651 672 678 697 707 0 0 0 0 0 0 0 0 0 0 0 0 0 0 0 0 0 0 0 0 0 0 0 0 0 0 0 0 0 0 0 0 0 0 0 2929 2923 2888 2912 2894 2867 2919 2886 2899 2915 2884 2951 2905 2931 2921 2940 2895 2916 2890 0 0 0 0 0 0 0 0 0 0 0 0 0 0 0 0 0 0 0 0 0 0 0 0 0 0 0 0 0 0 0 0 0 0 0 0 0 0 0 0 0 0 0 0 0 0 0 0 0 0 0 0 0 0
560 565 586 599 624 633 640 628 661 670 682 691 699 725 753 0 0 0 0 0 0 0 0 0 0 0 0 0 0 0 0 0 0 0 0 0 0 0 0 0 0 0 0 0 0 0 0 2918 2916 2938 2957 2934 2932 2949 2908 2936 2883 2886 2921 2894 2920 2904 2873 2965 2908 0 0 0 0 0 0 0 0 0 0 0 0 0 0 0 0 0 0 0 0 0 0 0 0 0 0 0 0 0 0 0 0 0 0 0 0 0 0 0 0 0 0 0 0 0 0 0 0 0 0 0 0 0 0 0
740 754 761 748 713 668 640 676 665 664 671 685 726 710 745 749 779 798 0 0 0 0 0 0 0 0 0 0 0 0 0 0 0 0 0 0 0 0 0 0 0 0 0 0 0 0 0 2927 2880 2912 2903 2892 2933 2924 2975 2983 2922 2912 2868 2911 2875 2936 2877 2887 2917 0 0 0 0 0 0 0 0 0 0 0 0 0 0 0 0 0 0 0 0 0 0 0 0 0 0 0 0 0 0 0 0 0 0 0 0 0 0 0 0 0 0 0 0 0 0 0 0 0 0 0 0 0 0 0
770 783 803 786 821 816 839 849 821 778 744 742 696 691 740 715 760 770 790 806 776 0 0 0 0 0 0 0 0 0 0 0 0 0 0 0 0 0 0 0 0 0 0 0 0 0 0 2934 2923 2963 2973 2901 2939 2897 2889 2906 2928 2944 2934 2933 2929 2916 2881 2858 2890 2874 0 0 0 0 0 0 0 0 0 0 0 0 0 0 0 0 0 0 0 0 0 0 0 0 0 0 0 0 0 0 0 0 0 0 0 0 0 0 0 0 0 0 0 0 0 0 0 0 0 0 0 0 0 0
757 788 844 826 835 839 888 878 908 921 909 921 928 887 859 796 782 762 804 779 844 864 884 897 0 0 0 0 0 0 0 0 0 0 0 0 0 0 0 0 0 0 0 0 0 0 0 2921 2906 2933 2848 2910 2873 2937 2924 2920 2933 2891 2903 2896 2891 2867 2899 2895 2870 2889 0 0 0 0 0 0 0 0 0 0 0 0 0 0 0 0 0 0 0 0 0 0 0 0 0 0 0 0 0 0 0 0 0 0 0 0 0 0 0 0 0 0 0 0 0 0 0 0 0 0 0 0 0 0
631 0 844 829 861 858 897 892 917 930 930 947 944 960 949 962 948 917 913 863 829 866 867 878 899 971 0 0 0 0 0 0 0 0 0 0 0 0 0 0 0 0 0 0 0 0 0 2882 2921 2894 2944 2918 2903 2933 2875 2933 2880 2886 2901 2888 2880 2883 2865 2888 2882 2846 0 0 0 0 0 0 0 0 0 0 0 0 0 0 0 0 0 0 0 0 0 0 0 0 0 0 0 0 0 0 0 0 0 0 0 0 0 0 0 0 0 0 0 0 0 0 0 0 0 0 0 0 0 0
689 927 940 948 943 908 929 912 913 936 929 941 943 961 954 952 947 951 956 945 935 932 905 914 913 905 959 978 968 0 0 0 0 0 0 0 0 0 0 0 0 0 0 0 0 0 0 2884 2889 2911 2936 2904 2901 2893 2913 2937 2927 2858 2891 2904 2931 2922 2885 2898 2894 2889 0 0 0 0 0 0 0 0 0 0 0 0 0 0 0 0 0 0 0 0 0 0 0 0 0 0 0 0 0 0 0 0 0 0 0 0 0 0 0 0 0 0 0 0 0 0 0 0 0 0 0 0 0 0
589 721 0 0 0 0 0 0 0 0 962 980 994 977 966 968 970 971 952 948 960 954 955 952 965 973 995 1050 1017 1059 1108 0 0 0 0 0 0 0 0 0 0 0 0 0 0 0 0 2898 2867 2893 2894 2865 2906 2883 2840 2871 2830 2873 2918 2930 2897 2861 2885 2871 2888 2877 0 0 0 0 0 0 0 0 0 0 0 0 0 0 0 0 0 0 0 0 0 0 0 0 0 0 0 0 0 0 0 0 0 0 0 0 0 0 0 0 0 0 0 0 0 0 0 0 0 0 0 0 0 0
538 594 577 0 1102 1160 1128 1160 1137 1150 1165 1139 1165 1151 1133 1146 1124 1050 0 0 1001 1058 1051 999 993 1021 1113 1115 1098 1107 1078 0 0 0 0 0 0 0 0 0 0 0 0 0 0 0 0 2887 2919 2897 2878 2922 2907 2899 2947 2934 2947 2898 2897 2884 2912 2910 2888 2900 2862 2849 0 0 0 0 0 0 0 0 0 0 0 0 0 0 0 0 0 0 0 0 0 0 0 0 0 0 0 0 0 0 0 0 0 0 0 0 0 0 0 0 0 0 0 0 0 0 0 0 0 0 0 0 0 0
588 599 600 635 0 0 0 0 0 0 0 0 0 0 0 0 1408 1009 1000 0 1120 1150 1118 0 0 1088 1165 1167 1157 1143 1095 0 0 0 0 0 0 0 0 0 0 0 0 0 0 0 0 2925 2925 2911 2932 2932 2893 2908 2912 2919 2893 2907 2858 2912 2889 2898 2836 2883 2867 0 0 0 0 0 0 0 0 0 0 0 0 0 0 0 0 0 0 0 0 0 0 0 0 0 0 0 0 0 0 0 0 0 0 0 0 0 0 0 0 0 0 0 0 0 0 0 0 0 0 0 0 0 0 0
587 621 587 600 589 0 0 0 0 0 0 0 0 0 0 0 0 983 996 0 0 0 0 0 0 0 0 0 0 0 0 0 0 0 0 0 0 0 0 0 0 0 0 0 0 0 0 2894 2925 2903 2936 2957 2901 2931 2917 2884 2870 2927 2900 2885 2944 2888 2858 2873 2906 0 0 0 0 0 0 0 0 0 0 0 0 0 0 0 0 0 0 0 0 0 0 0 0 0 0 0 0 0 0 0 0 0 0 0 0 0 0 0 0 0 0 0 0 0 0 0 0 0 0 0 0 0 0 0
578 574 560 604 605 587 0 0 0 0 0 0 0 0 0 0 0 0 0 0 0 0 0 0 0 0 0 0 0 0 0 0 0 0 0 0 0 0 0 0 0 0 0 0 0 0 0 2931 2928 2933 2884 2912 2940 2904 2921 2893 2890 2861 2891 2888 2865 2861 2887 2914 2909 0 0 0 0 0 0 0 0 0 0 0 0 0 0 0 0 0 0 0 0 0 0 0 0 0 0 0 0 0 0 0 0 0 0 0 0 0 0 0 0 0 0 0 0 0 0 0 0 0 0 0 0 0 0 0
599 614 600 619 610 595 0 0 0 0 0 0 0 0 0 0 0 0 0 0 0 0 976 0 0 0 0 0 0 0 0 0 0 0 0 0 0 0 0 0 0 0 0 0 0 0 0 2912 2947 2953 2952 2908 2926 2888 2950 2905 2947 2923 2868 2866 2898 2841 2913 2897 2898 0 0 0 0 0 0 0 0 0 0 0 0 0 0 0 0 0 0 0 0 0 0 0 0 0 0 0 0 0 0 0 0 0 0 0 0 0 0 0 0 0 0 0 0 0 0 0 0 0 0 0 0 0 0 0
590 581 610 623 648 598 0 0 0 0 0 0 0 0 0 0 0 0 0 0 0 0 931 0 0 0 0 0 0 0 0 0 0 0 0 0 0 0 0 0 0 0 0 0 0 0 0 2915 2870 2945 2909 2920 2890 2910 2868 2879 2894 2887 2859 2920 2890 2877 2871 2912 2862 2882 0 0 0 0 0 0 0 0 0 0 0 0 0 0 0 0 0 0 0 0 0 0 0 0 0 0 0 0 0 0 0 0 0 0 0 0 0 0 0 0 0 0 0 0 0 0 0 0 0 0 0 0 0 0
582 578 592 602 606 606 620 0 0 0 0 0 0 0 0 0 0 0 0 0 0 0 0 0 0 0 0 0 0 0 0 0 0 0 0 0 0 0 0 0 0 0 0 0 0 0 0 2873 2945 2884 2890 2947 2940 2879 2867 2900 2930 2917 2913 2895 2893 2865 2848 2880 2906 0 0 0 0 0 0 0 0 0 0 0 0 0 0 0 0 0 0 0 0 0 0 0 0 0 0 0 0 0 0 0 0 0 0 0 0 0 0 0 0 0 0 0 0 0 0 0 0 0 0 0 0 0 0 0
577 573 598 606 611 613 614 0 0 0 0 0 0 0 0 0 2303 0 0 0 0 0 952 967 0 0 0 0 0 0 0 0 0 0 0 0 0 0 0 0 0 0 0 0 0 0 0 2947 2926 2908 2948 2928 2897 2932 2897 2885 2951 2895 2867 2917 2940 2907 2885 2882 2888 2874 0 0 0 0 0 0 0 0 0 0 0 0 0 0 0 0 0 0 0 0 0 0 0 0 0 0 0 0 0 0 0 0 0 0 0 0 0 0 0 0 0 0 0 0 0 0 0 0 0 0 0 0 0 0
599 571 597 603 608 599 575 0 0 0 0 0 0 0 0 0 0 0 0 0 0 0 0 0 0 0 0 0 0 0 0 0 0 0 0 0 0 0 0 0 0 0 0 0 0 0 0 2845 2875 2910 2896 2945 2892 2915 2919 2881 2846 2917 2892 2914 2861 2852 2869 2884 2896 2886 0 0 0 0 0 0 0 0 0 0 0 0 0 0 0 0 0 0 0 0 0 0 0 0 0 0 0 0 0 0 0 0 0 0 0 0 0 0 0 0 0 0 0 0 0 0 0 0 0 0 0 0 0 0
586 597 580 645 590 619 0 0 0 0 0 0 0 0 0 0 0 0 0 0 0 0 0 0 0 0 0 0 0 0 0 0 0 0 0 0 0 0 0 0 0 0 0 0 0 0 0 0 0 0 0 0 0 0 0 0 0 0 0 0 0 2963 2981 2901 2938 0 0 0 0 0 0 0 0 0 0 0 0 0 0 0 0 0 0 0 0 0 0 0 0 0 0 0 0 0 0 0 0 0 0 0 0 0 0 0 0 0 0 0 0 0 0 0 0 0 0 0 0 0 0 0
616 587 594 595 627 586 0 0 0 0 0 0 0 0 0 0 0 0 0 0 0 0 0 0 0 0 0 0 0 0 0 0 0 0 0 0 0 0 0 0 0 0 0 0 0 0 0 0 0 0 0 0 0 0 0 0 0 0 0 0 0 0 0 0 0 0 0 0 0 0 0 0 0 0 0 0 0 0 0 0 0 0 0 0 0 0 0 0 0 0 0 0 0 0 0 0 0 0 0 0 0 0 0 0 0 0 0 0 0 0 0 0 0 0 0 0 0 0 0 0
552 588 576 578 590 563 0 0 0 0 0 0 0 0 0 0 0 0 0 0 0 0 0 0 0 0 0 0 0 0 0 0 0 0 0 0 0 0 0 0 0 0 0 0 0 0 0 0 0 0 0 0 0 0 0 0 0 0 0 0 0 0 0 0 0 0 0 0 0 0 0 0 0 0 0 0 0 0 0 0 0 0 0 0 0 0 0 0 0 0 0 0 0 0 0 0 0 0 0 0 0 0 0 0 0 0 0 0 0 0 0 0 0 0 0 0 0 0 0 0
600 615 609 609 575 0 0 0 0 0 0 0 0 0 0 0 0 0 0 0 0 0 0 0 0 0 0 0 0 0 0 0 0 0 0 0 0 0 0 0 0 0 0 0 0 0 0 0 0 0 0 0 0 0 0 0 0 0 0 0 0 0 0 0 0 0 0 0 0 0 0 0 0 0 0 0 0 0 0 0 0 0 0 0 0 0 0 0 0 0 0 0 0 0 0 0 0 0 0 0 0 0 0 0 0 0 0 0 0 0 0 0 0 0 0 0 0 0 0 0
609 606 619 606 0 0 0 0 0 0 0 0 0 0 0 0 0 0 0 0 0 0 0 0 0 0 899 894 888 919 870 915 916 898 0 904 0 0 919 890 946 916 0 0 0 0 0 0 0 0 0 0 0 0 0 0 0 0 0 0 0 0 0 0 0 0 0 0 0 0 0 0 0 0 0 0 0 0 0 0 0 0 0 0 0 0 0 0 0 0 0 0 0 0 0 0 0 0 0 0 0 0 0 0 0 0 0 0 0 0 0 0 0 0 0 0 0 0 0 0
582 598 0 0 0 0 0 714 711 688 673 700 697 730 708 703 682 699 707 735 714 708 706 754 686 736 725 725 708 725 728 691 697 740 767 731 692 722 775 747 754 750 758 756 793 761 743 727 794 748 748 755 752 811 736 751 759 781 800 754 782 787 768 808 771 750 795 806 829 826 780 786 832 0 0 0 0 0 0 0 0 0 0 0 0 0 0 0 0 0 0 0 0 0 0 0 0 0 0 0 0 0 0 0 0 0 0 0 0 0 0 0 0 0 0 0 0 0 0 0
542 547 583 543 565 552 567 584 605 570 563 550 572 573 578 553 598 587 607 591 578 606 584 582 608 595 593 579 614 606 589 613 613 615 604 600 611 575 621 569 616 612 601 618 562 608 583 621 605 605 608 620 644 658 652 596 624 632 612 610 668 628 654 679 650 632 634 681 664 629 634 677 650 623 693 611 622 666 656 676 690 658 647 684 653 677 610 659 628 668 696 662 680 672 736 720 697 723 661 682 695 745 0 0 0 0 0 0 0 0 0 0 0 0 0 0 0 0 0 0
488 454 478 493 481 522 504 504 494 500 492 515 481 489 490 503 497 509 506 511 488 495 521 539 526 515 514 502 485 503 510 490 510 525 501 509 512 511 527 504 515 511 526 503 511 509 506 512 515 529 523 527 545 546 508 537 537 503 525 526 545 542 528 540 555 533 538 539 548 530 560 539 530 530 541 535 544 559 527 537 539 537 570 555 563 564 538 585 561 560 583 565 568 593 603 573 584 569 548 564 552 567 559 584 0 586 0 567 636 603 0 0 0 0 0 0 0 0 0 0
434 405 454 464 454 421 410 440 457 450 430 451 445 443 455 456 455 459 432 436 464 446 457 444 463 448 451 445 450 450 461 456 457 454 464 468 465 460 480 468 469 482 461 474 470 466 470 482 471 463 476 471 478 482 476 460 478 476 473 475 465 480 489 493 484 478 481 474 495 489 505 484 479 488 491 494 480 491 486 486 482 491 489 488 478 486 488 488 481 491 472 497 526 514 520 499 493 489 524 493 481 491 507 513 509 509 501 522 499 519 512 514 0 0 0 0 0 0 0 0
386 401 398 392 393 384 377 406 392 389 393 394 397 393 402 395 401 401 410 407 413 423 413 420 408 412 410 416 410 415 407 408 417 421 403 412 418 419 413 418 421 411 420 419 413 419 422 414 430 429 427 446 413 421 429 427 432 431 439 423 422 435 427 426 443 426 422 423 436 427 438 438 427 421 433 412 419 432 425 446 423 443 432 428 438 425 439 425 447 433 430 437 448 452 449 414 422 445 439 455 419 435 452 447 446 419 451 437 431 455 454 414 443 452 0 0 0 0 0 0
357 331 360 334 363 363 368 357 346 349 355 360 357 346 349 365 356 368 354 352 365 364 371 370 361 355 355 365 361 361 385 380 366 376 369 366 379 369 368 376 375 373 370 371 372 368 372 374 381 371 370 379 386 383 374 377 383 377 383 379 382 378 386 377 384 384 384 380 393 381 385 399 389 382 392 384 408 393 387 395 400 389 398 383 376 395 391 381 388 392 381 404 394 384 407 398 384 387 397 416 394 380 391 387 413 397 386 394 382 389 397 386 405 333 431 400 0 0 0 0
314 328 332 332 327 310 328 330 338 333 340 326 322 343 335 345 344 336 324 338 346 342 335 343 354 355 327 343 345 340 341 347 346 364 338 338 342 343 326 333 338 344 342 334 339 339 346 349 340 357 362 330 357 342 348 345 345 339 344 333 348 348 348 347 350 348 348 344 339 349 356 352 337 343 355 357 340 359 341 360 348 355 349 338 351 354 344 343 351 355 345 341 361 345 360 348 352 371 356 369 357 349 367 373 349 356 356 366 382 372 375 367 359 349 357 335 360 0 0 0
277 285 293 290 287 285 295 291 307 298 307 278 298 292 299 285 305 300 291 299 291 310 313 293 283 283 291 289 299 299 303 298 296 304 302 296 307 304 296 303 311 313 302 298 301 312 314 297 308 304 302 308 313 310 315 305 310 310 304 305 301 311 306 314 300 314 315 314 304 303 323 316 300 312 306 311 309 293 314 308 313 308 310 308 311 335 319 318 316 318 317 317 316 316 315 315 320 320 308 327 307 325 308 319 335 325 299 326 301 326 330 331 272 301 311 306 306 301 306 0
268 280 275 277 280 278 276 276 277 290 286 287 281 287 291 279 281 282 267 271 274 278 273 273 274 270 267 268 281 274 282 272 278 275 278 283 291 286 287 285 280 288 284 287 283 276 288 283 281 279 287 288 290 283 285 284 283 289 286 287 282 289 284 287 289 292 291 288 298 282 278 287 293 285 291 287 286 283 292 285 290 293 281 295 290 289 285 292 291 284 293 291 292 287 302 294 277 292 292 296 295 287 303 296 297 293 309 283 288 284 307 287 297 297 288 275 298 279 296 322
258 254 258 245 263 256 250 256 253 248 255 246 251 252 257 255 265 263 252 251 264 255 262 256 257 251 256 259 250 260 251 262 263 261 261 263 261 266 261 265 263 259 266 265 262 265 260 256 259 273 262 272 263 269 265 264 264 261 268 265 264 270 265 264 272 266 269 264 270 269 265 270 267 267 272 267 267 267 268 267 267 266 262 272 266 271 274 263 267 261 267 263 275 272 266 270 272 275 276 286 267 269 280 291 263 265 273 271 278 275 261 265 277 257 265 279 255 279 251 263
238 231 231 236 239 232 247 230 244 226 235 239 240 242 242 243 239 243 247 245 238 250 243 242 238 243 242 248 246 247 240 245 247 248 247 246 237 248 248 247 240 248 242 245 251 245 248 241 244 252 249 246 244 240 250 239 246 243 246 245 255 248 252 251 249 250 249 252 253 252 246 249 244 246 250 257 249 249 251 251 255 243 250 246 253 263 247 251 248 249 245 252 259 244 251 255 250 243 251 258 258 254 251 249 252 253 249 249 245 251 259 243 264 247 259 249 256 259 253 241
216 218 215 212 217 226 222 224 220 215 221 224 231 230 221 223 219 221 232 222 229 226 233 236 223 224 222 221 229 224 218 233 227 224 242 235 234 230 229 226 238 232 229 230 240 232 224 235 243 238 235 228 234 231 235 235 227 235 240 240 234 240 238 230 235 229 233 239 236 239 238 235 232 233 227 237 236 234 229 233 235 230 234 234 234 233 240 241 233 232 234 234 238 238 236 228 234 245 241 241 248 241 242 245 238 240 238 245 247 238 243 265 241 261 241 245 226 225 219 239
209 208 217 217 211 202 210 209 212 208 212 215 215 219 209 211 215 204 213 216 216 213 217 210 210 216 216 199 213 216 218 217 197 214 211 216 215 202 198 196 221 224 198 214 224 220 218 218 217 223 217 220 216 203 205 222 222 202 222 219 205 202 219 223 218 219 224 223 222 219 221 226 220 215 219 213 220 216 218 219 219 221 219 226 224 220 226 221 217 218 225 211 221 223 226 222 212 219 220 225 215 220 228 218 221 230 222 220 230 237 219 212 232 223 218 224 200 244 214 211
197 196 195 204 202 204 208 188 188 198 198 202 187 194 205 204 189 191 195 192 207 191 198 193 189 186 186 191 190 210 193 189 191 188 200 193 190 189 213 193 189 192 197 198 195 191 192 200 196 192 192 199 189 195 190 193 200 196 197 197 197 192 195 196 194 197 195 191 196 196 197 193 199 192 200 196 197 193 198 199 195 214 212 201 200 200 189 187 197 213 213 209 193 211 195 191 193 208 218 197 210 213 211 211 217 211 213 206 208 208 203 210 204 212 210 200 198 201 193 216
180 177 198 190 173 177 178 187 176 178 187 179 176 179 184 183 184 187 180 180 179 186 187 189 192 181 189 182 182 195 192 185 192 189 195 194 194 196 191 191 194 194 198 200 198 191 194 199 200 197 195 196 198 196 195 199 197 196 197 201 194 197 194 199 202 196 197 194 198 197 197 195 199 199 191 198 199 192 193 196 196 195 194 186 187 196 192 195 189 185 191 189 191 180 178 181 182 182 185 187 190 179 184 187 186 189 189 190 193 187 181 178 183 193 197 183 196 175 170 197
177 175 178 176 173 181 178 180 181 182 175 183 179 184 187 181 185 186 185 181 184 180 185 186 181 183 188 186 188 185 181 189 192 180 186 181 183 182 187 182 190 184 187 186 191 186 191 192 185 190 189 191 191 190 187 189 189 189 189 189 182 185 186 191 191 193 193 188 192 188 188 189 189 190 188 195 189 187 192 184 189 192 190 189 186 191 186 192 184 189 181 192 193 181 180 181 188 188 186 180 183 177 185 175 178 181 182 177 173 180 182 182 176 186 168 195 177 176 177 187
166 168 158 170 166 164 171 173 169 161 176 170 172 169 175 174 176 175 177 178 171 173 171 170 171 166 174 169 174 176 170 175 173 175 174 171 175 170 177 181 178 176 170 179 175 181 179 183 178 183 179 179 173 182 179 181 177 179 183 180 174 182 178 178 179 184 182 188 178 179 178 179 171 178 181 179 179 183 178 177 176 183 178 177 177 176 180 178 183 182 172 180 182 176 179 173 175 174 181 183 170 183 183 179 176 173 171 179 172 170 173 174 175 175 174 170 166 172 170 171
161 165 164 163 161 168 157 159 168 165 167 169 166 170 166 170 166 171 171 165 167 165 173 170 171 159 174 171 167 171 166 168 167 166 164 159 172 167 171 164 161 174 172 174 172 175 165 173 176 168 174 171 173 174 174 171 170 172 174 173 173 176 173 175 175 173 181 174 162 170 170 171 171 177 171 174 172 172 170 175 165 174 171 170 167 176 170 168 174 165 170 175 168 170 168 170 169 178 169 170 170 172 177 173 181 174 179 173 168 167 171 162 170 179 170 172 174 171 165 194
153 161 160 164 164 163 163 153 157 161 166 160 157 162 160 157 166 165 163 165 161 161 164 165 162 159 162 157 160 163 159 167 161 163 162 164 160 163 157 162 160 165 167 164 167 168 161 164 164 162 163 165 165 162 165 166 163 168 166 166 165 164 165 162 166 167 162 166 170 161 163 158 165 166 169 165 171 172 169 164 171 165 166 163 168 161 166 163 165 161 159 162 166 159 159 164 161 164 166 171 170 168 159 167 155 159 165 161 153 161 169 171 153 160 172 159 164 156 162 171
146 149 151 148 152 152 146 151 155 160 149 149 149 153 158 155 150 159 158 158 160 157 159 155 156 154 152 159 154 158 153 155 155 160 154 154 152 156 153 160 157 159 158 159 158 151 155 154 156 157 153 160 164 159 161 157 158 156 159 163 160 159 155 158 163 161 162 158 157 157 159 158 161 158 157 162 165 156 159 157 153 158 154 158 156 157 156 161 161 156 158 159 156 156 157 150 157 161 152 157 159 156 155 159 156 156 156 159 154 158 154 169 160 162 161 159 152 162 154 151
138 140 145 139 150 148 145 149 146 144 145 149 151 142 146 142 146 152 146 154 148 146 149 152 147 152 147 146 149 144 149 148 149 147 150 143 152 154 149 150 153 152 149 150 150 151 147 149 148 144 148 149 151 146 151 151 145 157 155 155 156 151 152 158 147 152 151 152 152 149 151 155 148 155 152 150 157 155 152 152 152 153 148 148 145 153 154 155 152 154 151 157 156 150 151 146 150 151 151 155 154 156 159 158 147 151 153 149 154 148 149 145 149 148 160 148 161 159 166 128
133 134 140 136 134 138 140 143 139 140 139 144 141 140 140 138 144 138 142 148 140 142 142 152 140 147 153 145 142 144 138 141 139 147 142 143 141 145 142 148 143 147 148 146 141 146 130 145 146 152 149 134 143 148 148 146 150 149 150 147 152 148 129 146 148 149 148 149 150 144 150 147 146 148 145 147 147 152 151 145 143 141 144 145 140 141 150 147 151 143 149 149 145 144 147 147 141 145 153 151 151 147 149 140 143 147 137 148 140 144 135 145 143 140 140 158 143 138 144 140
128 133 132 132 132 141 134 137 133 139 137 0 130 137 132 137 141 140 139 138 146 138 143 141 140 146 146 140 139 138 140 128 139 130 143 130 132 128 141 140 128 148 142 139 139 140 132 131 129 142 133 142 141 142 143 144 143 146 133 131 136 132 142 148 135 140 140 140 143 139 129 140 132 142 148 142 139 139 143 146 144 144 131 129 131 142 143 140 145 141 129 145 144 146 140 142 142 140 142 143 142 145 136 143 137 137 133 138 146 138 139 135 114 134 135 133 140 126 149 127
134 127 124 132 133 138 142 129 131 134 134 135 137 137 138 134 129 137 134 132 138 142 137 139 139 136 133 129 138 125 124 125 128 129 130 128 128 128 127 126 142 139 138 129 0 141 129 140 132 124 124 129 131 133 0 142 0 141 127 133 133 127 134 131 130 126 131 130 145 128 122 126 121 139 142 130 132 131 129 128 126 141 126 138 124 124 128 123 139 140 135 129 138 136 137 127 140 138 144 143 138 125 134 140 120 123 121 133 119 130 132 130 129 138 129 132 135 141 134 137
116 104 126 113 127 117 137 133 118 116 125 116 117 133 122 125 116 125 123 119 116 123 124 134 124 140 139 137 0 137 131 124 121 121 119 120 125 124 126 120 138 127 124 129 0 0 126 122 128 123 121 121 125 130 124 128 133 128 130 124 125 127 122 130 126 128 129 128 120 125 125 124 125 126 116 124 121 127 120 126 132 121 123 123 117 138 118 126 124 127 123 126 135 134 120 119 126 136 125 128 120 122 122 134 131 121 117 121 122 127 126 132 141 136 128 137 133 131 112 97
109 117 112 113 109 116 129 116 119 116 118 121 115 121 119 117 108 121 123 117 123 122 126 119 123 119 130 130 126 125 126 0 127 118 115 112 126 121 0 124 127 122 0 0 0 0 124 128 123 122 124 124 124 123 123 124 123 121 124 119 122 117 111 122 124 120 128 123 124 117 123 121 124 121 126 118 123 125 124 128 120 118 124 123 116 122 125 120 126 119 115 118 119 121 119 123 134 119 118 119 120 120 122 117 109 117 118 117 116 130 115 128 120 130 126 120 114 103 114 128
106 100 112 114 117 107 113 115 114 111 120 109 112 111 114 113 116 113 109 122 113 114 111 121 112 111 118 119 114 119 119 0 117 123 112 109 115 0 115 119 120 0 0 122 124 0 120 120 110 112 113 115 120 120 123 122 121 124 114 116 121 119 122 118 120 119 118 118 117 117 117 115 114 116 113 110 109 113 114 119 108 120 113 119 118 112 114 112 111 115 116 115 122 114 107 123 121 119 112 118 120 119 110 110 116 113 118 119 125 117 112 127 129 125 120 115 129 117 104 142
96 103 102 102 97 103 111 113 106 106 113 105 110 107 120 119 111 109 105 104 111 111 113 103 112 112 114 115 114 117 116 114 113 114 112 113 109 115 0 112 115 116 109 111 112 119 117 0 114 0 117 112 120 114 0 0 107 107 115 110 120 113 106 110 108 114 109 109 118 106 116 104 106 105 107 109 108 107 103 115 114 106 111 104 107 106 112 108 107 112 109 105 100 112 105 117 113 113 105 108 108 112 117 110 111 111 104 109 107 122 107 115 98 112 98 110 109 93 98 122
104 100 110 111 104 100 109 106 108 114 109 109 114 112 114 117 115 111 112 97 108 95 97 104 109 113 107 115 110 115 105 109 105 107 115 111 115 0 105 106 112 107 110 96 103 110 107 107 114 0 109 112 108 114 109 112 109 106 113 111 112 110 113 0 115 108 104 109 112 107 103 103 108 110 102 106 101 102 102 111 108 108 108 108 98 106 98 111 100 101 103 108 100 98 102 103 102 106 108 104 101 113 112 118 108 97 103 104 94 105 106 104 101 98 121 102 89 112 129 103
93 94 104 107 98 93 96 99 94 89 102 103 99 101 101 105 99 106 102 108 99 104 94 102 100 104 106 99 97 106 107 100 106 102 104 98 101 106 105 103 105 102 98 96 96 103 105 99 103 103 104 108 102 106 98 103 95 103 104 100 100 106 105 0 112 103 0 111 104 104 106 103 100 106 103 105 103 102 0 102 0 105 97 103 95 104 98 102 102 104 99 103 96 91 93 96 94 101 104 95 105 98 103 100 100 103 97 104 95 92 99 106 96 121 102 90 102 101 89 106
91 88 82 90 94 94 98 95 94 93 101 100 100 102 105 94 93 92 100 96 99 97 88 85 91 94 102 99 105 102 104 105 101 101 100 100 96 101 101 98 102 98 99 96 102 97 104 105 103 103 108 94 96 100 94 96 104 104 101 101 101 102 105 103 111 100 102 103 102 102 100 102 99 101 97 94 102 96 99 98 0 100 92 87 97 96 96 110 92 95 100 101 99 103 89 102 91 98 86 104 96 90 98 92 94 99 99 101 93 98 88 93 105 105 94 100 99 88 84 116
92 93 89 94 93 92 93 84 85 90 87 93 94 86 87 83 90 87 100 107 103 94 90 93 95 87 100 97 90 103 95 101 101 95 96 101 96 94 101 104 96 96 88 94 93 91 98 99 90 99 100 97 83 94 96 98 89 91 101 97 94 96 101 0 96 104 97 99 99 96 99 99 100 97 98 104 99 96 97 103 97 91 91 102 96 96 91 92 91 99 98 94 102 81 86 87 92 88 104 90 94 101 92 95 96 93 104 75 86 85 92 90 91 86 89 84 95 86 93 72
89 87 80 79 77 87 78 89 80 91 81 88 94 91 93 90 89 88 82 90 94 94 93 95 88 86 94 92 89 96 88 88 100 94 92 91 98 88 89 89 85 96 87 90 92 96 93 99 91 99 99 94 98 89 96 90 98 91 86 88 99 93 96 92 92 93 93 86 92 97 98 94 99 98 98 95 94 91 90 95 91 98 93 92 86 96 92 91 96 96 90 95 91 88 91 92 83 93 92 94 90 88 86 79 86 84 89 81 88 82 82 77 78 83 88 88 72 87 72 85
94 77 86 82 91 89 92 98 84 89 89 92 87 90 92 92 87 86 94 89 84 92 93 94 90 92 93 91 87 85 92 86 99 95 98 95 93 90 88 100 88 92 89 92 94 95 99 92 89 97 99 99 97 90 92 94 98 91 90 93 90 90 91 91 88 91 92 98 89 92 89 93 97 96 96 90 96 97 98 94 95 90 94 94 91 86 90 95 90 90 97 95 98 87 89 92 87 92 93 99 90 85 90 93 85 91 93 82 90 82 84 93 87 80 100 88 87 109 0 0
81 88 87 87 83 83 82 89 82 0 81 90 90 85 88 92 87 89 88 86 87 85 92 94 88 88 92 95 90 94 88 94 88 95 91 93 96 93 96 90 85 98 95 83 97 97 89 97 88 98 89 96 93 90 94 96 94 96 96 96 96 99 93 87 87 95 98 92 95 96 96 94 96 98 91 89 86 91 96 95 94 93 93 88 89 87 82 91 98 90 90 95 102 85 87 85 91 90 93 86 83 88 83 87 92 90 90 95 88 73 84 88 83 83 86 73 85 82 80 0
80 80 80 85 87 90 97 85 84 78 82 84 91 85 88 85 84 87 82 88 89 88 92 88 92 87 94 92 93 90 87 89 91 89 88 93 90 88 91 93 92 85 94 98 89 81 94 95 91 91 95 97 93 86 98 94 92 95 97 96 90 95 95 89 88 97 84 86 92 94 90 97 90 85 92 86 89 95 93 86 91 89 91 91 90 93 86 88 90 86 95 91 83 89 88 82 87 86 87 87 73 82 91 87 87 91 87 84 79 90 84 92 84 92 77 79 72 64 0 0
79 73 77 80 84 81 90 92 90 83 84 76 89 84 91 88 87 87 88 89 91 93 87 81 76 93 82 81 83 92 87 81 88 91 93 83 87 87 88 89 94 89 87 93 95 83 95 85 94 94 90 88 90 82 84 95 92 94 90 90 93 94 86 94 88 95 91 86 88 89 89 91 90 92 94 84 89 90 96 86 92 88 90 87 91 95 93 87 90 86 91 91 84 84 85 90 89 84 91 92 87 89 86 85 83 84 80 86 78 74 81 91 99 83 90 128 0 0 0 0
77 67 63 65 77 81 81 83 83 73 81 76 79 87 83 79 81 82 80 78 85 77 84 75 72 71 76 83 85 75 88 70 83 80 87 76 82 83 85 78 88 76 83 76 80 82 84 85 82 81 87 77 73 86 86 74 88 84 87 72 87 73 87 82 81 83 77 84 82 81 85 84 79 73 81 79 77 85 87 90 74 76 77 82 77 86 82 77 77 82 75 73 81 74 79 80 79 85 69 85 65 78 74 64 72 76 80 76 79 85 76 73 72 85 78 85 0 0 0 0
67 70 74 76 70 83 83 88 82 78 77 90 76 75 68 84 83 84 74 80 74 82 80 78 85 87 74 75 83 81 85 84 82 89 80 70 81 80 82 80 89 83 82 83 79 86 77 78 82 81 80 73 75 76 86 84 76 81 84 78 85 81 82 80 83 81 81 79 88 75 76 87 80 84 86 76 75 86 88 88 81 78 77 82 74 79 80 71 85 86 75 82 68 79 82 76 86 73 70 72 89 67 78 75 65 80 76 86 66 72 84 68 79 69 71 0 0 0 0 0
