0 0 0 0 0 0 0 0 0 0 0 0 0 0 0 0 0 0 0 0 0 0 0 0 0 0 0 0 0 0 0 0 0 0 0 0 0 0 0 0 0 0 0 0 0 0 0 0 0 0 0 0 0 0 0 0 0 0 0 0 0 0 0 0 0 0 0 0 0 0 0 0 0 0 0 0 0 0 0 0 0 0 0 0 0 0 0 0 0 0 0 0 0 0 0 0 0 0 0 0 0 0 0 0 0 0 0 0 0 0 0 0 0 0 0 0 0 0 0 0
0 0 0 0 0 0 0 0 0 0 0 0 0 0 0 0 0 0 0 0 0 0 0 0 0 0 0 0 0 0 0 0 0 0 0 0 0 0 0 0 0 0 0 0 0 0 0 0 0 0 0 0 0 0 0 0 0 0 0 0 0 0 0 0 0 0 0 0 0 0 0 0 0 0 0 0 0 0 0 0 0 0 0 0 0 0 0 0 0 0 0 0 0 0 0 0 0 0 0 0 0 0 0 0 0 0 0 0 0 0 0 0 0 0 0 0 0 0 0 0
0 0 0 0 0 0 0 0 0 0 0 0 0 0 0 0 1305 1277 0 0 0 0 0 0 0 0 0 0 0 0 0 0 0 0 0 0 0 0 0 0 0 0 0 0 0 0 0 0 0 0 0 0 0 0 0 0 0 0 0 0 0 0 0 0 0 0 0 0 0 0 0 0 0 0 0 0 0 0 0 0 0 0 0 0 0 0 0 0 0 0 0 0 0 0 0 0 0 0 0 0 0 0 0 0 0 0 0 0 0 0 0 0 0 0 0 0 0 0 0 0
0 0 0 0 0 0 0 0 0 0 0 1099 1160 1138 0 0 1290 1304 0 0 0 0 1265 0 0 0 0 0 0 0 0 0 0 0 0 0 0 0 0 0 0 0 0 0 0 0 0 0 0 0 0 0 0 0 0 0 0 0 0 0 0 0 0 0 0 0 0 0 0 0 0 0 0 0 0 0 0 0 0 0 0 0 0 0 0 0 0 0 0 0 0 0 0 0 0 0 0 0 0 0 0 0 0 0 0 0 0 0 0 0 0 0 0 0 0 0 0 0 0 0
0 0 0 0 0 0 0 0 1106 1152 1134 1123 1134 1147 1150 0 1290 1271 1270 0 1238 1275 1279 0 0 0 0 0 0 0 0 0 0 0 0 0 0 0 0 0 0 0 0 0 0 0 0 0 0 0 0 0 0 0 0 0 0 0 0 0 0 0 0 0 0 0 0 0 0 0 0 0 0 0 0 0 0 0 0 0 0 0 0 0 0 0 0 0 0 0 0 0 0 0 0 0 0 0 0 0 0 0 0 0 0 0 0 0 0 0 0 0 0 0 0 0 0 0 0 0
0 0 0 0 0 0 1103 1134 1145 1147 0 0 1142 1178 1172 1200 1281 1294 1272 1286 1244 1264 1246 1268 0 0 0 0 0 0 0 0 0 0 0 0 0 0 0 0 0 0 0 0 0 0 0 0 0 0 0 0 0 0 0 0 0 0 0 0 0 0 0 0 0 0 0 0 0 0 0 0 0 0 0 0 0 0 0 0 0 0 0 0 0 0 0 0 0 0 0 0 0 0 0 0 0 0 0 0 0 0 0 0 0 0 0 0 0 0 0 0 0 0 0 0 0 0 0 0
0 0 0 0 0 0 0 0 0 0 0 0 1209 1218 1275 1273 1264 1320 1283 1278 1272 1248 1244 1286 0 0 0 0 0 0 0 1382 0 0 0 0 0 0 0 0 0 0 0 0 0 0 0 0 0 0 0 0 0 0 0 0 0 0 0 0 0 0 0 0 0 0 0 0 0 0 0 0 0 0 0 0 0 0 0 0 0 0 0 0 0 0 0 0 0 0 0 0 0 0 0 0 0 0 0 0 0 0 0 0 0 0 0 0 0 0 0 0 0 0 0 0 0 0 0 0
0 0 0 0 0 0 0 0 0 0 0 0 1286 1252 1271 1288 1265 1302 1271 1266 1288 1252 1254 1300 1276 1330 1355 1361 1321 1342 0 1402 0 0 0 0 0 0 0 0 0 0 0 0 0 0 0 0 0 0 0 0 0 0 0 0 0 0 0 0 0 0 0 0 0 0 0 0 0 0 0 0 0 0 0 0 0 0 0 0 0 0 0 0 0 0 0 0 0 0 0 0 0 0 0 0 0 0 0 0 0 0 0 0 0 0 0 0 0 0 0 0 0 0 0 0 0 0 0 0
0 0 0 0 0 0 0 0 0 0 0 0 1253 1267 1276 1275 1269 1300 1264 1261 1268 1296 1251 1283 0 0 1316 1358 1345 1347 1340 1384 0 0 0 0 0 0 0 0 0 0 0 0 0 0 0 0 0 0 0 0 0 0 0 0 0 0 0 0 0 0 0 0 0 0 0 0 0 0 0 0 0 0 0 0 0 0 0 0 0 0 0 0 0 0 0 0 0 0 0 0 0 0 0 0 0 0 0 0 0 0 0 0 0 0 0 0 0 0 0 0 0 0 0 0 0 0 0 0
0 0 0 0 0 0 0 0 0 0 0 0 0 0 1302 1300 1293 1305 1270 1274 1246 1273 1257 1236 1245 0 0 1350 1351 1350 1371 1391 1420 0 0 0 0 0 0 0 0 0 0 0 0 0 0 0 0 0 0 0 0 0 0 0 0 0 0 0 0 0 0 0 0 0 0 0 0 0 0 0 0 0 0 0 0 0 0 0 0 0 0 0 0 0 0 0 0 0 0 0 0 0 0 0 0 0 0 0 0 0 0 0 0 0 0 0 0 0 0 0 0 0 0 0 0 0 0 0
0 0 0 0 0 0 0 0 0 0 0 0 0 0 0 0 0 0 0 0 0 1269 1269 1258 1246 0 0 1316 1353 1351 1326 1427 1414 0 0 0 0 0 0 0 0 0 0 0 0 0 0 0 0 0 0 0 0 0 0 0 0 0 0 0 0 0 0 0 0 0 0 0 0 0 0 0 0 0 0 0 0 0 0 0 0 0 0 0 0 0 0 0 0 0 0 0 0 0 0 0 0 0 0 0 0 0 0 0 0 0 0 0 0 0 0 0 0 0 0 0 0 0 0 0
0 0 0 0 0 0 0 0 0 0 0 0 0 0 0 0 0 0 0 0 0 0 0 1382 1331 0 0 0 1350 1343 1369 1432 1387 0 0 0 0 0 0 0 0 0 0 0 0 0 0 0 0 0 0 0 0 0 0 0 0 0 0 0 0 0 0 0 0 0 0 0 0 0 0 0 0 0 0 0 0 0 0 0 0 0 0 0 0 0 0 0 0 0 0 0 0 0 0 0 0 0 0 0 0 0 0 0 0 0 0 1747 1720 0 0 0 0 0 0 0 0 0 0 0
0 0 0 0 0 0 0 0 0 0 0 0 0 0 0 0 0 0 0 0 0 0 0 1382 1375 1316 1307 1323 1348 1357 1373 1416 1410 0 0 0 0 0 0 0 0 0 0 0 0 0 0 0 0 0 0 0 0 0 0 0 0 0 0 0 0 0 0 0 0 0 0 0 0 0 0 0 0 0 0 0 0 0 0 0 0 0 0 0 0 0 0 0 0 0 0 0 0 0 0 0 0 0 0 0 0 0 0 0 0 0 1740 1663 0 0 0 0 0 0 0 0 0 0 0 0
0 0 0 0 0 0 0 0 0 0 0 0 0 0 0 0 0 0 0 0 0 0 0 1382 1384 1370 1337 1294 1320 1351 1369 1406 1403 0 0 0 0 0 0 0 0 0 0 0 0 0 0 0 0 0 0 0 0 0 0 0 0 0 0 0 0 0 0 0 0 0 0 0 0 0 0 0 0 0 0 0 0 0 0 0 0 0 0 0 0 0 0 0 0 0 0 0 0 0 0 0 0 0 0 0 0 0 0 0 0 1778 1727 1748 1735 0 0 0 0 0 0 0 0 0 0 0
0 0 0 0 0 0 0 0 0 0 0 0 0 0 0 0 0 0 0 0 0 0 0 1389 1395 1361 1360 1322 1331 1344 1356 1415 1411 0 0 0 0 0 0 0 0 0 0 0 0 0 0 0 0 0 0 0 0 0 0 0 0 0 0 0 0 0 0 0 0 0 0 0 0 0 0 0 0 0 0 0 0 0 0 0 0 0 0 0 0 0 0 0 0 0 0 0 0 0 0 0 0 0 0 0 0 0 0 0 0 1780 1772 0 1722 0 0 0 0 0 0 0 0 0 0 0
0 0 0 0 0 0 0 0 0 0 0 0 0 0 0 0 0 0 0 0 0 0 0 1383 1357 1374 1378 1374 1378 1339 1339 1394 1433 1417 0 0 0 0 0 0 0 0 0 0 0 0 0 0 0 0 0 0 0 0 0 0 0 0 0 0 0 0 0 0 0 0 0 0 0 0 0 0 0 0 0 0 0 0 0 0 0 0 0 0 0 0 0 0 0 0 0 0 0 0 0 0 0 0 0 0 0 0 0 0 0 0 0 1701 1652 0 0 0 0 1640 0 0 0 0 0 0
1245 1264 1272 1271 1280 1307 1324 1331 0 0 0 0 0 0 0 0 0 0 0 0 0 0 0 0 1362 1389 1378 1386 1375 1356 1331 1430 1407 0 0 0 0 0 0 0 0 0 0 0 0 0 0 0 0 0 0 0 0 0 0 0 0 0 0 0 0 0 0 0 0 0 0 0 0 0 0 0 0 0 0 0 0 0 0 0 0 0 0 0 0 0 0 0 0 0 0 0 0 0 0 0 0 0 0 0 0 0 0 0 1772 1747 1703 1742 1703 1693 0 0 0 0 0 0 0 0 0 0
1258 1251 1261 1261 1286 1293 1310 1298 1309 1336 1365 1340 0 0 0 0 0 0 0 0 0 0 0 1374 1359 1356 1370 1343 1394 1372 1343 1399 1448 0 0 0 0 0 0 0 0 0 0 0 0 0 0 0 0 0 0 0 0 0 0 0 0 0 0 0 0 0 0 0 0 0 0 0 0 0 0 0 0 0 0 0 0 0 0 0 0 0 0 0 0 0 0 0 0 0 0 0 0 0 0 0 0 0 0 0 0 0 0 1771 1757 1729 1730 1733 1654 1685 1698 1661 0 0 0 0 0 0 0 0
1243 1264 1265 1256 1297 1295 1294 1303 1314 1330 1349 1365 1361 1390 1372 1406 1413 0 0 0 0 0 0 0 0 1399 0 0 1411 0 0 1430 1424 0 0 0 0 0 0 0 0 0 0 0 0 0 0 0 0 0 0 0 0 0 0 0 0 0 0 0 0 0 0 0 0 0 0 0 0 0 0 0 0 0 0 0 0 0 0 0 0 0 0 0 0 0 0 0 0 0 0 0 0 0 0 0 0 0 0 0 0 0 1788 1771 1745 1757 1724 1706 1731 1648 1692 1726 0 0 0 0 0 0 0 0
0 0 0 0 1278 1299 1296 1289 1324 1332 1331 1355 1346 1377 1378 1418 1413 1424 1463 1408 0 0 0 0 0 0 0 0 0 0 0 1421 1434 1417 0 0 0 0 0 0 0 0 0 0 0 0 0 0 0 0 0 0 0 0 0 0 0 0 0 0 0 0 0 0 0 0 0 0 0 0 0 0 0 0 0 0 0 0 0 0 0 0 0 0 0 0 0 0 0 0 0 0 0 0 0 0 0 0 0 0 0 0 0 1807 1749 1740 1769 1728 1654 1612 0 0 0 0 0 0 0 0 0 0
0 0 0 0 0 0 0 0 0 1317 1356 1359 1359 1357 1390 1393 1394 1414 1442 1450 1447 1500 0 0 0 0 0 0 0 0 0 1461 1492 1478 0 0 0 0 0 0 0 0 0 0 0 0 0 0 0 0 0 0 0 0 0 0 0 0 0 0 0 0 0 0 0 0 0 0 0 0 0 0 0 0 0 0 0 0 0 0 0 0 0 0 0 0 0 0 0 0 0 0 0 0 0 0 0 0 0 0 0 0 0 1728 1684 1643 1580 1602 1575 1544 1552 1598 1568 1578 1591 0 0 0 0 0
0 0 0 0 0 0 0 0 0 0 0 0 0 0 0 1407 1398 1412 1458 1451 1464 1482 0 0 0 0 0 0 0 0 0 0 1477 0 0 0 0 0 0 0 0 0 0 0 0 0 0 0 0 0 0 0 0 0 0 0 0 0 0 0 0 0 0 0 0 0 0 0 0 0 0 0 0 0 0 0 0 0 0 0 0 0 0 0 0 0 0 0 0 0 0 0 0 0 0 0 0 0 0 0 0 1761 1666 1612 1602 1584 1598 1606 1571 1586 1576 1592 1578 1593 1669 0 0 0 0 0
0 0 0 0 0 0 0 0 0 0 0 0 0 0 0 0 0 0 0 0 0 1466 0 0 0 0 0 0 0 0 0 0 0 0 0 0 0 0 0 0 0 0 0 0 0 0 0 0 0 0 0 0 0 0 0 0 0 0 0 0 0 0 0 0 0 0 0 0 0 0 0 0 0 0 0 0 0 0 0 0 0 0 0 0 0 0 0 0 0 0 0 0 0 0 0 0 0 0 0 0 0 1610 1581 1591 1590 1607 1584 1606 1608 1586 1603 1571 1605 1554 0 0 0 0 0 0
0 0 0 0 0 0 0 0 0 0 0 0 0 0 0 0 0 0 0 0 0 0 0 0 0 0 0 0 0 0 0 0 0 0 0 0 0 0 0 0 0 0 0 0 0 0 0 0 0 0 0 0 0 0 0 0 0 0 0 0 0 0 0 0 0 0 0 0 0 0 0 0 0 0 0 0 0 0 0 0 0 0 0 0 0 0 0 0 0 0 0 0 0 0 0 0 0 0 0 0 0 0 0 1578 1565 1568 1568 1576 1567 1544 1564 1577 0 0 0 0 0 0 0 0
0 0 0 0 0 0 0 0 0 0 0 0 0 0 0 0 0 0 0 0 0 0 0 0 0 0 0 0 0 0 0 0 0 0 0 0 0 0 0 0 0 0 0 0 0 0 0 0 0 0 0 0 0 0 0 0 0 0 0 0 0 0 0 0 0 0 0 0 0 0 0 0 0 0 0 0 0 0 0 0 0 0 0 0 0 0 0 0 0 0 0 0 0 0 0 0 0 0 0 0 0 0 0 0 0 0 1612 1623 1612 0 0 0 0 0 0 0 0 0 0 0
0 0 0 0 0 0 0 0 0 0 0 0 0 0 0 0 0 0 0 0 0 0 0 0 0 0 0 0 0 0 0 0 0 0 0 0 0 0 0 0 0 0 0 0 0 0 0 0 0 0 0 0 0 0 0 0 0 0 0 0 0 0 0 0 0 0 0 0 0 0 0 0 0 0 0 0 0 0 0 0 0 0 0 0 0 0 0 0 0 0 0 0 0 0 0 0 0 0 0 0 0 0 0 0 0 0 0 0 0 0 0 0 0 0 0 0 0 0 0 0
589 607 602 0 0 0 0 0 0 0 0 0 0 0 0 0 0 0 0 0 0 0 0 0 0 1817 1852 0 0 0 0 0 0 0 0 0 0 0 0 0 0 0 0 0 0 0 0 2916 2894 2902 2880 2914 2894 2898 2891 2904 2886 2944 2880 2906 2902 2927 2884 2896 2856 2908 0 0 0 0 0 0 0 0 0 0 0 0 0 0 0 0 0 0 0 0 0 0 0 0 0 0 0 0 0 1775 1692 0 0 0 0 0 0 0 0 0 0 0 0 0 0 0 0 0 0 0 0 0 0 0
571 581 572 584 594 595 0 0 0 0 0 0 0 0 0 0 0 0 0 0 0 0 0 0 0 0 0 1929 1954 0 0 0 0 0 0 0 0 0 0 0 0 0 0 0 0 0 0 2946 2964 2945 2937 2945 2941 2941 3012 2916 2993 2921 2949 2927 2914 2936 2918 2914 2914 2885 0 0 0 0 0 0 0 0 0 0 0 0 0 0 0 0 0 0 0 0 0 0 0 0 0 0 0 0 0 0 0 0 0 0 0 0 0 0 0 0 0 0 0 0 0 0 0 0 0 0 0 0 0 0
572 583 586 596 615 632 625 658 0 0 0 0 0 0 0 0 0 0 0 0 0 0 0 0 0 0 0 0 0 0 0 0 0 0 0 0 0 0 0 0 0 0 0 0 0 0 0 2931 2915 2925 2971 2980 2931 2901 2961 2908 2952 2893 2893 2902 2924 2931 2906 2897 2912 0 0 0 0 0 0 0 0 0 0 0 0 0 0 0 0 0 0 0 0 0 0 0 0 0 0 0 0 0 0 0 0 0 0 0 0 0 0 0 0 0 0 0 0 0 0 0 0 0 0 0 0 0 0 0
550 580 572 582 608 624 634 625 653 666 695 669 0 0 0 0 0 0 0 0 0 0 0 0 0 0 0 0 0 0 0 0 0 0 0 0 0 0 0 0 0 0 0 0 0 0 0 2928 2949 2904 2930 2956 2938 2930 2900 2950 2902 2920 2952 2919 2920 2936 2900 2936 2893 2857 0 0 0 0 0 0 0 0 0 0 0 0 0 0 0 0 0 0 0 0 0 0 0 0 0 0 0 0 0 0 0 0 0 0 0 0 0 0 0 0 0 0 0 0 0 0 0 0 0 0 0 0 0 0
549 596 581 595 606 628 637 639 657 657 675 684 704 719 769 0 0 0 0 0 0 0 0 0 0 0 0 0 0 0 0 0 0 0 0 0 0 0 0 0 0 0 0 0 0 0 0 2949 2928 2924 2959 2917 2972 2917 2966 2944 2881 2888 2899 2898 2895 2914 2868 2916 2928 2973 0 0 0 0 0 0 0 0 0 0 0 0 0 0 0 0 0 0 0 0 0 0 0 0 0 0 0 0 0 0 0 0 0 0 0 0 0 0 0 0 0 0 0 0 0 0 0 0 0 0 0 0 0 0
754 796 793 741 734 660 667 660 658 679 686 705 724 712 723 747 758 790 0 0 0 0 0 0 0 0 0 0 0 0 0 0 0 0 0 0 0 0 0 0 0 0 0 0 0 0 0 2876 2917 2928 2857 2874 2879 2916 2895 2889 2869 2893 2879 2843 2913 2854 2920 2909 2871 0 0 0 0 0 0 0 0 0 0 0 0 0 0 0 0 0 0 0 0 0 0 0 0 0 0 0 0 0 0 0 0 0 0 0 0 0 0 0 0 0 0 0 0 0 0 0 0 0 0 0 0 0 0 0
778 783 807 815 827 830 860 834 816 789 743 741 727 719 721 760 776 758 789 818 800 0 0 0 0 0 0 0 0 0 0 0 0 0 0 0 0 0 0 0 0 0 0 0 0 0 0 2909 2897 2892 2887 2908 2939 2896 2930 2913 2870 2900 2885 2901 2895 2927 2903 2879 2938 2877 0 0 0 0 0 0 0 0 0 0 0 0 0 0 0 0 0 0 0 0 0 0 0 0 0 0 0 0 0 0 0 0 0 0 0 0 0 0 0 0 0 0 0 0 0 0 0 0 0 0 0 0 0 0
798 817 796 824 839 857 874 887 884 897 906 924 917 900 852 806 804 781 808 832 836 871 864 890 0 0 0 0 0 0 0 0 0 0 0 0 0 0 0 0 0 0 0 0 0 0 0 2920 2916 2910 2899 2904 2891 2901 2894 2946 2894 2909 2895 2870 2872 2890 2872 2876 2886 2874 0 0 0 0 0 0 0 0 0 0 0 0 0 0 0 0 0 0 0 0 0 0 0 0 0 0 0 0 0 0 0 0 0 0 0 0 0 0 0 0 0 0 0 0 0 0 0 0 0 0 0 0 0 0
624 0 867 820 851 857 890 877 909 910 938 947 945 947 947 960 949 925 901 887 832 870 863 901 908 937 0 0 0 0 0 0 0 0 0 0 0 0 0 0 0 0 0 0 0 0 0 2937 2936 2871 2894 2935 2898 2897 2885 2858 2908 2944 2910 2878 2934 2914 2893 2887 2907 2853 0 0 0 0 0 0 0 0 0 0 0 0 0 0 0 0 0 0 0 0 0 0 0 0 0 0 0 0 0 0 0 0 0 0 0 0 0 0 0 0 0 0 0 0 0 0 0 0 0 0 0 0 0 0
647 924 926 934 896 943 0 928 915 919 939 939 945 956 947 947 960 954 955 945 933 917 884 869 904 953 963 992 0 0 0 0 0 0 0 0 0 0 0 0 0 0 0 0 0 0 0 2940 2943 2883 2951 2939 2935 2894 2917 2918 2989 2947 2942 2887 2906 2936 2885 2914 2896 0 0 0 0 0 0 0 0 0 0 0 0 0 0 0 0 0 0 0 0 0 0 0 0 0 0 0 0 0 0 0 0 0 0 0 0 0 0 0 0 0 0 0 0 0 0 0 0 0 0 0 0 0 0 0
590 677 0 0 0 0 0 0 0 0 971 980 983 962 970 972 967 947 943 959 950 958 945 944 957 968 961 976 1000 1045 0 0 0 0 0 0 0 0 0 0 0 0 0 0 0 0 0 2934 2940 2931 2943 2902 2904 2904 2937 2918 2917 2957 2874 2914 2930 2881 2885 2885 2916 0 0 0 0 0 0 0 0 0 0 0 0 0 0 0 0 0 0 0 0 0 0 0 0 0 0 0 0 0 0 0 0 0 0 0 0 0 0 0 0 0 0 0 0 0 0 0 0 0 0 0 0 0 0 0
560 592 602 0 1115 1133 1151 1153 1124 1117 1150 1134 1132 1145 1146 1149 1124 1047 0 0 1024 1063 1059 998 1003 1032 1119 1128 1096 1092 1089 0 0 0 0 0 0 0 0 0 0 0 0 0 0 0 0 2933 2957 2916 2919 2961 2889 2953 2890 2910 2932 2971 2912 2945 2891 2930 2939 2926 2881 2892 0 0 0 0 0 0 0 0 0 0 0 0 0 0 0 0 0 0 0 0 0 0 0 0 0 0 0 0 0 0 0 0 0 0 0 0 0 0 0 0 0 0 0 0 0 0 0 0 0 0 0 0 0 0
580 582 602 591 0 0 0 0 0 0 0 0 0 0 0 0 1413 1023 994 0 0 1150 1128 0 0 1125 1146 1163 1129 1122 1088 0 0 0 0 0 0 0 0 0 0 0 0 0 0 0 0 2904 2914 2945 2880 2901 2986 2908 2927 2882 2932 2919 2860 2890 2916 2915 2885 2883 2901 2938 0 0 0 0 0 0 0 0 0 0 0 0 0 0 0 0 0 0 0 0 0 0 0 0 0 0 0 0 0 0 0 0 0 0 0 0 0 0 0 0 0 0 0 0 0 0 0 0 0 0 0 0 0 0
587 606 639 616 603 0 0 0 0 0 0 0 0 0 0 0 0 972 976 0 0 0 0 951 0 0 0 0 0 0 0 0 0 0 0 0 0 0 0 0 0 0 0 0 0 0 0 2883 2868 2870 2877 2877 2868 2865 2851 2870 2827 2903 2885 2872 2872 2888 2873 2893 2864 2876 0 0 0 0 0 0 0 0 0 0 0 0 0 0 0 0 0 0 0 0 0 0 0 0 0 0 0 0 0 0 0 0 0 0 0 0 0 0 0 0 0 0 0 0 0 0 0 0 0 0 0 0 0 0
596 604 622 605 611 644 0 0 0 0 0 0 0 0 0 0 0 0 0 0 0 0 0 0 0 0 0 0 0 0 0 0 0 0 0 0 0 0 0 0 0 0 0 0 0 0 0 2889 2898 2897 2892 2909 2902 2924 2941 2905 2925 2900 2857 2881 2940 2894 2864 2909 2871 2886 0 0 0 0 0 0 0 0 0 0 0 0 0 0 0 0 0 0 0 0 0 0 0 0 0 0 0 0 0 0 0 0 0 0 0 0 0 0 0 0 0 0 0 0 0 0 0 0 0 0 0 0 0 0
598 594 590 597 598 645 0 0 0 0 0 0 0 0 0 0 0 0 0 0 0 0 971 0 0 0 0 0 0 0 0 0 0 0 0 0 0 0 0 0 0 0 0 0 0 0 0 2867 2937 2884 2899 2902 2884 2873 2893 2872 2884 2873 2843 2851 2895 2876 2871 2918 2885 0 0 0 0 0 0 0 0 0 0 0 0 0 0 0 0 0 0 0 0 0 0 0 0 0 0 0 0 0 0 0 0 0 0 0 0 0 0 0 0 0 0 0 0 0 0 0 0 0 0 0 0 0 0 0
602 597 593 618 600 588 0 0 0 0 0 0 0 0 0 0 0 0 0 0 0 0 963 0 0 0 0 0 0 0 0 0 0 0 0 0 0 0 0 0 0 0 0 0 0 0 0 2916 2863 2907 2907 2919 2898 2913 2915 2894 2899 2897 2842 2926 2924 2877 2907 2864 2895 0 0 0 0 0 0 0 0 0 0 0 0 0 0 0 0 0 0 0 0 0 0 0 0 0 0 0 0 0 0 0 0 0 0 0 0 0 0 0 0 0 0 0 0 0 0 0 0 0 0 0 0 0 0 0
598 573 588 575 597 585 603 0 0 0 0 0 0 0 0 0 0 0 0 0 0 0 0 0 0 0 0 0 0 0 0 0 0 0 0 0 0 0 0 0 0 0 0 0 0 0 0 2920 2930 2929 2914 2937 2905 2918 2911 2899 2889 2966 2933 2953 2909 2890 2912 2882 2906 2875 0 0 0 0 0 0 0 0 0 0 0 0 0 0 0 0 0 0 0 0 0 0 0 0 0 0 0 0 0 0 0 0 0 0 0 0 0 0 0 0 0 0 0 0 0 0 0 0 0 0 0 0 0 0
574 595 604 597 620 585 590 0 0 0 0 0 0 0 0 0 2310 0 0 0 0 0 974 947 0 0 0 0 0 0 0 0 0 0 0 0 0 0 0 0 0 0 0 0 0 0 0 2914 2918 2912 2909 2927 2897 2886 2971 2880 2929 2878 2882 2931 2873 2870 2924 2918 2870 2878 0 0 0 0 0 0 0 0 0 0 0 0 0 0 0 0 0 0 0 0 0 0 0 0 0 0 0 0 0 0 0 0 0 0 0 0 0 0 0 0 0 0 0 0 0 0 0 0 0 0 0 0 0 0
587 574 574 608 592 584 591 0 0 0 0 0 0 0 0 0 0 0 0 0 0 0 0 0 0 0 0 0 0 0 0 0 0 0 0 0 0 0 0 0 0 0 0 0 0 0 0 2904 2949 2958 2900 2925 2924 2895 2926 2885 2853 2914 2910 2916 2936 2897 2897 2897 2899 2924 0 0 0 0 0 0 0 0 0 0 0 0 0 0 0 0 0 0 0 0 0 0 0 0 0 0 0 0 0 0 0 0 0 0 0 0 0 0 0 0 0 0 0 0 0 0 0 0 0 0 0 0 0 0
600 585 613 626 600 612 0 0 0 0 0 0 0 0 0 0 0 0 0 0 0 0 0 0 0 0 0 0 0 0 0 0 0 0 0 0 0 0 0 0 0 0 0 0 0 0 0 0 0 0 0 0 0 0 0 0 0 0 0 0 0 2936 2989 2883 2927 0 0 0 0 0 0 0 0 0 0 0 0 0 0 0 0 0 0 0 0 0 0 0 0 0 0 0 0 0 0 0 0 0 0 0 0 0 0 0 0 0 0 0 0 0 0 0 0 0 0 0 0 0 0 0
591 585 625 596 602 587 0 0 0 0 0 0 0 0 0 0 0 0 0 0 0 0 0 0 0 0 0 0 0 0 0 0 0 0 0 0 0 0 0 0 0 0 0 0 0 0 0 0 0 0 0 0 0 0 0 0 0 0 0 0 0 0 0 0 0 0 0 0 0 0 0 0 0 0 0 0 0 0 0 0 0 0 0 0 0 0 0 0 0 0 0 0 0 0 0 0 0 0 0 0 0 0 0 0 0 0 0 0 0 0 0 0 0 0 0 0 0 0 0 0
600 615 617 603 599 601 0 0 0 0 0 0 0 0 0 0 0 0 0 0 0 0 0 0 0 0 0 0 0 0 0 0 0 0 0 0 0 0 0 0 0 0 0 0 0 0 0 0 0 0 0 0 0 0 0 0 0 0 0 0 0 0 0 0 0 0 0 0 0 0 0 0 0 0 0 0 0 0 0 0 0 0 0 0 0 0 0 0 0 0 0 0 0 0 0 0 0 0 0 0 0 0 0 0 0 0 0 0 0 0 0 0 0 0 0 0 0 0 0 0
598 612 615 570 573 0 0 0 0 0 0 0 0 0 0 0 0 0 0 0 0 0 0 0 0 0 0 0 0 0 0 0 0 0 0 0 0 0 0 0 0 0 0 0 0 0 0 0 0 0 0 0 0 0 0 0 0 0 0 0 0 0 0 0 0 0 0 0 0 0 0 0 0 0 0 0 0 0 0 0 0 0 0 0 0 0 0 0 0 0 0 0 0 0 0 0 0 0 0 0 0 0 0 0 0 0 0 0 0 0 0 0 0 0 0 0 0 0 0 0
577 581 593 649 0 0 0 0 0 0 0 0 0 0 0 0 0 0 0 0 0 0 0 0 0 0 870 882 884 878 922 915 0 845 900 866 0 917 893 912 0 0 0 0 0 0 0 0 0 0 0 0 0 0 0 0 0 0 0 0 0 0 0 0 0 0 0 0 0 0 0 0 0 0 0 0 0 0 0 0 0 0 0 0 0 0 0 0 0 0 0 0 0 0 0 0 0 0 0 0 0 0 0 0 0 0 0 0 0 0 0 0 0 0 0 0 0 0 0 0
580 559 534 0 0 0 0 692 682 700 672 720 722 711 719 709 701 706 706 709 729 750 711 721 707 697 731 732 684 738 726 707 751 730 714 738 767 727 761 734 759 786 765 740 768 752 783 790 736 763 801 725 796 786 751 781 796 772 814 760 741 787 800 806 778 824 833 762 795 0 849 846 789 0 834 865 0 0 0 0 0 0 0 0 0 0 0 0 0 0 0 0 0 0 0 0 0 0 0 0 0 0 0 0 0 0 0 0 0 0 0 0 0 0 0 0 0 0 0 0
520 575 529 555 554 576 586 573 584 576 540 573 555 598 601 597 592 573 591 569 560 587 554 585 594 606 588 606 607 611 594 600 597 622 572 610 598 595 612 593 613 605 611 607 634 640 645 586 623 616 620 623 639 650 629 598 640 638 635 640 686 653 639 642 631 668 638 598 664 626 666 633 637 638 651 678 633 633 664 681 670 645 678 661 679 709 655 692 701 679 678 683 686 714 717 0 731 707 768 689 759 0 0 0 0 0 0 0 0 0 0 0 0 0 0 0 0 0 0 0
494 483 496 487 465 493 503 485 489 486 487 495 511 494 484 498 466 509 514 522 515 500 510 518 509 496 514 497 497 504 499 516 504 498 505 512 524 506 512 522 507 516 539 525 518 524 518 499 524 501 512 518 537 506 526 539 542 540 546 501 530 543 531 528 537 524 532 522 537 539 538 570 544 520 544 540 539 546 550 527 538 571 580 548 550 529 573 549 560 576 563 575 557 552 598 562 529 574 563 545 586 616 602 605 0 0 0 596 547 548 0 0 0 0 0 0 0 0 0 0
420 421 431 441 427 430 415 417 441 445 450 444 445 452 456 449 439 465 446 438 471 446 465 432 445 463 439 452 454 460 452 447 448 455 476 470 446 464 463 471 474 465 458 450 472 477 467 483 483 485 473 484 478 481 478 486 476 467 480 481 476 473 473 471 457 483 486 484 480 485 488 485 494 512 487 522 492 502 494 488 490 481 487 492 483 508 491 489 500 500 498 475 476 507 463 496 501 482 488 525 485 513 489 481 532 505 512 502 508 506 552 482 0 0 0 0 0 0 0 0
397 388 385 392 412 388 402 402 398 399 392 395 406 406 407 406 400 392 405 402 422 408 413 413 408 410 415 408 401 408 411 419 416 422 423 420 409 417 422 402 409 418 421 406 412 413 426 427 428 433 427 431 426 423 424 424 430 425 426 420 424 428 420 415 424 440 413 439 434 427 427 436 429 424 423 418 437 423 428 434 441 441 431 440 439 440 436 440 429 429 447 436 439 442 436 443 438 431 429 432 432 429 472 464 448 439 451 428 426 439 440 448 448 450 433 0 0 0 0 0
367 356 360 353 359 366 355 346 354 342 356 362 361 372 368 358 367 375 363 370 364 360 358 370 365 376 377 362 377 371 388 384 369 376 384 367 367 372 366 365 372 376 368 377 382 377 387 380 391 387 382 384 374 371 375 382 378 377 370 384 381 386 385 378 377 375 380 384 390 384 394 393 389 397 396 377 387 398 393 387 398 404 390 386 389 408 397 383 384 392 399 394 410 404 390 381 391 384 399 379 392 387 388 397 395 407 381 398 405 373 396 409 388 394 420 401 0 0 0 0
327 312 333 340 339 341 355 339 336 321 332 345 366 340 352 350 344 350 343 363 360 334 332 331 341 347 341 343 345 362 346 336 336 342 341 341 345 349 333 353 343 352 337 349 334 343 351 348 348 349 361 345 334 344 346 349 354 346 340 356 352 347 341 342 349 344 357 343 347 353 352 351 346 357 364 359 346 341 352 342 352 357 357 344 339 362 349 353 343 349 362 375 363 349 351 356 357 354 373 371 357 359 368 374 352 361 375 382 390 366 354 381 372 363 382 416 393 0 0 0
304 299 310 287 291 292 308 300 298 298 300 296 292 293 295 299 300 293 305 298 305 303 307 308 291 298 302 300 297 313 293 294 299 307 302 312 303 306 313 316 298 306 307 307 308 309 317 320 310 313 307 311 318 313 326 314 310 313 309 315 322 304 304 321 317 315 318 326 316 316 311 323 318 315 304 322 307 318 324 327 319 313 317 316 309 326 327 327 327 333 320 319 325 326 321 327 323 328 332 331 319 331 323 330 335 326 336 327 332 338 315 335 335 321 338 345 345 295 335 0
274 264 268 273 277 286 274 271 284 275 275 278 269 269 279 290 279 272 273 274 269 273 268 273 275 274 274 280 282 267 277 282 274 275 279 281 279 274 276 282 286 280 286 279 282 280 284 288 281 286 287 285 284 288 275 281 285 287 284 285 279 287 280 280 285 295 285 287 287 290 286 281 290 279 284 286 285 282 286 283 291 282 281 289 294 285 291 297 300 285 285 285 291 279 297 283 291 295 281 291 291 303 287 284 289 306 303 282 288 309 293 306 313 277 277 240 285 276 312 311
253 249 258 258 254 256 250 259 246 253 257 246 255 255 256 250 266 258 261 258 259 265 262 251 260 264 255 255 250 254 256 267 259 261 266 258 260 262 272 266 258 260 259 268 262 268 260 262 267 269 267 263 266 269 263 262 261 265 270 269 264 260 268 263 272 268 270 266 270 270 266 265 265 264 270 269 262 269 268 264 266 252 263 270 268 266 261 263 268 266 259 264 259 258 263 263 263 273 287 269 278 261 273 270 275 282 268 278 280 259 275 286 268 259 256 265 253 249 257 260
231 232 240 234 239 235 239 229 235 230 229 229 245 238 242 241 234 243 246 235 231 241 245 238 249 235 239 236 239 237 244 247 243 242 246 242 240 250 248 247 244 238 239 245 238 244 244 248 245 252 246 247 243 248 249 243 241 245 248 248 252 242 250 248 247 250 253 253 253 248 247 247 254 251 246 248 248 244 248 249 245 249 245 245 251 258 249 250 241 250 252 251 251 249 259 253 250 248 244 257 256 246 253 251 249 250 258 255 249 253 255 238 254 249 247 238 247 253 245 215
214 218 215 214 220 224 221 214 214 213 222 224 217 227 224 221 225 222 229 222 228 222 226 228 226 223 222 235 229 223 231 229 228 228 235 231 226 228 229 226 231 231 229 222 231 234 232 236 235 230 231 228 229 229 226 232 227 234 230 236 234 234 233 231 241 229 232 240 240 232 234 230 232 232 226 234 236 229 226 227 233 230 231 228 228 229 232 236 229 232 235 232 236 227 231 230 231 238 240 233 244 228 230 235 231 225 233 235 237 226 231 237 235 232 229 223 223 219 228 221
203 202 220 216 209 203 205 209 213 214 212 212 206 215 211 210 216 215 211 212 210 208 211 194 217 216 211 215 219 216 214 216 214 211 214 217 219 216 212 216 224 219 220 213 222 216 215 217 218 220 215 216 218 217 225 218 219 221 224 222 218 217 224 225 224 220 225 220 223 227 219 224 217 215 218 215 231 223 217 223 218 221 225 229 216 224 214 224 216 218 219 222 217 225 226 221 218 217 226 225 224 217 228 234 223 223 220 217 226 225 227 219 228 229 231 230 217 229 238 233
192 195 195 205 206 205 201 200 197 196 202 199 186 194 204 187 188 189 190 190 189 189 196 187 186 187 185 191 182 209 194 190 188 195 194 189 188 187 187 195 195 194 186 190 193 193 191 191 197 197 196 189 194 193 200 196 198 197 194 197 196 197 199 197 193 200 199 191 197 196 192 197 200 191 193 193 197 194 197 193 189 194 196 211 199 200 198 188 210 193 207 192 207 210 190 207 186 193 207 210 210 215 204 209 215 210 214 210 204 209 206 201 209 215 190 207 199 202 202 212
175 182 192 196 194 172 179 184 196 183 184 177 176 177 183 183 187 177 181 177 189 185 179 186 179 191 189 193 192 192 193 192 190 189 185 196 194 189 194 190 190 186 196 196 198 196 193 199 187 196 192 195 195 201 193 199 197 197 197 201 198 197 198 199 199 193 199 197 199 196 199 194 190 199 194 196 197 195 194 193 186 190 187 185 191 191 191 187 191 186 192 190 180 192 179 189 179 182 181 182 189 184 202 187 187 184 186 182 206 209 204 197 186 195 187 198 208 193 201 200
168 177 178 177 177 179 180 181 180 179 184 177 175 181 185 183 178 183 182 183 187 181 182 186 183 186 181 184 187 187 183 183 186 182 184 175 187 180 188 182 182 183 192 188 189 193 185 185 191 190 190 189 190 186 190 198 186 189 190 189 183 187 186 193 190 188 189 189 189 187 194 188 189 188 186 190 189 188 189 189 191 193 182 191 191 190 188 188 185 186 187 181 184 188 189 189 188 188 188 182 188 176 182 183 181 180 184 180 184 177 179 172 176 177 195 171 178 174 175 199
167 164 158 163 166 166 167 172 163 167 167 172 170 164 176 177 171 178 177 178 171 174 170 173 171 165 169 173 172 176 180 180 174 174 172 171 172 171 172 175 173 169 174 178 181 176 175 176 178 176 180 181 173 179 178 177 177 179 176 177 174 177 179 182 179 174 184 183 179 177 175 182 176 180 178 174 181 180 182 177 179 183 177 176 178 176 176 177 175 177 172 183 177 171 179 175 172 177 182 177 177 180 172 174 172 173 168 174 170 171 181 163 181 165 164 163 164 176 164 170
165 164 166 161 163 168 163 158 165 163 166 167 163 169 165 171 164 172 170 168 168 165 173 171 167 165 166 173 166 167 175 172 173 171 166 166 176 170 171 171 168 167 167 170 168 174 169 171 173 166 174 173 174 173 174 171 170 171 171 175 171 171 174 171 173 171 172 170 172 168 172 174 172 168 168 169 175 174 175 169 170 167 172 167 169 175 174 175 178 167 168 174 168 173 167 165 176 171 172 174 169 176 166 177 172 175 169 170 167 170 166 168 173 173 175 177 174 174 170 171
156 161 162 164 161 160 162 155 159 154 159 158 160 159 162 161 160 168 166 165 153 164 168 162 161 167 163 159 159 162 164 169 161 166 159 160 158 154 160 159 156 160 160 167 160 167 162 165 161 163 167 164 166 166 161 163 162 166 159 169 168 163 166 159 163 168 161 165 163 160 158 158 165 163 164 167 169 167 171 165 161 156 166 161 166 164 165 164 167 162 165 164 164 160 165 163 166 159 166 162 163 162 164 166 162 158 166 155 161 158 163 174 161 171 169 162 172 172 156 181
143 146 154 144 152 152 146 149 151 153 150 148 151 152 152 146 151 155 158 159 158 153 154 155 147 161 151 157 156 157 155 155 150 156 154 155 150 159 153 157 153 156 159 159 152 158 155 152 156 160 156 158 155 154 155 158 158 154 159 158 161 159 160 158 158 159 156 158 155 155 154 160 156 160 155 159 162 162 160 153 162 157 155 153 154 156 159 161 158 156 154 155 158 157 156 157 155 152 154 162 158 153 152 160 162 153 151 152 158 163 145 155 154 158 164 151 154 157 151 145
134 137 149 145 145 153 144 149 152 141 150 151 149 147 146 152 146 149 146 150 146 153 151 153 146 155 145 151 147 148 146 144 147 149 147 143 148 155 147 151 153 151 149 154 146 150 150 154 151 149 154 148 152 150 151 151 150 152 153 158 152 156 151 154 151 147 150 157 157 152 151 158 151 157 152 154 156 156 152 153 151 150 153 151 149 149 152 151 154 152 151 152 152 150 157 151 148 148 156 156 154 155 159 155 148 148 145 155 153 148 151 154 163 150 155 153 155 149 163 138
133 137 135 138 138 142 130 135 140 137 142 140 144 143 137 138 144 139 142 142 141 146 140 144 139 141 147 142 143 145 137 138 145 141 138 145 129 141 144 146 146 143 148 145 142 149 140 127 143 144 139 142 143 145 147 140 144 146 147 143 145 140 142 145 148 143 149 146 145 146 144 149 143 146 144 144 150 149 152 143 141 147 143 141 141 143 149 145 149 147 147 146 141 142 148 147 143 144 151 149 141 146 147 140 144 145 142 142 139 145 145 133 141 148 137 142 145 143 150 120
131 132 130 130 130 143 137 137 135 135 139 0 130 136 135 137 137 138 138 137 144 140 145 137 142 143 0 139 136 137 136 136 138 129 140 138 138 125 142 139 140 141 140 140 140 129 142 129 137 128 141 141 129 140 142 142 141 134 144 142 131 130 143 144 141 139 144 145 145 140 141 140 141 140 143 138 144 141 142 144 145 142 142 144 142 139 147 139 139 138 137 140 145 145 137 139 138 142 141 143 147 141 142 145 145 134 131 139 147 134 139 139 133 141 136 133 131 138 148 126
133 130 126 133 133 135 138 134 134 134 133 131 138 136 139 131 126 136 137 124 140 141 139 137 139 135 138 136 138 135 136 121 127 127 127 125 126 127 126 126 139 129 129 137 0 141 130 130 129 124 126 127 132 133 0 140 0 129 125 128 128 130 134 130 126 127 142 126 140 126 127 122 130 138 131 128 133 126 140 129 137 130 126 142 136 126 129 127 130 137 120 139 137 135 124 127 139 138 143 140 135 133 138 132 125 122 131 134 134 131 130 133 130 139 139 136 121 146 93 129
118 103 124 107 124 126 141 130 111 113 123 117 120 121 121 124 120 121 129 118 117 126 128 136 122 138 134 136 0 129 128 119 122 121 114 116 127 126 123 116 126 123 124 129 0 0 129 124 125 121 125 121 126 131 124 127 128 123 126 121 124 118 126 124 123 125 127 132 120 128 121 119 116 122 113 116 123 126 121 122 126 137 121 127 120 127 121 127 127 129 122 123 121 134 121 116 132 141 133 126 117 119 117 122 114 117 115 119 120 126 125 125 129 128 128 102 124 124 129 84
108 118 109 109 109 126 128 119 118 111 117 115 118 120 116 115 116 130 118 122 124 121 126 122 123 120 130 125 124 128 129 0 122 121 116 113 117 118 0 122 129 123 0 0 0 0 122 122 121 122 123 120 125 120 123 125 122 121 125 119 123 125 113 123 124 124 125 131 120 124 124 120 123 121 120 117 121 125 127 118 118 121 124 123 118 119 126 114 126 124 116 121 119 121 118 122 125 126 119 124 122 118 122 121 108 120 119 120 115 133 127 137 126 127 111 125 131 123 129 133
109 98 113 111 112 107 110 115 115 110 119 115 110 109 115 111 114 114 110 122 112 109 108 118 116 113 118 117 114 120 119 0 116 119 117 110 113 0 114 115 119 0 0 119 122 0 119 115 114 111 116 116 118 117 118 119 116 115 114 116 117 122 116 115 119 117 119 122 117 119 114 119 113 115 115 110 116 109 114 116 109 115 115 116 114 115 113 112 114 118 118 118 118 110 102 115 128 122 109 116 119 120 116 112 113 110 119 118 106 110 109 125 116 114 117 122 110 105 88 116
95 104 101 101 92 105 111 115 101 112 101 102 112 108 119 115 112 111 103 105 113 103 110 102 110 109 111 115 112 111 116 112 113 114 114 110 109 112 0 113 113 112 107 106 108 113 112 0 115 0 114 107 119 111 0 0 106 107 116 110 123 113 106 111 108 109 109 110 113 110 118 103 110 106 107 108 108 109 104 113 113 104 102 106 109 108 115 109 106 111 111 106 96 112 107 112 112 114 104 101 109 105 114 105 111 107 101 112 112 114 105 116 101 104 88 98 116 107 98 76
105 96 110 110 103 102 112 108 110 109 107 112 115 107 118 117 108 111 113 102 109 102 108 103 113 109 109 112 109 118 110 102 105 106 112 107 114 0 106 106 110 111 107 100 105 111 106 108 114 0 111 113 108 116 111 114 107 106 114 106 105 110 112 0 115 109 109 114 115 108 107 103 108 113 104 105 101 100 103 108 110 102 104 112 97 105 102 103 114 101 106 111 103 100 100 109 106 110 105 108 98 113 107 120 107 106 100 120 105 114 99 100 116 114 120 111 105 137 116 155
93 100 106 110 96 97 99 91 97 94 101 100 97 98 100 105 97 101 106 103 101 102 90 104 100 103 106 99 99 104 106 101 102 100 104 104 104 106 103 109 102 99 100 99 98 102 106 104 103 99 105 105 107 106 99 102 96 97 105 100 101 109 105 0 106 106 0 109 102 105 105 101 96 108 105 106 96 104 0 99 0 101 95 106 94 100 98 99 97 103 102 103 101 94 98 91 98 97 101 104 98 99 102 105 100 108 100 91 95 94 96 98 93 111 118 95 91 112 95 117
88 86 86 99 92 93 98 91 94 92 100 102 96 97 103 98 96 97 100 100 96 93 86 94 98 98 101 99 99 98 108 102 105 101 100 104 103 102 101 100 103 99 99 91 96 101 103 104 101 103 108 100 99 102 95 98 99 107 104 99 109 102 108 101 114 100 105 104 106 104 100 106 101 102 98 97 98 97 99 97 0 104 92 88 100 95 102 110 99 98 103 104 96 100 97 100 89 98 89 99 97 92 97 88 96 104 100 91 94 95 84 95 104 87 88 113 123 85 101 100
92 90 91 97 89 90 94 90 86 93 91 92 97 88 96 83 92 94 101 108 102 90 94 92 89 88 96 95 93 96 99 101 102 100 92 103 98 95 94 102 94 93 89 88 101 92 98 98 96 97 101 97 83 91 96 101 95 96 99 98 94 92 97 0 100 101 95 97 96 98 98 100 100 103 83 103 95 98 100 110 96 97 89 109 99 96 93 93 96 94 98 96 97 92 91 91 92 86 100 90 90 97 95 99 100 96 97 82 84 83 88 95 94 90 92 89 115 133 107 73
82 87 78 83 76 85 78 85 87 87 84 88 94 86 90 81 85 87 92 90 84 88 89 90 92 85 97 95 94 92 92 87 97 92 91 90 86 87 89 91 83 85 87 85 88 94 89 88 89 97 97 91 97 91 95 97 91 98 96 88 89 94 89 89 91 92 95 86 91 89 86 94 95 89 97 93 91 87 95 95 85 87 95 94 84 95 89 94 95 88 90 91 90 90 91 92 84 90 88 87 90 83 92 92 82 87 88 79 85 88 82 74 86 90 78 83 76 67 83 80
89 80 80 83 89 91 86 100 86 88 87 92 89 90 89 89 86 80 93 86 81 93 92 87 90 89 92 94 87 86 91 92 97 88 100 86 94 85 91 95 87 95 86 93 93 97 97 93 89 94 97 97 91 97 91 98 92 89 93 93 96 88 97 92 88 96 89 96 85 89 92 86 101 93 91 88 91 91 89 97 97 84 93 94 85 94 88 92 87 90 97 93 100 91 92 91 87 93 90 101 87 85 91 96 82 97 88 80 83 84 83 82 84 91 89 98 79 95 0 0
78 91 83 82 83 87 85 87 82 0 83 84 83 86 79 90 86 88 92 90 91 89 90 90 85 91 94 85 89 94 88 86 90 92 89 92 91 93 91 95 83 97 91 87 85 89 93 93 89 97 90 95 97 90 98 95 97 96 97 92 92 97 94 91 89 89 90 92 95 91 94 83 84 93 91 91 96 93 86 82 83 92 86 90 93 84 83 95 97 93 85 92 102 84 86 87 92 89 89 85 82 91 87 90 90 84 92 90 89 85 86 83 85 86 79 82 89 116 73 0
80 79 72 89 87 90 88 87 83 78 87 80 82 86 84 90 81 87 84 90 85 92 89 86 92 83 89 88 86 90 83 89 91 91 84 92 88 85 90 90 88 87 97 89 88 80 91 92 93 93 94 96 91 89 92 95 91 95 96 95 93 96 97 91 87 95 85 88 87 94 90 85 91 93 88 89 88 95 95 89 90 89 89 88 87 84 88 84 86 85 89 91 87 86 82 82 84 84 88 85 77 78 92 85 80 88 90 88 80 90 81 85 83 97 87 78 94 48 0 0
76 78 76 79 88 85 91 93 81 86 81 90 89 80 80 89 84 89 91 89 79 93 86 83 84 86 88 83 90 92 92 86 89 89 87 86 91 86 84 90 93 89 90 89 91 83 95 93 96 94 91 91 93 90 86 94 94 94 90 89 97 94 82 87 87 95 89 89 88 96 89 88 95 85 96 88 91 91 82 83 93 90 92 85 92 88 94 90 91 86 89 93 79 88 89 88 90 90 82 86 86 92 90 87 82 96 84 93 84 80 86 91 87 107 114 114 0 0 83 0
79 66 63 65 74 78 82 85 81 75 83 74 81 90 81 77 76 82 79 77 87 78 84 83 72 74 79 83 80 76 89 69 76 77 87 80 86 83 82 79 82 80 79 73 80 78 83 85 86 78 84 86 77 81 81 86 85 89 86 79 86 79 81 83 76 79 74 78 75 81 83 83 81 81 88 79 80 84 84 85 78 79 71 77 76 81 82 82 75 81 86 68 83 73 77 77 76 82 70 81 73 68 77 63 77 70 77 81 78 86 84 67 65 74 78 83 0 0 0 0
72 68 80 83 69 84 84 84 83 79 81 88 73 79 80 81 83 85 76 76 78 86 72 85 89 81 82 72 80 80 87 81 82 92 87 75 75 77 81 84 91 84 84 85 87 90 80 78 85 84 84 72 83 80 84 88 82 78 82 72 79 80 81 83 80 77 77 82 93 74 81 85 87 79 85 89 80 81 86 88 85 82 84 80 72 78 82 75 82 86 69 83 77 74 85 76 91 74 74 68 89 76 78 70 68 72 72 82 78 91 80 71 75 117 74 0 0 0 0 0
