0 0 0 0 0 0 0 0 0 0 0 0 0 0 0 0 0 0 0 0 0 0 0 0 0 0 0 0 0 0 0 0 0 0 0 0 0 0 0 0 0 0 0 0 0 0 0 0 0 0 0 0 0 0 0 0 0 0 0 0 0 0 0 0 0 0 0 0 0 0 0 0 0 0 0 0 0 0 0 0 0 0 0 0 0 0 0 0 0 0 0 0 0 0 0 0 0 0 0 0 0 0 0 0 0 0 0 0 0 0 0 0 0 0 0 0 0 0 0 0
0 0 0 0 0 0 0 0 0 0 0 0 0 0 0 0 0 0 0 0 0 0 0 0 0 0 0 0 0 0 0 0 0 0 0 0 0 0 0 0 0 0 0 0 0 0 0 0 0 0 0 0 0 0 0 0 0 0 0 0 0 0 0 0 0 0 0 0 0 0 0 0 0 0 0 0 0 0 0 0 0 0 0 0 0 0 0 0 0 0 0 0 0 0 0 0 0 0 0 0 0 0 0 0 0 0 0 0 0 0 0 0 0 0 0 0 0 0 0 0
0 0 0 0 0 0 0 0 0 0 0 0 0 0 0 0 0 1320 0 0 0 0 0 0 0 0 0 0 0 0 0 0 0 0 0 0 0 0 0 0 0 0 0 0 0 0 0 0 0 0 0 0 0 0 0 0 0 0 0 0 0 0 0 0 0 0 0 0 0 0 0 0 0 0 0 0 0 0 0 0 0 0 0 0 0 0 0 0 0 0 0 0 0 0 0 0 0 0 0 0 0 0 0 0 0 0 0 0 0 0 0 0 0 0 0 0 0 0 0 0
0 0 0 0 0 0 0 0 0 0 0 1112 1112 1125 0 0 1278 1284 0 0 0 0 1254 0 0 0 0 0 0 0 0 0 0 0 0 0 0 0 0 0 0 0 0 0 0 0 0 0 0 0 0 0 0 0 0 0 0 0 0 0 0 0 0 0 0 0 0 0 0 0 0 0 0 0 0 0 0 0 0 0 0 0 0 0 0 0 0 0 0 0 0 0 0 0 0 0 0 0 0 0 0 0 0 0 0 0 0 0 0 0 0 0 0 0 0 0 0 0 0 0
0 0 0 0 0 0 0 0 1109 1154 1129 1163 1149 1158 1169 0 1282 1279 1327 1282 1286 1258 1244 0 0 0 0 0 0 0 0 0 0 0 0 0 0 0 0 0 0 0 0 0 0 0 0 0 0 0 0 0 0 0 0 0 0 0 0 0 0 0 0 0 0 0 0 0 0 0 0 0 0 0 0 0 0 0 0 0 0 0 0 0 0 0 0 0 0 0 0 0 0 0 0 0 0 0 0 0 0 0 0 0 0 0 0 0 0 0 0 0 0 0 0 0 0 0 0 0
0 0 0 0 0 0 0 1088 1105 1123 0 1146 1181 1150 1195 1201 1261 1282 1246 1237 1243 1268 1267 1270 0 0 0 0 0 0 0 0 0 0 0 0 0 0 0 0 0 0 0 0 0 0 0 0 0 0 0 0 0 0 0 0 0 0 0 0 0 0 0 0 0 0 0 0 0 0 0 0 0 0 0 0 0 0 0 0 0 0 0 0 0 0 0 0 0 0 0 0 0 0 0 0 0 0 0 0 0 0 0 0 0 0 0 0 0 0 0 0 0 0 0 0 0 0 0 0
0 0 0 0 0 0 0 0 0 0 0 0 1195 1235 1248 1262 1289 1259 1305 1302 1265 1269 1243 1263 0 0 0 0 0 0 0 1381 0 0 0 0 0 0 0 0 0 0 0 0 0 0 0 0 0 0 0 0 0 0 0 0 0 0 0 0 0 0 0 0 0 0 0 0 0 0 0 0 0 0 0 0 0 0 0 0 0 0 0 0 0 0 0 0 0 0 0 0 0 0 0 0 0 0 0 0 0 0 0 0 0 0 0 0 0 0 0 0 0 0 0 0 0 0 0 0
0 0 0 0 0 0 0 0 0 0 0 0 1238 1259 1269 1274 1270 1311 1301 1274 1273 1262 1289 1252 0 1290 1345 1330 1369 1360 0 1393 0 0 0 0 0 0 0 0 0 0 0 0 0 0 0 0 0 0 0 0 0 0 0 0 0 0 0 0 0 0 0 0 0 0 0 0 0 0 0 0 0 0 0 0 0 0 0 0 0 0 0 0 0 0 0 0 0 0 0 0 0 0 0 0 0 0 0 0 0 0 0 0 0 0 0 0 0 0 0 0 0 0 0 0 0 0 0 0
0 0 0 0 0 0 0 0 0 0 0 0 1262 1302 1273 1280 1269 1272 1252 1250 1262 1258 1264 1252 0 0 1336 1354 1348 1376 1356 1434 0 0 0 0 0 0 0 0 0 0 0 0 0 0 0 0 0 0 0 0 0 0 0 0 0 0 0 0 0 0 0 0 0 0 0 0 0 0 0 0 0 0 0 0 0 0 0 0 0 0 0 0 0 0 0 0 0 0 0 0 0 0 0 0 0 0 0 0 0 0 0 0 0 0 0 0 0 0 0 0 0 0 0 0 0 0 0 0
0 0 0 0 0 0 0 0 0 0 0 0 0 0 1268 1266 1263 1269 1269 1259 1282 1254 1270 1286 1317 0 1302 1339 1339 1334 1363 1406 1446 0 0 0 0 0 0 0 0 0 0 0 0 0 0 0 0 0 0 0 0 0 0 0 0 0 0 0 0 0 0 0 0 0 0 0 0 0 0 0 0 0 0 0 0 0 0 0 0 0 0 0 0 0 0 0 0 0 0 0 0 0 0 0 0 0 0 0 0 0 0 0 0 0 0 0 0 0 0 0 0 0 0 0 0 0 0 0
0 0 0 0 0 0 0 0 0 0 0 0 0 0 0 0 0 0 0 0 0 1287 1252 1256 1287 0 0 1354 1342 1339 1339 1435 1466 0 0 0 0 0 0 0 0 0 0 0 0 0 0 0 0 0 0 0 0 0 0 0 0 0 0 0 0 0 0 0 0 0 0 0 0 0 0 0 0 0 0 0 0 0 0 0 0 0 0 0 0 0 0 0 0 0 0 0 0 0 0 0 0 0 0 0 0 0 0 0 0 0 0 0 0 0 0 0 0 0 0 0 0 0 0 0
0 0 0 0 0 0 0 0 0 0 0 0 0 0 0 0 0 0 0 0 0 0 0 1340 1328 0 0 0 1346 1339 1371 1361 1439 0 0 0 0 0 0 0 0 0 0 0 0 0 0 0 0 0 0 0 0 0 0 0 0 0 0 0 0 0 0 0 0 0 0 0 0 0 0 0 0 0 0 0 0 0 0 0 0 0 0 0 0 0 0 0 0 0 0 0 0 0 0 0 0 0 0 0 0 0 0 0 0 0 0 1754 0 0 0 0 0 0 0 0 0 0 0 0
0 0 0 0 0 0 0 0 0 0 0 0 0 0 0 0 0 0 0 0 0 0 0 1395 1400 1307 1301 0 1347 1349 1354 1396 1423 0 0 0 0 0 0 0 0 0 0 0 0 0 0 0 0 0 0 0 0 0 0 0 0 0 0 0 0 0 0 0 0 0 0 0 0 0 0 0 0 0 0 0 0 0 0 0 0 0 0 0 0 0 0 0 0 0 0 0 0 0 0 0 0 0 0 0 0 0 0 0 0 0 1759 1761 0 0 0 0 0 0 0 0 0 0 0 0
0 0 0 0 0 0 0 0 0 0 0 0 0 0 0 0 0 0 0 0 0 0 0 1359 1374 1386 1319 1281 1352 1326 1379 1399 1404 0 0 0 0 0 0 0 0 0 0 0 0 0 0 0 0 0 0 0 0 0 0 0 0 0 0 0 0 0 0 0 0 0 0 0 0 0 0 0 0 0 0 0 0 0 0 0 0 0 0 0 0 0 0 0 0 0 0 0 0 0 0 0 0 0 0 0 0 0 0 0 0 1747 1703 0 1670 0 0 0 0 0 0 0 0 0 0 0
0 0 0 0 0 0 0 0 0 0 0 0 0 0 0 0 0 0 0 0 0 0 0 1375 1339 1388 1363 1336 1307 1338 1351 1392 1395 0 0 0 0 0 0 0 0 0 0 0 0 0 0 0 0 0 0 0 0 0 0 0 0 0 0 0 0 0 0 0 0 0 0 0 0 0 0 0 0 0 0 0 0 0 0 0 0 0 0 0 0 0 0 0 0 0 0 0 0 0 0 0 0 0 0 0 0 0 0 0 0 1734 1687 0 0 0 0 0 0 0 0 0 0 0 0 0
0 0 0 0 0 0 0 0 0 0 0 0 0 0 0 0 0 0 0 0 0 0 0 1347 1369 1369 1390 1377 1340 1325 1352 1418 1426 0 0 0 0 0 0 0 0 0 0 0 0 0 0 0 0 0 0 0 0 0 0 0 0 0 0 0 0 0 0 0 0 0 0 0 0 0 0 0 0 0 0 0 0 0 0 0 0 0 0 0 0 0 0 0 0 0 0 0 0 0 0 0 0 0 0 0 0 0 0 0 0 1691 0 1724 1704 0 0 0 0 1637 0 0 0 0 0 0
1246 1268 1245 1258 1312 1288 1288 0 0 0 0 0 0 0 0 0 0 0 0 0 0 0 0 0 1369 1381 1386 1351 1370 1365 1362 1409 1440 0 0 0 0 0 0 0 0 0 0 0 0 0 0 0 0 0 0 0 0 0 0 0 0 0 0 0 0 0 0 0 0 0 0 0 0 0 0 0 0 0 0 0 0 0 0 0 0 0 0 0 0 0 0 0 0 0 0 0 0 0 0 0 0 0 0 0 0 0 0 0 0 1714 1708 1722 1719 1666 0 0 0 0 0 0 0 0 0 0
1233 1264 1249 1265 1290 1289 1323 1321 1338 1319 1352 1312 0 0 0 0 0 0 0 0 0 0 0 1341 1355 1352 1373 1363 1390 1369 1380 1421 1428 0 0 0 0 0 0 0 0 0 0 0 0 0 0 0 0 0 0 0 0 0 0 0 0 0 0 0 0 0 0 0 0 0 0 0 0 0 0 0 0 0 0 0 0 0 0 0 0 0 0 0 0 0 0 0 0 0 0 0 0 0 0 0 0 0 0 0 0 0 0 1782 1743 1767 1728 1713 1695 1690 1675 1679 0 0 0 0 0 0 0 0
1248 1223 1235 1270 1288 1302 1310 1325 1323 1331 1324 1341 1381 1354 1395 1409 0 0 0 0 0 0 0 0 0 1376 0 0 1399 0 0 1437 1423 0 0 0 0 0 0 0 0 0 0 0 0 0 0 0 0 0 0 0 0 0 0 0 0 0 0 0 0 0 0 0 0 0 0 0 0 0 0 0 0 0 0 0 0 0 0 0 0 0 0 0 0 0 0 0 0 0 0 0 0 0 0 0 0 0 0 0 0 0 1808 1800 1756 1759 1748 1731 1708 1642 1663 1663 0 0 0 0 0 0 0 0
0 0 0 0 1307 1304 1290 1309 1314 1361 1344 1346 1380 1385 1383 1370 1383 1423 1444 1452 0 0 0 0 0 0 0 0 0 0 0 1433 1424 1423 0 0 0 0 0 0 0 0 0 0 0 0 0 0 0 0 0 0 0 0 0 0 0 0 0 0 0 0 0 0 0 0 0 0 0 0 0 0 0 0 0 0 0 0 0 0 0 0 0 0 0 0 0 0 0 0 0 0 0 0 0 0 0 0 0 0 0 0 1821 1786 1749 1758 1732 1677 1646 1632 0 0 0 0 0 0 0 0 0 0
0 0 0 0 0 0 0 0 0 1328 1339 1363 1356 1378 1382 1386 1396 1433 1422 1468 1441 1441 0 0 0 0 0 0 0 0 0 1420 1466 1486 0 0 0 0 0 0 0 0 0 0 0 0 0 0 0 0 0 0 0 0 0 0 0 0 0 0 0 0 0 0 0 0 0 0 0 0 0 0 0 0 0 0 0 0 0 0 0 0 0 0 0 0 0 0 0 0 0 0 0 0 0 0 0 0 0 0 0 0 0 1740 1724 1671 1611 1599 1618 1576 1555 1597 1596 1603 0 0 0 0 0 0
0 0 0 0 0 0 0 0 0 0 0 0 0 0 0 1406 1407 1405 1438 1469 1472 1473 0 0 0 0 0 0 0 0 0 0 1472 0 0 0 0 0 0 0 0 0 0 0 0 0 0 0 0 0 0 0 0 0 0 0 0 0 0 0 0 0 0 0 0 0 0 0 0 0 0 0 0 0 0 0 0 0 0 0 0 0 0 0 0 0 0 0 0 0 0 0 0 0 0 0 0 0 0 0 0 1760 1650 1617 1580 1598 1597 1572 1574 1621 1560 1578 1597 1578 1596 0 0 0 0 0
0 0 0 0 0 0 0 0 0 0 0 0 0 0 0 0 0 0 0 0 0 1431 0 0 0 0 0 0 0 0 0 0 0 0 0 0 0 0 0 0 0 0 0 0 0 0 0 0 0 0 0 0 0 0 0 0 0 0 0 0 0 0 0 0 0 0 0 0 0 0 0 0 0 0 0 0 0 0 0 0 0 0 0 0 0 0 0 0 0 0 0 0 0 0 0 0 0 0 0 0 0 1553 1644 1614 1607 1599 1581 1587 1597 1589 1578 1603 1548 1543 0 0 0 0 0 0
0 0 0 0 0 0 0 0 0 0 0 0 0 0 0 0 0 0 0 0 0 0 0 0 0 0 0 0 0 0 0 0 0 0 0 0 0 0 0 0 0 0 0 0 0 0 0 0 0 0 0 0 0 0 0 0 0 0 0 0 0 0 0 0 0 0 0 0 0 0 0 0 0 0 0 0 0 0 0 0 0 0 0 0 0 0 0 0 0 0 0 0 0 0 0 0 0 0 0 0 0 0 1563 1571 1584 1587 1591 1590 1578 1594 1574 1589 0 0 0 0 0 0 0 0
0 0 0 0 0 0 0 0 0 0 0 0 0 0 0 0 0 0 0 0 0 0 0 0 0 0 0 0 0 0 0 0 0 0 0 0 0 0 0 0 0 0 0 0 0 0 0 0 0 0 0 0 0 0 0 0 0 0 0 0 0 0 0 0 0 0 0 0 0 0 0 0 0 0 0 0 0 0 0 0 0 0 0 0 0 0 0 0 0 0 0 0 0 0 0 0 0 0 0 0 0 0 0 0 0 0 0 1568 0 0 0 0 0 0 0 0 0 0 0 0
0 0 0 0 0 0 0 0 0 0 0 0 0 0 0 0 0 0 0 0 0 0 0 0 0 0 0 0 0 0 0 0 0 0 0 0 0 0 0 0 0 0 0 0 0 0 0 0 0 0 0 0 0 0 0 0 0 0 0 0 0 0 0 0 0 0 0 0 0 0 0 0 0 0 0 0 0 0 0 0 0 0 0 0 0 0 0 0 0 0 0 0 0 0 0 0 0 0 0 0 0 0 0 0 0 0 0 0 0 0 0 0 0 0 0 0 0 0 0 0
562 607 0 0 0 0 0 0 0 0 0 0 0 0 0 0 0 0 0 0 0 0 0 0 0 1851 1924 0 0 0 0 0 0 0 0 0 0 0 0 0 0 0 0 0 0 0 0 2901 2936 2921 2949 2903 2893 2904 2892 2913 2918 2912 2962 2915 2941 2950 2914 2852 2900 2940 0 0 0 0 0 0 0 0 0 0 0 0 0 0 0 0 0 0 0 0 0 0 0 0 0 0 0 0 0 0 1727 0 0 0 0 0 0 0 0 0 0 0 0 0 0 0 0 0 0 0 0 0 0 0
579 590 603 590 636 636 0 0 0 0 0 0 0 0 0 0 0 0 0 0 0 0 0 0 0 0 0 1891 0 0 0 0 0 0 0 0 0 0 0 0 0 0 0 0 0 0 0 2901 2881 2931 2894 2925 2922 2921 2906 2856 2903 2919 2927 2918 2891 2876 2884 2879 2911 2927 0 0 0 0 0 0 0 0 0 0 0 0 0 0 0 0 0 0 0 0 0 0 0 0 0 0 0 0 0 0 0 0 0 0 0 0 0 0 0 0 0 0 0 0 0 0 0 0 0 0 0 0 0 0
572 581 593 588 621 623 655 649 636 0 0 0 0 0 0 0 0 0 0 0 0 0 0 0 0 0 0 0 0 0 0 0 0 0 0 0 0 0 0 0 0 0 0 0 0 0 0 2902 2936 2887 2920 2899 2900 2944 2911 2919 2942 2904 2918 2926 2915 2899 2902 2970 2903 0 0 0 0 0 0 0 0 0 0 0 0 0 0 0 0 0 0 0 0 0 0 0 0 0 0 0 0 0 0 0 0 0 0 0 0 0 0 0 0 0 0 0 0 0 0 0 0 0 0 0 0 0 0 0
566 567 589 597 611 617 628 656 654 652 704 699 0 0 0 0 0 0 0 0 0 0 0 0 0 0 0 0 0 0 0 0 0 0 0 0 0 0 0 0 0 0 0 0 0 0 0 2945 2920 2918 2966 2945 2939 2919 2876 2927 2876 2894 2917 2900 2903 2939 2931 2867 2933 0 0 0 0 0 0 0 0 0 0 0 0 0 0 0 0 0 0 0 0 0 0 0 0 0 0 0 0 0 0 0 0 0 0 0 0 0 0 0 0 0 0 0 0 0 0 0 0 0 0 0 0 0 0 0
588 610 592 609 630 630 627 648 652 667 683 688 716 725 758 0 0 0 0 0 0 0 0 0 0 0 0 0 0 0 0 0 0 0 0 0 0 0 0 0 0 0 0 0 0 0 0 2921 2893 2947 2913 2965 2884 2890 2923 2931 2896 2921 2900 2907 2910 2900 2889 2870 2890 2923 0 0 0 0 0 0 0 0 0 0 0 0 0 0 0 0 0 0 0 0 0 0 0 0 0 0 0 0 0 0 0 0 0 0 0 0 0 0 0 0 0 0 0 0 1825 0 0 0 0 0 0 0 0 0
759 765 780 757 712 656 642 683 659 666 689 677 713 709 724 763 770 760 0 0 0 0 0 0 0 0 0 0 0 0 0 0 0 0 0 0 0 0 0 0 0 0 0 0 0 0 0 2977 2932 2969 2880 2892 2870 2929 2928 2927 2897 2860 2892 2906 2899 2946 2866 2964 2910 2900 0 0 0 0 0 0 0 0 0 0 0 0 0 0 0 0 0 0 0 0 0 0 0 0 0 0 0 0 0 0 0 0 0 0 0 0 0 0 0 0 0 0 0 0 0 0 0 0 0 0 0 0 0 0
771 803 810 810 812 820 843 823 792 774 751 725 724 731 754 760 759 778 795 807 824 0 0 0 0 0 0 0 0 0 0 0 0 0 0 0 0 0 0 0 0 0 0 0 0 0 0 2898 2924 2930 2921 2892 2944 2905 2909 2975 2889 2862 2926 2901 2911 2854 2888 2885 2909 2944 0 0 0 0 0 0 0 0 0 0 0 0 0 0 0 0 0 0 0 0 0 0 0 0 0 0 0 0 0 0 0 0 0 0 0 0 0 0 0 0 0 0 0 0 0 0 0 0 0 0 0 0 0 0
741 805 802 823 850 855 865 879 888 918 911 917 949 896 831 825 808 770 779 789 821 857 867 875 0 0 0 0 0 0 0 0 0 0 0 0 0 0 0 0 0 0 0 0 0 0 0 2881 2912 2919 2899 2883 2918 2900 2909 2898 2944 2918 2873 2895 2864 2918 2940 2884 2889 2898 0 0 0 0 0 0 0 0 0 0 0 0 0 0 0 0 0 0 0 0 0 0 0 0 0 0 0 0 0 0 0 0 0 0 0 0 0 0 0 0 0 0 0 0 0 0 0 0 0 0 0 0 0 0
617 0 867 853 873 871 897 880 909 926 935 946 952 952 948 959 944 925 912 850 847 842 853 882 876 908 0 0 0 0 0 0 0 0 0 0 0 0 0 0 0 0 0 0 0 0 0 2897 2934 2891 2930 2873 2924 2936 2898 2901 2844 2880 2860 2912 2910 2924 2957 2862 2913 2885 0 0 0 0 0 0 0 0 0 0 0 0 0 0 0 0 0 0 0 0 0 0 0 0 0 0 0 0 0 0 0 0 0 0 0 0 0 0 0 0 0 0 0 0 0 0 0 0 0 0 0 0 0 0
635 905 962 950 926 930 931 907 918 921 938 943 952 953 946 944 957 950 953 957 944 933 909 900 926 932 962 984 1044 0 0 0 0 0 0 0 0 0 0 0 0 0 0 0 0 0 0 2919 2906 2896 2881 2877 2884 2880 2937 2921 2893 2910 2930 2874 2870 2880 2911 2883 2906 0 0 0 0 0 0 0 0 0 0 0 0 0 0 0 0 0 0 0 0 0 0 0 0 0 0 0 0 0 0 0 0 0 0 0 0 0 0 0 0 0 0 0 0 0 0 0 0 0 0 0 0 0 0 0
569 726 0 0 0 0 0 0 0 0 991 969 925 975 957 943 964 952 946 948 958 954 938 947 950 966 912 999 1019 1030 0 0 0 0 0 0 0 0 0 0 0 0 0 0 0 0 0 2951 2872 2892 2902 2923 2962 2891 2946 2919 2889 2891 2895 2908 2926 2925 2947 2909 2942 0 0 0 0 0 0 0 0 0 0 0 0 0 0 0 0 0 0 0 0 0 0 0 0 0 0 0 0 0 0 0 0 0 0 0 0 0 0 0 0 0 0 0 0 0 0 0 0 0 0 0 0 0 0 0
604 572 591 0 1146 1149 1152 1138 1133 1145 1140 1122 1137 1139 1144 1142 1121 1019 0 0 1001 1086 1064 999 988 1032 1127 1126 1131 1087 1086 0 0 0 0 0 0 0 0 0 0 0 0 0 0 0 0 2909 2938 2920 2923 2941 2885 2947 2909 2912 2904 2929 2927 2881 2849 2910 2899 2892 2926 2948 0 0 0 0 0 0 0 0 0 0 0 0 0 0 0 0 0 0 0 0 0 0 0 0 0 0 0 0 0 0 0 0 0 0 0 0 0 0 0 0 0 0 0 0 0 0 0 0 0 0 0 0 0 0
578 581 604 600 0 0 0 0 0 0 0 0 0 0 0 0 1425 1013 997 0 0 1170 1095 0 0 1113 1171 1168 1159 1140 1152 0 0 0 0 0 0 0 0 0 0 0 0 0 0 0 0 2883 2896 2889 2928 2939 2904 2879 2890 2852 2899 2899 2896 2931 2868 2882 2901 2860 2860 2873 0 0 0 0 0 0 0 0 0 0 0 0 0 0 0 0 0 0 0 0 0 0 0 0 0 0 0 0 0 0 0 0 0 0 0 0 0 0 0 0 0 0 0 0 0 0 0 0 0 0 0 0 0 0
569 585 603 596 584 0 0 0 0 0 0 0 0 0 0 0 0 961 970 0 0 0 0 0 0 0 0 0 0 0 0 0 0 0 0 0 0 0 0 0 0 0 0 0 0 0 0 2939 2955 2983 2922 2982 2925 2939 2887 2921 2976 2896 2909 2927 2910 2888 2901 2904 2927 2897 0 0 0 0 0 0 0 0 0 0 0 0 0 0 0 0 0 0 0 0 0 0 0 0 0 0 0 0 0 0 0 0 0 0 0 0 0 0 0 0 0 0 0 0 0 0 0 0 0 0 0 0 0 0
610 600 610 600 615 621 0 0 0 0 0 0 0 0 0 0 0 0 0 0 0 0 0 0 0 0 0 0 0 0 0 0 0 0 0 0 0 0 0 0 0 0 0 0 0 0 0 2908 2901 2858 2883 2884 2938 2914 2903 2935 2875 2887 2935 2886 2892 2878 2909 2877 2922 0 0 0 0 0 0 0 0 0 0 0 0 0 0 0 0 0 0 0 0 0 0 0 0 0 0 0 0 0 0 0 0 0 0 0 0 0 0 0 0 0 0 0 0 0 0 0 0 0 0 0 0 0 0 0
570 596 616 650 605 591 0 0 0 0 0 0 0 0 0 0 0 0 0 0 0 0 987 0 0 0 0 0 0 0 0 0 0 0 0 0 0 0 0 0 0 0 0 0 0 0 0 2855 2938 2910 2864 2927 2916 2874 2906 2888 2885 2936 2895 2894 2894 2871 2910 2858 2852 0 0 0 0 0 0 0 0 0 0 0 0 0 0 0 0 0 0 0 0 0 0 0 0 0 0 0 0 0 0 0 0 0 0 0 0 0 0 0 0 0 0 0 0 0 0 0 0 0 0 0 0 0 0 0
572 609 610 628 593 582 585 0 0 0 0 0 0 0 0 0 0 0 0 0 0 0 967 0 0 0 0 0 0 0 0 0 0 0 0 0 0 0 0 0 0 0 0 0 0 0 0 2915 2910 2873 2864 2938 2893 2917 2882 2896 2888 2900 2903 2903 2911 2888 2873 2904 2880 0 0 0 0 0 0 0 0 0 0 0 0 0 0 0 0 0 0 0 0 0 0 0 0 0 0 0 0 0 0 0 0 0 0 0 0 0 0 0 0 0 0 0 0 0 0 0 0 0 0 0 0 0 0 0
603 603 586 622 608 605 648 0 0 0 0 0 0 0 0 0 0 0 0 0 0 0 0 0 0 0 0 0 0 0 0 0 0 0 0 0 0 0 0 0 0 0 0 0 0 0 0 2907 2904 2892 2877 2926 2866 2914 2884 2866 2856 2903 2900 2871 2912 2909 2908 2863 2886 2830 0 0 0 0 0 0 0 0 0 0 0 0 0 0 0 0 0 0 0 0 0 0 0 0 0 0 0 0 0 0 0 0 0 0 0 0 0 0 0 0 0 0 0 0 0 0 0 0 0 0 0 0 0 0
583 605 595 608 601 603 552 0 0 0 0 0 0 0 0 0 2322 0 0 0 0 0 949 980 0 0 0 0 0 0 0 0 0 0 0 0 0 0 0 0 0 0 0 0 0 0 0 2907 2887 2868 2904 2920 2946 2888 2904 2875 2903 2876 2879 2908 2872 2898 2888 2849 2894 2875 0 0 0 0 0 0 0 0 0 0 0 0 0 0 0 0 0 0 0 0 0 0 0 0 0 0 0 0 0 0 0 0 0 0 0 0 0 0 0 0 0 0 0 0 0 0 0 0 0 0 0 0 0 0
577 595 597 623 614 603 618 0 0 0 0 0 0 0 0 0 0 0 0 0 0 0 0 0 0 0 0 0 0 0 0 0 0 0 0 0 0 0 0 0 0 0 0 0 0 0 0 2905 2907 2891 2910 2870 2870 2911 2927 2892 2899 2889 2883 2897 2913 2919 2904 2892 2882 2908 0 0 0 0 0 0 0 0 0 0 0 0 0 0 0 0 0 0 0 0 0 0 0 0 0 0 0 0 0 0 0 0 0 0 0 0 0 0 0 0 0 0 0 0 0 0 0 0 0 0 0 0 0 0
552 620 609 602 602 611 0 0 0 0 0 0 0 0 0 0 0 0 0 0 0 0 0 0 0 0 0 0 0 0 0 0 0 0 0 0 0 0 0 0 0 0 0 0 0 0 0 0 0 0 0 0 0 0 0 0 0 0 0 0 0 0 3011 2892 2892 0 0 0 0 0 0 0 0 0 0 0 0 0 0 0 0 0 0 0 0 0 0 0 0 0 0 0 0 0 0 0 0 0 0 0 0 0 0 0 0 0 0 0 0 0 0 0 0 0 0 0 0 0 0 0
595 616 623 585 609 624 0 0 0 0 0 0 0 0 0 0 0 0 0 0 0 0 0 0 0 0 0 0 0 0 0 0 0 0 0 0 0 0 0 0 0 0 0 0 0 0 0 0 0 0 0 0 0 0 0 0 0 0 0 0 0 0 0 0 0 0 0 0 0 0 0 0 0 0 0 0 0 0 0 0 0 0 0 0 0 0 0 0 0 0 0 0 0 0 0 0 0 0 0 0 0 0 0 0 0 0 0 0 0 0 0 0 0 0 0 0 0 0 0 0
626 607 598 616 598 0 0 0 0 0 0 0 0 0 0 0 0 0 0 0 0 0 0 0 0 0 0 0 0 0 0 0 0 0 0 0 0 0 0 0 0 0 0 0 0 0 0 0 0 0 0 0 0 0 0 0 0 0 0 0 0 0 0 0 0 0 0 0 0 0 0 0 0 0 0 0 0 0 0 0 0 0 0 0 0 0 0 0 0 0 0 0 0 0 0 0 0 0 0 0 0 0 0 0 0 0 0 0 0 0 0 0 0 0 0 0 0 0 0 0
572 584 611 568 638 0 0 0 0 0 0 0 0 0 0 0 0 0 0 0 0 0 0 0 0 0 0 0 0 0 0 0 0 0 0 0 0 0 0 0 0 0 0 0 0 0 0 0 0 0 0 0 0 0 0 0 0 0 0 0 0 0 0 0 0 0 0 0 0 0 0 0 0 0 0 0 0 0 0 0 0 0 0 0 0 0 0 0 0 0 0 0 0 0 0 0 0 0 0 0 0 0 0 0 0 0 0 0 0 0 0 0 0 0 0 0 0 0 0 0
587 606 595 645 0 0 0 0 0 0 0 0 0 0 0 0 0 0 0 0 0 0 0 0 0 0 855 869 877 864 933 922 886 944 909 890 0 919 885 925 894 0 0 0 0 0 0 0 0 0 0 0 0 0 0 0 0 0 0 0 0 0 0 0 0 0 0 0 0 0 0 0 0 0 0 0 0 0 0 0 0 0 0 0 0 0 0 0 0 0 0 0 0 0 0 0 0 0 0 0 0 0 0 0 0 0 0 0 0 0 0 0 0 0 0 0 0 0 0 0
585 610 633 0 0 0 0 715 712 708 720 706 721 737 738 734 737 734 669 703 698 735 678 730 759 729 704 711 732 739 736 759 696 714 738 723 760 706 799 763 781 795 750 806 785 778 813 805 801 821 794 734 804 786 797 767 774 780 777 815 821 845 785 783 797 817 806 823 744 826 812 768 829 0 0 0 0 0 0 0 0 0 0 0 0 0 0 0 0 0 0 0 0 0 0 0 0 0 0 0 0 0 0 0 0 0 0 0 0 0 0 0 0 0 0 0 0 0 0 0
561 587 546 569 559 568 592 602 552 572 581 624 589 575 608 594 604 572 611 577 602 610 623 601 588 650 602 613 584 607 602 603 599 635 574 585 626 613 633 597 620 617 633 586 626 651 633 664 608 622 621 609 638 634 645 618 632 638 648 654 640 643 600 637 627 627 678 631 636 670 672 657 685 648 663 633 654 670 678 689 700 649 672 675 663 724 648 687 710 740 653 683 689 666 0 0 0 663 670 716 711 0 0 0 0 0 0 0 0 0 0 0 0 0 0 0 0 0 0 0
473 442 482 497 497 509 489 480 502 508 500 493 478 465 511 495 492 488 514 476 497 498 510 497 483 500 506 505 511 510 506 494 500 522 506 516 503 525 520 510 524 539 499 501 519 520 520 527 514 523 528 525 532 532 513 520 533 538 530 534 517 549 542 559 528 529 534 544 526 545 522 523 538 566 514 542 557 558 538 539 554 542 547 565 552 557 607 558 549 555 533 573 581 560 584 557 571 571 580 541 569 569 618 547 0 553 0 562 561 535 0 0 0 0 0 0 0 0 0 0
412 433 410 436 435 435 409 391 433 428 435 456 436 429 433 446 442 453 443 434 474 465 448 468 445 453 456 457 443 437 459 458 459 438 442 455 447 465 462 459 462 462 450 464 476 467 460 464 488 459 468 476 474 472 470 481 476 475 472 479 468 470 491 481 484 460 488 464 458 477 497 488 473 460 464 474 485 482 477 484 494 488 493 484 480 503 486 504 506 483 511 499 476 486 485 482 524 486 503 493 467 506 539 493 484 483 469 472 454 488 510 540 0 0 0 0 0 0 0 0
394 424 394 393 403 374 387 419 399 388 401 385 398 406 404 406 402 401 409 401 405 399 404 407 407 408 408 410 401 400 393 408 410 416 426 408 413 406 410 410 420 412 425 400 413 411 408 418 427 434 426 425 423 428 429 422 421 421 428 421 415 428 425 419 419 432 405 424 416 427 421 423 425 423 418 415 424 431 428 434 426 436 436 422 437 429 449 438 440 445 438 435 452 428 425 413 437 450 431 438 428 428 436 449 445 456 424 427 441 453 446 440 425 413 0 0 0 0 0 0
364 349 360 350 360 367 361 349 368 364 375 351 364 365 355 368 379 371 360 356 362 360 370 380 368 362 354 369 366 370 373 380 376 378 384 370 375 379 375 375 370 391 374 378 371 384 382 357 382 388 384 379 389 385 382 376 367 388 383 386 379 395 391 380 371 387 392 388 391 385 385 375 403 394 393 389 398 386 399 402 400 395 391 393 398 401 388 373 402 395 396 403 398 388 398 385 412 388 402 405 388 406 389 396 389 405 387 391 373 396 394 393 376 400 387 413 0 0 0 0
315 341 324 325 318 330 340 341 341 326 322 324 319 335 343 343 339 332 343 343 356 339 336 340 356 336 342 353 343 352 327 339 330 340 338 344 349 341 340 349 341 344 335 346 330 338 342 359 340 354 346 349 342 347 336 339 345 336 355 348 351 346 352 354 345 339 355 346 343 354 353 361 356 351 343 358 350 343 348 343 351 351 357 349 333 361 348 345 346 359 357 356 350 360 355 341 340 357 342 359 355 342 367 359 324 363 362 370 366 375 342 355 373 380 368 357 345 0 0 0
283 289 298 290 303 298 292 299 290 313 310 298 299 283 304 289 305 305 310 301 304 303 295 291 296 307 297 294 294 314 299 302 307 298 307 306 298 305 311 299 314 309 305 302 301 304 314 308 306 300 309 309 317 315 308 318 315 305 321 316 312 311 309 310 304 322 318 323 306 314 310 316 309 316 313 314 314 312 315 323 314 311 309 296 316 322 325 322 320 324 313 314 322 315 316 325 325 310 303 322 324 324 330 302 297 321 323 326 303 327 312 302 329 337 311 289 331 314 300 0
269 263 272 276 287 290 276 291 277 278 277 267 282 274 282 287 275 275 288 283 274 276 271 272 277 276 282 284 284 266 280 286 284 275 288 282 283 280 284 299 283 279 284 280 283 283 289 285 286 285 289 284 289 282 288 295 281 299 285 289 291 292 282 297 291 296 282 284 284 289 298 295 294 280 290 287 289 281 286 293 290 286 288 293 286 295 297 293 295 303 296 290 288 293 295 295 290 286 307 295 288 292 308 309 303 293 293 288 300 288 300 311 318 288 272 284 293 341 283 318
255 249 262 258 245 256 260 252 264 257 256 254 250 262 264 259 258 267 264 261 252 253 264 258 263 261 252 258 256 257 255 264 266 258 257 260 265 267 268 268 265 266 263 266 263 264 262 264 267 266 270 267 264 271 269 263 264 268 274 263 268 270 268 263 273 267 273 264 270 264 262 272 270 269 273 265 267 264 273 257 261 267 264 268 270 272 268 269 264 268 264 269 271 272 269 272 271 275 280 267 278 267 280 277 271 286 268 278 284 287 269 293 287 279 288 280 273 273 260 310
233 232 235 238 239 233 233 220 231 234 231 238 242 247 238 243 245 237 245 244 234 235 241 237 243 240 240 242 241 250 241 246 243 243 244 242 245 241 252 245 256 244 240 244 243 254 244 243 248 254 251 253 251 249 251 242 248 246 249 255 251 250 253 251 249 250 250 250 250 251 249 251 249 255 250 250 249 250 247 247 252 248 256 245 251 260 243 252 249 245 250 246 252 241 255 245 246 247 254 247 255 243 256 255 252 257 252 254 249 249 250 244 256 271 242 235 274 256 282 249
216 215 223 218 217 228 223 218 225 219 226 231 230 224 225 222 221 223 231 224 224 223 229 221 228 227 228 229 228 230 225 226 231 233 228 236 229 225 243 235 223 233 230 230 236 235 236 234 236 237 231 231 231 229 235 239 234 236 236 235 233 236 241 231 235 230 241 236 235 231 237 236 236 234 236 231 227 233 239 233 229 222 234 232 237 237 239 235 235 235 236 234 228 233 234 234 236 238 239 243 245 247 240 229 238 223 238 247 234 237 237 234 240 226 229 248 254 248 239 239
209 206 218 214 214 203 212 207 214 213 212 215 208 217 211 218 212 211 213 220 214 213 211 212 210 215 213 218 217 214 223 197 215 214 215 218 216 203 218 199 200 219 217 198 217 220 219 224 223 218 216 216 223 220 209 220 218 217 224 226 224 222 223 226 229 216 224 223 219 227 205 219 222 217 221 220 224 227 220 219 226 222 224 231 227 227 223 229 223 221 220 216 222 216 224 214 225 219 226 228 214 221 223 222 222 223 224 227 224 236 230 216 221 222 218 239 225 231 224 229
196 196 194 200 204 201 206 200 189 200 200 185 187 194 204 186 194 204 190 207 191 204 191 189 186 190 188 190 185 210 191 193 196 186 199 190 191 187 198 190 196 191 197 196 198 200 198 195 198 200 202 202 198 196 201 203 199 196 197 193 199 196 195 194 195 195 195 191 195 193 191 191 196 196 193 192 191 200 189 189 191 196 197 200 213 201 199 187 193 196 209 212 194 207 192 187 209 195 212 209 210 211 208 209 219 212 208 202 204 207 204 209 211 183 204 214 204 175 205 180
176 181 197 179 181 181 198 199 183 181 181 182 179 185 183 180 183 188 180 181 178 185 182 186 181 190 190 194 184 192 193 191 195 189 194 185 195 191 196 194 198 195 199 197 199 196 196 199 196 197 201 200 193 200 197 201 199 199 190 198 194 197 198 200 200 199 201 191 199 196 201 197 196 200 193 194 200 196 196 199 196 193 187 184 187 190 194 191 184 182 186 190 185 184 189 186 190 184 188 185 182 186 203 185 189 184 200 190 204 190 210 203 180 181 184 197 219 174 197 171
168 169 177 179 175 174 172 182 181 179 182 177 176 185 186 187 185 178 183 189 183 190 187 189 184 185 185 190 187 186 188 186 184 186 184 187 188 185 188 186 187 186 189 187 187 190 191 191 187 185 190 187 192 185 188 194 186 191 193 187 180 187 185 196 190 192 194 188 183 190 190 189 187 192 186 186 190 191 193 190 191 193 186 189 186 194 193 183 191 194 185 188 193 186 190 192 189 184 187 180 189 188 187 182 187 185 178 176 180 180 178 176 185 188 176 175 197 184 185 205
169 165 160 172 171 172 169 173 170 163 173 175 168 169 181 174 172 176 181 180 174 177 171 171 170 168 174 173 173 176 175 181 172 176 171 168 183 176 171 179 176 174 175 178 184 179 173 184 180 186 179 184 174 181 178 182 179 181 182 179 178 173 186 181 180 180 183 181 183 177 179 181 175 181 183 179 184 181 178 176 182 181 178 173 177 180 173 181 180 181 174 177 173 176 176 174 176 177 181 185 173 185 177 182 176 175 170 182 172 171 178 177 173 175 177 174 172 176 173 173
165 165 168 161 163 165 162 156 169 165 168 165 163 170 166 173 169 172 170 170 169 166 171 173 168 161 167 169 170 178 173 174 171 167 166 168 172 169 172 172 167 171 172 171 173 173 171 175 174 172 171 174 172 177 174 171 169 177 179 173 168 175 174 169 178 173 175 172 169 170 176 170 170 169 164 176 175 172 173 169 171 172 174 167 169 174 180 170 176 169 170 172 169 169 176 170 171 171 174 172 170 172 173 172 178 172 172 175 175 168 174 173 174 177 173 170 172 171 167 167
152 155 166 164 163 159 163 157 156 155 164 159 159 158 159 158 163 162 168 167 158 162 166 165 162 168 162 161 162 164 163 168 163 163 159 160 164 159 163 160 161 170 165 160 173 167 162 162 163 168 164 167 163 166 166 169 166 165 161 166 163 170 163 163 160 168 158 164 163 161 161 162 167 163 158 166 169 164 164 167 164 168 169 167 164 164 170 166 166 161 160 166 162 162 162 165 162 162 166 170 165 163 160 162 164 159 169 160 158 162 168 166 171 157 162 155 168 171 165 170
144 149 153 146 146 148 147 154 155 154 149 149 150 152 151 151 157 155 159 157 156 154 150 157 154 162 147 158 160 163 156 157 156 158 154 156 147 156 153 154 156 159 156 158 158 157 157 153 155 156 164 160 161 160 158 158 161 154 162 159 164 164 159 162 161 161 158 161 153 156 160 159 157 161 153 161 164 160 164 154 158 161 163 156 155 155 163 161 157 156 156 159 156 157 159 155 157 158 150 162 154 156 158 158 155 155 155 156 155 158 155 152 152 153 154 152 148 160 172 141
138 142 148 147 149 147 144 144 149 142 148 147 145 148 150 146 144 152 144 151 154 150 153 152 149 151 150 154 152 148 153 144 146 146 144 146 149 149 152 147 151 152 153 150 153 152 150 152 146 154 154 151 151 157 151 147 155 157 156 158 155 152 152 155 152 152 158 155 152 152 150 154 150 154 152 152 157 160 152 158 151 152 152 145 147 158 154 153 152 153 148 152 161 151 155 149 153 151 149 158 154 153 162 154 151 148 152 152 153 151 153 155 152 149 161 140 144 156 158 126
134 138 136 137 138 142 141 141 138 139 141 145 140 140 136 137 144 137 141 151 145 145 140 149 142 144 150 148 145 144 138 143 145 141 139 139 148 146 147 144 144 146 143 145 144 143 142 139 143 149 144 143 142 143 147 141 142 148 148 143 146 146 146 146 148 145 148 147 149 145 149 145 145 147 146 147 150 153 149 150 140 146 142 141 141 144 146 147 150 151 148 145 145 145 147 147 139 142 151 151 144 148 148 142 144 143 140 145 142 141 134 143 138 146 146 152 151 136 137 126
135 130 129 136 132 142 140 143 138 136 137 0 131 142 137 138 140 139 138 141 143 141 144 136 143 144 149 136 140 130 136 128 139 131 138 130 141 138 125 130 142 148 132 141 139 131 140 132 128 130 140 143 134 143 143 144 144 144 142 132 135 129 140 147 145 131 144 145 143 139 140 131 130 141 143 141 144 142 141 144 142 141 143 129 141 146 143 142 141 143 124 139 146 144 143 142 144 142 144 142 141 143 138 145 143 137 135 140 142 137 139 131 129 135 138 141 126 130 131 137
130 133 130 130 136 136 144 135 131 135 133 134 137 137 138 134 129 137 135 134 139 139 139 137 140 138 138 138 139 126 126 127 138 126 130 126 128 129 129 130 145 141 138 139 0 139 140 132 128 127 126 131 140 141 0 142 0 128 141 129 130 130 143 141 139 130 141 130 148 144 122 126 130 131 132 132 141 131 140 130 136 131 124 138 128 138 128 138 141 140 127 141 138 144 127 128 141 141 144 140 139 120 140 141 137 124 135 132 130 138 132 133 137 140 134 139 134 156 132 171
119 103 113 107 126 129 138 128 127 116 120 118 122 124 123 124 122 123 130 118 122 126 127 134 122 135 136 139 0 137 130 121 118 125 120 121 129 127 124 122 127 130 126 140 0 0 127 125 129 124 122 117 126 129 128 129 134 129 127 122 127 124 128 128 124 132 131 129 121 128 126 124 124 121 120 123 122 131 125 124 125 122 121 140 121 130 122 121 126 130 127 127 121 133 120 121 124 141 126 129 121 119 121 125 114 115 111 116 120 116 130 135 139 138 121 113 112 116 137 121
106 115 122 112 112 119 128 117 129 116 115 121 122 119 125 115 109 133 120 124 121 120 126 123 125 119 129 125 126 126 128 0 125 120 120 110 117 124 0 120 129 125 0 0 0 0 125 126 123 123 121 122 128 125 126 124 125 125 121 120 123 121 119 122 124 128 124 124 118 118 124 120 124 121 118 123 119 126 124 126 127 119 119 122 116 119 122 118 122 125 116 121 122 123 119 117 134 124 121 122 118 117 121 116 107 124 114 118 129 129 116 121 132 135 94 120 128 100 102 133
104 105 110 116 109 109 115 118 111 109 119 117 108 117 116 110 115 114 109 121 117 108 111 119 120 119 120 121 117 120 122 0 119 121 115 109 116 0 110 118 120 0 0 122 125 0 119 116 112 113 116 111 118 121 119 122 118 118 116 119 121 122 120 118 122 124 122 119 119 115 119 119 111 115 117 114 120 114 111 119 112 118 116 119 115 115 118 116 115 119 116 117 119 115 108 117 121 121 112 117 112 120 113 114 117 114 128 112 108 120 124 126 121 128 118 115 126 108 95 137
96 103 103 103 97 102 112 111 101 114 106 111 107 107 120 115 114 112 104 107 113 108 113 102 112 112 115 115 112 113 119 115 113 110 113 112 106 114 0 116 115 112 111 108 110 119 113 0 115 0 114 111 120 116 0 0 104 111 118 113 124 118 109 112 108 110 110 110 119 111 112 109 107 105 110 110 106 107 108 114 110 105 109 107 111 108 110 111 105 111 109 106 99 115 107 115 110 110 104 106 106 112 116 107 109 113 108 112 107 118 107 112 103 100 99 104 111 102 102 142
103 98 113 107 103 106 108 109 112 110 103 112 107 111 114 118 111 111 114 107 110 96 104 102 114 114 108 112 105 114 110 110 110 105 115 114 114 0 106 107 106 108 112 102 106 107 109 109 114 0 106 110 108 109 109 114 105 110 112 111 111 109 117 0 115 107 110 112 111 111 109 105 104 110 102 104 103 100 101 112 109 100 106 105 104 104 100 108 105 105 108 107 106 101 101 107 106 111 108 108 101 113 113 111 109 103 103 112 97 107 102 97 108 110 113 106 107 117 115 89
97 86 108 105 96 97 98 98 93 97 105 100 101 100 106 106 97 104 105 101 100 99 95 102 96 105 106 98 100 105 105 105 105 102 104 103 107 110 103 106 107 105 101 97 101 104 104 98 106 99 105 105 104 105 101 107 99 102 102 103 104 111 108 0 111 106 0 109 101 106 103 104 102 110 100 106 98 101 0 101 0 104 97 99 95 101 98 101 103 100 99 105 99 96 93 96 99 100 98 96 97 98 99 99 97 97 102 93 94 93 87 101 93 112 107 86 96 113 88 134
88 93 80 93 95 95 95 90 96 95 97 98 99 96 104 95 93 97 104 96 96 98 94 89 95 96 103 100 100 101 111 99 103 102 100 103 103 102 102 100 101 100 98 94 98 98 101 101 106 105 112 97 103 100 95 99 99 102 100 102 101 105 108 102 111 106 105 107 105 100 100 107 99 98 99 100 103 96 98 101 0 104 94 89 102 98 98 110 96 96 101 97 98 102 92 104 93 95 93 103 97 91 104 92 98 104 101 97 96 92 84 104 98 83 91 113 90 79 86 115
94 97 94 98 93 95 95 90 82 92 94 94 101 94 95 85 94 95 103 108 101 95 82 92 96 94 100 95 94 100 99 101 104 96 96 101 97 97 101 104 97 98 89 90 98 92 102 99 91 99 101 93 89 98 91 103 93 98 96 102 97 99 100 0 99 101 93 98 96 96 100 98 100 103 87 102 100 98 103 108 94 100 85 110 101 97 90 89 89 94 97 93 98 87 90 95 97 90 110 90 95 98 99 86 97 94 102 81 92 94 94 92 98 90 103 92 127 134 100 66
83 80 88 81 81 87 83 86 88 90 80 89 90 91 86 92 84 86 94 91 84 94 90 90 87 88 99 91 92 94 96 88 97 93 91 93 87 90 99 90 85 85 97 89 88 99 88 88 92 96 96 94 91 95 96 97 96 97 98 88 87 96 98 91 95 98 91 86 93 99 86 95 98 89 85 95 93 98 96 94 88 95 97 92 85 95 95 96 95 90 90 90 96 90 94 92 91 93 90 86 86 84 91 80 91 87 89 91 87 82 84 80 84 87 84 78 89 79 83 78
90 82 80 85 90 87 94 92 86 91 85 88 88 89 90 91 93 90 92 91 85 95 91 87 91 88 96 88 90 85 90 94 97 92 102 97 94 89 94 95 89 94 88 93 94 97 98 97 91 91 98 98 97 89 95 96 93 88 94 94 93 90 93 92 96 91 89 89 97 90 88 85 97 91 92 89 93 99 95 96 101 85 97 91 95 100 93 92 95 89 97 97 100 88 91 94 88 82 91 97 92 87 93 92 87 96 95 89 91 83 90 82 82 86 97 83 99 92 0 0
85 93 86 85 83 88 84 88 84 0 85 86 92 88 91 79 92 90 85 87 93 90 91 96 93 94 95 85 87 90 87 86 88 96 91 94 95 99 95 96 96 93 93 89 98 88 94 96 92 98 91 98 95 95 88 96 99 93 96 98 92 93 92 89 88 97 86 93 90 97 89 82 84 87 92 87 96 97 90 94 96 96 90 91 94 89 83 99 99 90 91 92 99 84 91 86 91 91 94 84 83 92 83 91 86 83 85 89 91 82 84 85 81 88 80 80 92 92 83 0
82 79 79 84 89 91 96 84 87 77 81 84 87 90 83 87 83 87 84 91 89 89 92 83 85 85 85 92 90 87 87 88 88 92 87 93 95 89 89 87 93 89 95 91 87 87 92 92 92 93 95 93 91 92 96 98 95 94 94 95 93 91 93 87 88 95 86 89 92 95 92 97 90 95 96 84 95 93 95 92 92 90 95 85 87 87 88 85 93 85 94 91 87 87 81 74 88 86 92 90 79 81 91 85 89 79 89 88 71 87 82 94 77 87 86 83 73 87 0 0
82 76 82 78 80 82 90 94 83 88 85 78 87 84 79 91 85 87 93 89 91 93 84 88 82 84 88 88 88 93 91 88 92 93 91 87 92 90 86 89 93 85 92 94 95 90 92 94 94 92 92 85 88 83 84 89 91 96 93 92 94 93 87 94 92 83 88 84 91 96 87 90 97 86 96 87 93 92 97 86 89 91 88 84 89 87 90 87 91 90 85 94 85 87 87 88 86 92 90 83 85 86 91 83 85 89 82 92 83 76 80 95 86 68 103 56 0 0 0 0
74 70 60 61 78 79 82 84 80 76 79 82 79 84 85 73 81 80 79 79 85 76 84 85 74 69 83 77 85 80 91 72 80 85 90 78 82 84 88 79 90 82 82 72 81 82 83 85 88 80 84 77 74 87 85 74 89 87 82 77 86 82 81 81 80 84 80 78 78 74 82 79 81 81 86 81 75 85 91 85 77 82 75 78 77 86 78 76 81 80 85 69 81 77 80 73 78 81 71 88 72 77 79 64 74 76 78 76 77 85 79 69 86 76 73 73 0 0 0 0
67 67 78 82 69 84 86 87 84 80 79 90 70 81 75 81 85 81 76 78 74 85 75 78 90 84 75 72 84 84 84 73 83 85 83 73 74 73 84 80 88 79 88 88 82 88 82 73 88 83 84 73 81 74 80 82 80 80 81 74 80 75 78 76 80 78 82 74 88 76 81 83 87 78 85 79 77 85 89 88 81 82 78 82 76 84 80 72 81 80 71 83 73 73 82 77 90 82 75 72 88 70 74 71 72 69 75 82 82 70 68 58 67 73 78 0 0 0 0 0
