0 0 0 0 0 0 0 0 0 0 0 0 0 0 0 0 0 0 0 0 0 0 0 0 0 0 0 0 0 0 0 0 0 0 0 0 0 0 0 0 0 0 0 0 0 0 0 0 0 0 0 0 0 0 0 0 0 0 0 0 0 0 0 0 0 0 0 0 0 0 0 0 0 0 0 0 0 0 0 0 0 0 0 0 0 0 0 0 0 0 0 0 0 0 0 0 0 0 0 0 0 0 0 0 0 0 0 0 0 0 0 0 0 0 0 0 0 0 0 0
0 0 0 0 0 0 0 0 0 0 0 0 0 0 0 0 0 0 0 0 0 0 0 0 0 0 0 0 0 0 0 0 0 0 0 0 0 0 0 0 0 0 0 0 0 0 0 0 0 0 0 0 0 0 0 0 0 0 0 0 0 0 0 0 0 0 0 0 0 0 0 0 0 0 0 0 0 0 0 0 0 0 0 0 0 0 0 0 0 0 0 0 0 0 0 0 0 0 0 0 0 0 0 0 0 0 0 0 0 0 0 0 0 0 0 0 0 0 0 0
0 0 0 0 0 0 0 0 0 0 0 0 0 0 0 0 0 1242 0 0 0 0 0 0 0 0 0 0 0 0 0 0 0 0 0 0 0 0 0 0 0 0 0 0 0 0 0 0 0 0 0 0 0 0 0 0 0 0 0 0 0 0 0 0 0 0 0 0 0 0 0 0 0 0 0 0 0 0 0 0 0 0 0 0 0 0 0 0 0 0 0 0 0 0 0 0 0 0 0 0 0 0 0 0 0 0 0 0 0 0 0 0 0 0 0 0 0 0 0 0
0 0 0 0 0 0 0 0 0 0 0 1075 1138 1164 1160 0 1291 1280 0 0 0 0 1246 0 0 0 0 0 0 0 0 0 0 0 0 0 0 0 0 0 0 0 0 0 0 0 0 0 0 0 0 0 0 0 0 0 0 0 0 0 0 0 0 0 0 0 0 0 0 0 0 0 0 0 0 0 0 0 0 0 0 0 0 0 0 0 0 0 0 0 0 0 0 0 0 0 0 0 0 0 0 0 0 0 0 0 0 0 0 0 0 0 0 0 0 0 0 0 0 0
0 0 0 0 0 0 0 0 1080 1130 0 1120 1142 1128 1176 0 1293 1277 1280 0 1240 1265 1230 0 0 0 0 0 0 0 0 0 0 0 0 0 0 0 0 0 0 0 0 0 0 0 0 0 0 0 0 0 0 0 0 0 0 0 0 0 0 0 0 0 0 0 0 0 0 0 0 0 0 0 0 0 0 0 0 0 0 0 0 0 0 0 0 0 0 0 0 0 0 0 0 0 0 0 0 0 0 0 0 0 0 0 0 0 0 0 0 0 0 0 0 0 0 0 0 0
0 0 0 0 0 0 1155 1129 1130 1189 1203 0 1165 1178 1180 1255 1295 1297 1311 1311 1329 1301 1270 1306 0 0 0 0 0 0 0 1432 0 0 0 0 0 0 0 0 0 0 0 0 0 0 0 0 0 0 0 0 0 0 0 0 0 0 0 0 0 0 0 0 0 0 0 0 0 0 0 0 0 0 0 0 0 0 0 0 0 0 0 0 0 0 0 0 0 0 0 0 0 0 0 0 0 0 0 0 0 0 0 0 0 0 0 0 0 0 0 0 0 0 0 0 0 0 0 0
0 0 0 0 0 0 0 0 0 0 0 0 1203 1222 1279 1271 1296 1281 1307 1316 1270 1267 1251 1311 1281 0 0 0 0 0 0 1382 0 0 0 0 0 0 0 0 0 0 0 0 0 0 0 0 0 0 0 0 0 0 0 0 0 0 0 0 0 0 0 0 0 0 0 0 0 0 0 0 0 0 0 0 0 0 0 0 0 0 0 0 0 0 0 0 0 0 0 0 0 0 0 0 0 0 0 0 0 0 0 0 0 0 0 0 0 0 0 0 0 0 0 0 0 0 0 0
0 0 0 0 0 0 0 0 0 0 0 0 1253 1277 1259 1287 1305 1305 1270 1286 1273 1237 1306 1274 0 1336 1362 1374 1371 1429 0 1413 0 0 0 0 0 0 0 0 0 0 0 0 0 0 0 0 0 0 0 0 0 0 0 0 0 0 0 0 0 0 0 0 0 0 0 0 0 0 0 0 0 0 0 0 0 0 0 0 0 0 0 0 0 0 0 0 0 0 0 0 0 0 0 0 0 0 0 0 0 0 0 0 0 0 0 0 0 0 0 0 0 0 0 0 0 0 0 0
0 0 0 0 0 0 0 0 0 0 0 0 1293 1268 1291 1281 1306 1283 1324 1292 1257 1283 1281 1309 0 0 1368 1364 1361 1400 1421 1441 0 0 0 0 0 0 0 0 0 0 0 0 0 0 0 0 0 0 0 0 0 0 0 0 0 0 0 0 0 0 0 0 0 0 0 0 0 0 0 0 0 0 0 0 0 0 0 0 0 0 0 0 0 0 0 0 0 0 0 0 0 0 0 0 0 0 0 0 0 0 0 0 0 0 0 0 0 0 0 0 0 0 0 0 0 0 0 0
0 0 0 0 0 0 0 0 0 0 0 0 0 1265 1291 1287 1268 1250 1291 1248 1245 1230 1249 1254 1238 0 0 1297 1331 1327 1345 1381 0 0 0 0 0 0 0 0 0 0 0 0 0 0 0 0 0 0 0 0 0 0 0 0 0 0 0 0 0 0 0 0 0 0 0 0 0 0 0 0 0 0 0 0 0 0 0 0 0 0 0 0 0 0 0 0 0 0 0 0 0 0 0 0 0 0 0 0 0 0 0 0 0 0 0 0 0 0 0 0 0 0 0 0 0 0 0 0
0 0 0 0 0 0 0 0 0 0 0 0 0 0 0 0 0 0 0 0 0 1257 1286 1266 1301 0 0 1332 1348 1338 1370 1387 1421 0 0 0 0 0 0 0 0 0 0 0 0 0 0 0 0 0 0 0 0 0 0 0 0 0 0 0 0 0 0 0 0 0 0 0 0 0 0 0 0 0 0 0 0 0 0 0 0 0 0 0 0 0 0 0 0 0 0 0 0 0 0 0 0 0 0 0 0 0 0 0 0 0 0 0 0 0 0 0 0 0 0 0 0 0 0 0
0 0 0 0 0 0 0 0 0 0 0 0 0 0 0 0 0 0 0 0 0 0 0 1357 1295 0 0 0 1328 1337 1362 1415 1411 0 0 0 0 0 0 0 0 0 0 0 0 0 0 0 0 0 0 0 0 0 0 0 0 0 0 0 0 0 0 0 0 0 0 0 0 0 0 0 0 0 0 0 0 0 0 0 0 0 0 0 0 0 0 0 0 0 0 0 0 0 0 0 0 0 0 0 0 0 0 0 0 0 0 1753 0 0 0 0 0 0 0 0 0 0 0 0
0 0 0 0 0 0 0 0 0 0 0 0 0 0 0 0 0 0 0 0 0 0 0 1374 1397 1332 1272 0 1325 1320 1350 1393 1409 0 0 0 0 0 0 0 0 0 0 0 0 0 0 0 0 0 0 0 0 0 0 0 0 0 0 0 0 0 0 0 0 0 0 0 0 0 0 0 0 0 0 0 0 0 0 0 0 0 0 0 0 0 0 0 0 0 0 0 0 0 0 0 0 0 0 0 0 0 0 0 0 0 1776 1753 0 0 0 0 0 0 0 0 0 0 0 0
0 0 0 0 0 0 0 0 0 0 0 0 0 0 0 0 0 0 0 0 0 0 0 1361 1401 1369 1349 1324 1333 1348 1362 1439 1467 0 0 0 0 0 0 0 0 0 0 0 0 0 0 0 0 0 0 0 0 0 0 0 0 0 0 0 0 0 0 0 0 0 0 0 0 0 0 0 0 0 0 0 0 0 0 0 0 0 0 0 0 0 0 0 0 0 0 0 0 0 0 0 0 0 0 0 0 0 0 0 0 1765 1785 1733 0 0 0 0 0 0 0 0 0 0 0 0
0 0 0 0 0 0 0 0 0 0 0 0 0 0 0 0 0 0 0 0 0 0 0 1408 1379 1383 1354 1337 1345 1363 1348 1426 1466 0 0 0 0 0 0 0 0 0 0 0 0 0 0 0 0 0 0 0 0 0 0 0 0 0 0 0 0 0 0 0 0 0 0 0 0 0 0 0 0 0 0 0 0 0 0 0 0 0 0 0 0 0 0 0 0 0 0 0 0 0 0 0 0 0 0 0 0 0 0 0 0 1807 1736 0 0 0 0 0 0 0 0 0 0 0 0 0
0 0 0 0 0 0 0 0 0 0 0 0 0 0 0 0 0 0 0 0 0 0 0 1351 1385 1378 1403 1397 1368 1350 1376 1435 1427 0 0 0 0 0 0 0 0 0 0 0 0 0 0 0 0 0 0 0 0 0 0 0 0 0 0 0 0 0 0 0 0 0 0 0 0 0 0 0 0 0 0 0 0 0 0 0 0 0 0 0 0 0 0 0 0 0 0 0 0 0 0 0 0 0 0 0 0 0 0 0 1773 1819 1766 1750 1777 1721 0 1759 0 1674 0 0 0 0 0 0
1264 1256 1281 1290 1315 1341 1322 0 0 0 0 0 0 0 0 0 0 0 0 0 0 0 0 0 1376 1394 1387 1381 1394 1383 1369 1441 1423 0 0 0 0 0 0 0 0 0 0 0 0 0 0 0 0 0 0 0 0 0 0 0 0 0 0 0 0 0 0 0 0 0 0 0 0 0 0 0 0 0 0 0 0 0 0 0 0 0 0 0 0 0 0 0 0 0 0 0 0 0 0 0 0 0 0 0 0 0 0 0 0 1804 1746 1771 1738 1760 0 1739 0 0 0 0 0 0 0 0
1240 1254 1250 1275 1275 1294 1284 1285 1313 1328 1360 0 0 0 0 0 0 0 0 0 0 0 0 1342 1351 1353 1364 1373 1368 1359 1324 1412 1406 0 0 0 0 0 0 0 0 0 0 0 0 0 0 0 0 0 0 0 0 0 0 0 0 0 0 0 0 0 0 0 0 0 0 0 0 0 0 0 0 0 0 0 0 0 0 0 0 0 0 0 0 0 0 0 0 0 0 0 0 0 0 0 0 0 0 0 0 0 0 1815 0 0 1761 1724 1669 1657 1713 0 0 0 0 0 0 0 0 0
1264 1233 1259 1259 1274 1288 1311 1303 1312 1317 1343 1358 1334 1376 1385 1388 1430 0 0 0 0 0 0 0 0 1378 1358 0 1386 0 0 1405 1413 0 0 0 0 0 0 0 0 0 0 0 0 0 0 0 0 0 0 0 0 0 0 0 0 0 0 0 0 0 0 0 0 0 0 0 0 0 0 0 0 0 0 0 0 0 0 0 0 0 0 0 0 0 0 0 0 0 0 0 0 0 0 0 0 0 0 0 0 0 0 1846 1770 1738 1740 1701 1694 1632 1684 0 0 0 0 0 0 0 0 0
0 0 0 0 1270 1277 1277 1298 1301 1331 1332 1324 1347 1378 1361 1357 1389 1405 1402 1419 0 0 0 0 0 0 0 0 0 0 0 1434 1408 1406 0 0 0 0 0 0 0 0 0 0 0 0 0 0 0 0 0 0 0 0 0 0 0 0 0 0 0 0 0 0 0 0 0 0 0 0 0 0 0 0 0 0 0 0 0 0 0 0 0 0 0 0 0 0 0 0 0 0 0 0 0 0 0 0 0 0 0 0 0 1795 1762 1720 1640 1680 1633 1663 0 0 0 0 0 0 0 0 0 0
0 0 0 0 0 0 0 0 0 1304 1326 1364 1346 1364 1365 1391 1379 1425 1439 1456 1453 1467 0 0 0 0 0 0 0 0 0 1426 1475 1462 0 0 0 0 0 0 0 0 0 0 0 0 0 0 0 0 0 0 0 0 0 0 0 0 0 0 0 0 0 0 0 0 0 0 0 0 0 0 0 0 0 0 0 0 0 0 0 0 0 0 0 0 0 0 0 0 0 0 0 0 0 0 0 0 0 0 0 0 0 1697 1626 1635 1582 1628 1596 1579 1592 1598 1608 1608 0 0 0 0 0 0
0 0 0 0 0 0 0 0 0 0 0 0 0 0 0 1391 1448 1415 1463 1468 1477 1488 0 0 0 0 0 0 0 0 0 0 1533 0 0 0 0 0 0 0 0 0 0 0 0 0 0 0 0 0 0 0 0 0 0 0 0 0 0 0 0 0 0 0 0 0 0 0 0 0 0 0 0 0 0 0 0 0 0 0 0 0 0 0 0 0 0 0 0 0 0 0 0 0 0 0 0 0 0 0 1667 1650 1614 1638 1620 1613 1598 1631 1618 1569 1596 1586 1584 0 0 0 0 0 0 0
0 0 0 0 0 0 0 0 0 0 0 0 0 0 0 0 0 0 0 0 0 1513 0 0 0 0 0 0 0 0 0 0 0 0 0 0 0 0 0 0 0 0 0 0 0 0 0 0 0 0 0 0 0 0 0 0 0 0 0 0 0 0 0 0 0 0 0 0 0 0 0 0 0 0 0 0 0 0 0 0 0 0 0 0 0 0 0 0 0 0 0 0 0 0 0 0 0 0 0 1651 1616 1611 1633 1616 1619 1637 1622 1617 1608 1589 1622 0 0 0 0 0 0 0 0 0
0 0 0 0 0 0 0 0 0 0 0 0 0 0 0 0 0 0 0 0 0 0 0 0 0 0 0 0 0 0 0 0 0 0 0 0 0 0 0 0 0 0 0 0 0 0 0 0 0 0 0 0 0 0 0 0 0 0 0 0 0 0 0 0 0 0 0 0 0 0 0 0 0 0 0 0 0 0 0 0 0 0 0 0 0 0 0 0 0 0 0 0 0 0 0 0 0 0 0 1640 1656 1639 1618 1618 1635 1613 1620 1639 1600 1597 0 0 0 0 0 0 0 0 0 0
0 0 0 0 0 0 0 0 0 0 0 0 0 0 0 0 0 0 0 0 0 0 0 0 0 0 0 0 0 0 0 0 0 0 0 0 0 0 0 0 0 0 0 0 0 0 0 0 0 0 0 0 0 0 0 0 0 0 0 0 0 0 0 0 0 0 0 0 0 0 0 0 0 0 0 0 0 0 0 0 0 0 0 0 0 0 0 0 0 0 0 0 0 0 0 0 0 0 0 0 0 0 1617 1632 1617 1589 1600 1597 0 0 0 0 0 0 0 0 0 0 0 0
0 0 0 0 0 0 0 0 0 0 0 0 0 0 0 0 0 0 0 0 0 0 0 0 0 0 0 0 0 0 0 0 0 0 0 0 0 0 0 0 0 0 0 0 0 0 0 0 0 0 0 0 0 0 0 0 0 0 0 0 0 0 0 0 0 0 0 0 0 0 0 0 0 0 0 0 0 0 0 0 0 0 0 0 0 0 0 0 0 0 0 0 0 0 0 0 0 0 0 0 0 0 0 0 0 0 0 0 0 0 0 0 0 0 0 0 0 0 0 0
554 608 0 0 0 0 0 0 0 0 0 0 0 0 0 0 0 0 0 0 0 0 0 0 0 1810 1868 0 0 0 0 0 0 0 0 0 0 0 0 0 0 0 0 0 0 0 0 2902 0 2916 2958 2948 2915 2936 2918 0 2890 2980 2964 2894 0 2907 2886 2910 2900 2948 0 0 0 0 0 0 0 0 0 0 0 0 0 0 0 0 0 0 0 0 0 0 0 0 0 0 0 0 0 0 0 0 0 0 0 0 0 0 0 0 0 0 0 0 0 0 0 0 0 0 0 0 0 0
580 565 592 580 617 605 0 0 0 0 0 0 0 0 0 0 0 0 0 0 0 0 0 0 0 0 0 1889 1937 0 0 0 0 0 0 0 0 0 0 0 0 0 0 0 0 0 0 2930 2941 2896 2920 2910 2917 2965 2901 2895 2895 2928 2931 2913 2937 2902 2870 2897 2919 2938 0 0 0 0 0 0 0 0 0 0 0 0 0 0 0 0 0 0 0 0 0 0 0 0 0 0 0 0 0 0 0 0 0 0 0 0 0 0 0 0 0 0 0 0 0 0 0 0 0 0 0 0 0 0
560 564 610 596 619 618 621 659 711 0 0 0 0 0 0 0 0 0 0 0 0 0 0 0 0 0 0 0 0 0 0 0 0 0 0 0 0 0 0 0 0 0 0 0 0 0 0 2916 2930 2899 2891 2906 2921 2872 2911 2851 2934 2969 2947 2916 2883 2892 2901 2943 2892 0 0 0 0 0 0 0 0 0 0 0 0 0 0 0 0 0 0 0 0 0 0 0 0 0 0 0 0 0 0 0 0 0 0 0 0 0 0 0 0 0 0 0 0 0 0 0 0 0 0 0 0 0 0 0
582 613 593 602 631 635 630 658 666 652 693 742 0 0 0 0 0 0 0 0 0 0 0 0 0 0 0 0 0 0 0 0 0 0 0 0 0 0 0 0 0 0 0 0 0 0 0 2918 2884 2914 2891 2880 2927 2904 2859 2889 2898 2905 2894 2868 2861 2905 2880 2835 2858 2873 0 0 0 0 0 0 0 0 0 0 0 0 0 0 0 0 0 0 0 0 0 0 0 0 0 0 0 0 0 0 0 0 0 0 0 0 0 0 0 0 0 0 0 0 0 0 0 0 0 0 0 0 0 0
587 574 585 628 625 615 637 646 660 653 662 701 720 706 754 0 0 0 0 0 0 0 0 0 0 0 0 0 0 0 0 0 0 0 0 0 0 0 0 0 0 0 0 0 0 0 0 2901 2950 2905 2929 2900 2935 2897 2979 2898 2859 2921 2907 2916 2941 2913 2914 2891 2880 2894 0 0 0 0 0 0 0 0 0 0 0 0 0 0 0 0 0 0 0 0 0 0 0 0 0 0 0 0 0 0 0 0 0 0 0 0 0 0 0 0 0 0 0 0 0 0 0 0 0 0 0 0 0 0
752 775 793 780 703 688 675 669 686 662 692 707 726 753 745 769 792 818 0 0 0 0 0 0 0 0 0 0 0 0 0 0 0 0 0 0 0 0 0 0 0 0 0 0 0 0 0 2896 2907 2908 2896 2851 2878 2892 2879 2898 2900 2868 2838 2873 2879 2909 2874 2815 2859 2833 0 0 0 0 0 0 0 0 0 0 0 0 0 0 0 0 0 0 0 0 0 0 0 0 0 0 0 0 0 0 0 0 0 0 0 0 0 0 0 0 0 0 0 0 0 0 0 0 0 0 0 0 0 0
797 821 806 823 850 845 841 868 831 803 757 726 723 735 740 736 767 772 805 825 821 0 0 0 0 0 0 0 0 0 0 0 0 0 0 0 0 0 0 0 0 0 0 0 0 0 0 2939 2948 2926 2906 2905 2871 2921 2924 2922 2898 2913 2925 2912 2887 2881 2946 2917 2860 2877 0 0 0 0 0 0 0 0 0 0 0 0 0 0 0 0 0 0 0 0 0 0 0 0 0 0 0 0 0 0 0 0 0 0 0 0 0 0 0 0 0 0 0 0 0 0 0 0 0 0 0 0 0 0
760 809 819 817 828 845 857 852 877 908 903 908 923 892 842 818 768 780 814 796 821 863 875 846 0 0 0 0 0 0 0 0 0 0 0 0 0 0 0 0 0 0 0 0 0 0 0 2930 2934 2950 2927 2897 2908 2900 2954 2879 2950 2908 2907 2872 2868 2892 2896 2926 2923 2907 0 0 0 0 0 0 0 0 0 0 0 0 0 0 0 0 0 0 0 0 0 0 0 0 0 0 0 0 0 0 0 0 0 0 0 0 0 0 0 0 0 0 0 0 0 0 0 0 0 0 0 0 0 0
611 0 795 824 837 852 848 872 903 911 933 931 935 946 941 954 943 908 908 836 837 826 842 877 883 938 0 0 0 0 0 0 0 0 0 0 0 0 0 0 0 0 0 0 0 0 0 2877 2934 2933 2905 2884 2955 2890 2939 2909 2897 2915 2869 2929 2905 2877 2911 2889 2890 2847 0 0 0 0 0 0 0 0 0 0 0 0 0 0 0 0 0 0 0 0 0 0 0 0 0 0 0 0 0 0 0 0 0 0 0 0 0 0 0 0 0 0 0 0 0 0 0 0 0 0 0 0 0 0
641 917 935 929 933 922 880 918 902 894 929 949 943 946 944 948 953 950 949 949 946 917 901 887 895 913 928 990 996 0 0 0 0 0 0 0 0 0 0 0 0 0 0 0 0 0 0 2909 2907 2926 2900 2892 2899 2938 2892 2916 2883 2903 2895 2859 2868 2902 2874 2904 2874 2871 0 0 0 0 0 0 0 0 0 0 0 0 0 0 0 0 0 0 0 0 0 0 0 0 0 0 0 0 0 0 0 0 0 0 0 0 0 0 0 0 0 0 0 0 0 0 0 0 0 0 0 0 0 0
639 727 0 0 0 0 0 0 0 0 973 978 988 955 972 964 978 933 954 940 945 944 938 929 957 920 970 989 988 1030 0 0 0 0 0 0 0 0 0 0 0 0 0 0 0 0 0 2900 2897 2934 2935 2965 2932 2930 0 2916 2869 2901 2922 2865 2890 2913 2856 2874 2885 2868 0 0 0 0 0 0 0 0 0 0 0 0 0 0 0 0 0 0 0 0 0 0 0 0 0 0 0 0 0 0 0 0 0 0 0 0 0 0 0 0 0 0 0 0 0 0 0 0 0 0 0 0 0 0
608 657 630 0 1120 1148 1160 1165 1154 1158 1154 1146 1157 1142 1151 1138 1131 1054 0 0 1019 1074 1057 983 1000 1043 1138 1152 1115 1124 1138 0 0 0 0 0 0 0 0 0 0 0 0 0 0 0 0 2894 2906 2897 2883 2887 2873 2853 2934 2859 2892 2880 2871 2842 2845 2858 2880 2880 2865 2854 0 0 0 0 0 0 0 0 0 0 0 0 0 0 0 0 0 0 0 0 0 0 0 0 0 0 0 0 0 0 0 0 0 0 0 0 0 0 0 0 0 0 0 0 0 0 0 0 0 0 0 0 0 0
588 611 587 641 0 0 0 0 0 0 0 0 0 0 0 0 1400 1012 0 0 0 1198 1112 1028 0 1146 1156 1166 1149 1147 1171 0 0 0 0 0 0 0 0 0 0 0 0 0 0 0 0 2867 2890 2887 2859 2924 2858 2903 2893 2872 2892 2860 2887 2863 2896 2872 2884 2880 2884 2879 0 0 0 0 0 0 0 0 0 0 0 0 0 0 0 0 0 0 0 0 0 0 0 0 0 0 0 0 0 0 0 0 0 0 0 0 0 0 0 0 0 0 0 0 0 0 0 0 0 0 0 0 0 0
605 599 591 622 588 0 0 0 0 0 0 0 0 0 0 0 0 990 982 0 0 0 0 977 0 0 0 0 0 0 0 0 0 0 0 0 0 0 0 0 0 0 0 0 0 0 0 2884 2878 2882 2873 2842 2904 2851 2932 2924 2898 2918 2905 2897 2884 2870 2868 2861 2905 0 0 0 0 0 0 0 0 0 0 0 0 0 0 0 0 0 0 0 0 0 0 0 0 0 0 0 0 0 0 0 0 0 0 0 0 0 0 0 0 0 0 0 0 0 0 0 0 0 0 0 0 0 0 0
574 616 591 610 646 649 0 0 0 0 0 0 0 0 0 0 0 0 0 0 0 0 0 0 0 0 0 0 0 0 0 0 0 0 0 0 0 0 0 0 0 0 0 0 0 0 0 2884 2889 2889 2904 2918 2933 2902 2903 2904 2949 2938 2852 2936 2895 2863 2882 2866 2830 0 0 0 0 0 0 0 0 0 0 0 0 0 0 0 0 0 0 0 0 0 0 0 0 0 0 0 0 0 0 0 0 0 0 0 0 0 0 0 0 0 0 0 0 0 0 0 0 0 0 0 0 0 0 0
590 574 578 609 595 596 0 0 0 0 0 0 0 0 0 0 0 0 0 0 0 0 920 0 0 0 0 0 0 0 0 0 0 0 0 0 0 0 0 0 0 0 0 0 0 0 0 0 2920 2936 2956 2942 2970 2936 2922 2974 2904 2942 2935 2898 2895 2898 2910 2940 2881 0 0 0 0 0 0 0 0 0 0 0 0 0 0 0 0 0 0 0 0 0 0 0 0 0 0 0 0 0 0 0 0 0 0 0 0 0 0 0 0 0 0 0 0 0 0 0 0 0 0 0 0 0 0 0
583 569 590 610 608 597 0 0 0 0 0 0 0 0 0 0 0 0 0 0 0 0 942 0 0 0 0 0 0 0 0 0 0 0 0 0 0 0 0 0 0 0 0 0 0 0 0 2929 2970 2951 2910 2860 2936 2940 2920 2897 2941 2920 2903 2876 2873 2846 2891 2874 2845 0 0 0 0 0 0 0 0 0 0 0 0 0 0 0 0 0 0 0 0 0 0 0 0 0 0 0 0 0 0 0 0 0 0 0 0 0 0 0 0 0 0 0 0 0 0 0 0 0 0 0 0 0 0 0
586 599 584 581 591 625 608 0 0 0 0 0 0 0 0 0 0 0 0 0 0 0 0 0 0 0 0 0 0 0 0 0 0 0 0 0 0 0 0 0 0 0 0 0 0 0 0 2881 2963 2922 2928 2967 2936 2932 2883 2907 2958 2927 2911 2938 2885 2903 2910 2887 2906 0 0 0 0 0 0 0 0 0 0 0 0 0 0 0 0 0 0 0 0 0 0 0 0 0 0 0 0 0 0 0 0 0 0 0 0 0 0 0 0 0 0 0 0 0 0 0 0 0 0 0 0 0 0 0
592 579 605 598 600 598 584 0 0 0 0 0 0 0 0 0 2285 0 0 0 0 0 969 928 0 0 0 0 0 0 0 0 0 0 0 0 0 0 0 0 0 0 0 0 0 0 0 2959 2882 2898 2924 2942 2909 2915 2919 2888 2907 2897 2896 2889 2857 2916 2867 2884 2876 2887 0 0 0 0 0 0 0 0 0 0 0 0 0 0 0 0 0 0 0 0 0 0 0 0 0 0 0 0 0 0 0 0 0 0 0 0 0 0 0 0 0 0 0 0 0 0 0 0 0 0 0 0 0 0
606 581 591 623 629 631 627 0 0 0 0 0 0 0 0 0 0 0 0 0 0 0 0 0 0 0 0 0 0 0 0 0 0 0 0 0 0 0 0 0 0 0 0 0 0 0 0 2892 2859 2863 2894 2854 2892 2904 2925 2887 2872 2875 2895 2860 2863 2888 2895 2868 2873 2847 0 0 0 0 0 0 0 0 0 0 0 0 0 0 0 0 0 0 0 0 0 0 0 0 0 0 0 0 0 0 0 0 0 0 0 0 0 0 0 0 0 0 0 0 0 0 0 0 0 0 0 0 0 0
605 581 609 625 615 630 0 0 0 0 0 0 0 0 0 0 0 0 0 0 0 0 0 0 0 0 0 0 0 0 0 0 0 0 0 0 0 0 0 0 0 0 0 0 0 0 0 0 0 0 0 0 0 0 0 0 0 0 0 0 0 2883 3031 2895 2907 0 0 0 0 0 0 0 0 0 0 0 0 0 0 0 0 0 0 0 0 0 0 0 0 0 0 0 0 0 0 0 0 0 0 0 0 0 0 0 0 0 0 0 0 0 0 0 0 0 0 0 0 0 0 0
591 627 646 595 599 640 0 0 0 0 0 0 0 0 0 0 0 0 0 0 0 0 0 0 0 0 0 0 0 0 0 0 0 0 0 0 0 0 0 0 0 0 0 0 0 0 0 0 0 0 0 0 0 0 0 0 0 0 0 0 0 0 0 0 0 0 0 0 0 0 0 0 0 0 0 0 0 0 0 0 0 0 0 0 0 0 0 0 0 0 0 0 0 0 0 0 0 0 0 0 0 0 0 0 0 0 0 0 0 0 0 0 0 0 0 0 0 0 0 0
600 630 603 595 581 565 0 0 0 0 0 0 0 0 0 0 0 0 0 0 0 0 0 0 0 0 0 0 0 0 0 0 0 0 0 0 0 0 0 0 0 0 0 0 0 0 0 0 0 0 0 0 0 0 0 0 0 0 0 0 0 0 0 0 0 0 0 0 0 0 0 0 0 0 0 0 0 0 0 0 0 0 0 0 0 0 0 0 0 0 0 0 0 0 0 0 0 0 0 0 0 0 0 0 0 0 0 0 0 0 0 0 0 0 0 0 0 0 0 0
578 571 603 558 571 0 0 0 0 0 0 0 0 0 0 0 0 0 0 0 0 0 0 0 0 0 0 0 0 0 0 0 0 0 0 0 0 0 0 0 0 0 0 0 0 0 0 0 0 0 0 0 0 0 0 0 0 0 0 0 0 0 0 0 0 0 0 0 0 0 0 0 0 0 0 0 0 0 0 0 0 0 0 0 0 0 0 0 0 0 0 0 0 0 0 0 0 0 0 0 0 0 0 0 0 0 0 0 0 0 0 0 0 0 0 0 0 0 0 0
589 610 633 596 0 0 0 0 0 0 0 0 0 0 0 0 0 0 0 0 0 0 0 0 0 0 828 888 882 866 893 809 899 912 880 877 901 880 893 939 0 924 883 0 0 0 0 0 0 0 0 0 0 0 0 0 0 0 0 0 0 0 0 0 0 0 0 0 0 0 0 0 0 0 0 0 0 0 0 0 0 0 0 0 0 0 0 0 0 0 0 0 0 0 0 0 0 0 0 0 0 0 0 0 0 0 0 0 0 0 0 0 0 0 0 0 0 0 0 0
571 582 608 0 0 656 642 649 649 688 696 657 722 682 648 662 736 657 700 672 707 649 679 697 680 682 693 725 702 669 691 723 675 701 693 717 723 748 745 725 726 721 729 729 762 769 784 698 748 749 741 803 752 755 768 737 738 772 754 741 743 780 760 726 780 718 771 771 761 735 764 743 779 0 0 0 0 0 0 0 0 0 0 0 0 0 0 0 0 0 0 0 0 0 0 0 0 0 0 0 0 0 0 0 0 0 0 0 0 0 0 0 0 0 0 0 0 0 0 0
549 527 572 548 543 577 545 534 574 559 571 599 561 583 560 572 624 564 587 558 555 585 579 581 607 592 576 626 605 588 616 602 609 599 556 579 629 615 617 587 635 573 586 617 614 646 640 605 624 624 646 645 625 665 661 635 623 626 644 621 621 633 634 639 632 646 634 650 633 632 712 633 655 679 660 627 657 649 680 697 674 694 629 673 667 697 679 695 631 699 639 677 687 681 0 670 698 663 711 673 694 694 0 0 0 0 0 0 0 0 0 0 0 0 0 0 0 0 0 0
492 529 486 479 514 481 513 506 496 511 512 517 514 519 494 513 508 516 517 543 510 502 524 524 538 510 488 501 526 517 496 514 530 521 506 507 548 515 519 519 528 546 529 546 548 543 536 513 527 547 546 548 540 529 538 565 518 522 549 533 550 543 546 552 543 554 541 572 561 541 562 545 571 559 542 582 548 591 567 552 546 585 600 543 554 572 564 607 562 582 567 581 557 588 601 632 608 588 605 627 627 629 647 627 0 659 0 602 615 608 0 0 0 0 0 0 0 0 0 0
430 440 426 464 422 422 417 441 436 455 433 442 452 452 451 446 442 414 450 453 458 447 455 460 452 460 468 441 456 460 459 453 465 452 465 479 464 452 463 476 467 458 478 466 484 468 483 476 489 449 486 462 469 470 473 476 477 482 473 487 473 470 485 478 466 495 483 499 480 477 492 482 515 486 473 479 489 495 471 476 477 491 494 495 521 505 502 496 493 499 489 487 492 472 492 509 523 505 510 481 490 540 499 509 528 532 527 485 527 504 491 520 0 0 0 0 0 0 0 0
397 411 393 404 395 386 401 408 390 379 398 387 392 402 407 408 412 396 398 407 408 410 409 414 422 417 408 416 417 426 397 422 418 419 437 405 419 427 415 420 410 414 412 420 417 410 415 420 430 427 437 445 425 423 435 417 416 423 418 434 424 441 413 431 425 427 436 441 435 437 429 423 422 426 435 412 431 427 423 435 436 435 432 438 450 442 440 434 435 445 444 447 434 447 437 444 447 451 448 453 442 446 445 450 434 470 457 451 442 471 454 431 444 457 0 0 0 0 0 0
349 346 351 355 352 362 366 358 348 347 364 355 360 365 358 373 358 365 365 362 358 362 371 376 366 368 382 365 358 361 372 380 364 378 380 370 383 381 374 372 366 372 364 377 365 369 380 372 397 369 390 381 367 378 373 381 377 394 373 387 384 383 395 387 383 393 390 388 394 378 386 391 408 393 393 404 389 398 388 406 402 385 391 378 393 391 387 387 385 373 401 393 390 390 385 406 396 397 401 404 382 411 369 391 390 402 400 407 386 397 384 374 378 396 392 435 0 0 0 0
314 327 316 318 305 307 322 338 322 314 320 325 344 328 346 358 333 337 319 334 340 340 319 344 326 342 332 335 334 339 337 319 336 340 336 343 333 338 331 336 330 342 341 349 339 338 331 342 344 348 334 341 339 334 338 347 342 340 335 350 349 350 345 342 341 348 341 353 342 345 360 352 357 352 356 350 349 344 345 348 344 350 345 344 345 353 343 351 353 354 357 347 358 337 348 343 348 331 349 351 350 364 364 350 333 354 359 350 369 355 349 371 343 369 331 353 325 0 0 0
290 278 286 289 299 287 308 299 294 303 292 304 301 293 300 298 301 299 304 304 305 304 307 299 296 309 289 307 288 313 286 303 294 306 300 307 310 308 304 302 299 302 303 306 302 300 302 314 299 313 302 318 308 311 312 312 315 309 308 307 312 307 315 318 315 319 310 306 323 309 304 323 319 313 317 315 316 311 318 318 317 319 317 318 312 317 325 320 317 313 313 314 312 316 317 325 312 339 314 339 324 328 326 339 343 326 303 313 337 338 326 309 327 305 302 294 357 301 332 0
277 272 268 261 268 275 270 274 270 291 276 277 278 281 273 283 273 274 273 287 277 271 275 275 280 275 283 278 282 277 268 281 287 272 276 278 281 280 279 276 275 281 285 281 279 289 276 282 278 290 288 285 282 279 280 290 287 282 284 286 276 284 285 293 291 289 287 287 289 293 283 285 285 286 292 279 282 280 300 289 292 278 288 295 289 294 287 294 293 295 285 293 292 289 297 304 284 284 290 294 300 295 285 284 294 296 279 299 301 278 284 298 277 300 288 265 247 253 278 310
254 247 257 257 246 257 246 258 256 255 245 257 259 249 257 251 255 260 253 260 264 261 260 251 253 257 249 260 253 257 255 261 261 259 257 262 258 268 271 267 261 260 268 271 268 272 265 257 267 263 265 265 263 268 269 261 265 262 253 260 266 269 267 273 266 261 268 264 273 265 261 262 274 274 264 266 266 268 265 258 264 270 256 272 270 268 270 263 265 264 263 265 275 266 264 272 265 274 275 274 271 257 280 267 271 286 278 279 271 264 266 272 271 276 283 273 287 272 276 243
236 237 234 239 241 232 241 231 240 234 234 235 242 243 243 240 240 235 242 238 238 254 245 242 239 239 238 245 247 242 243 244 243 249 245 245 242 247 253 246 255 248 244 246 248 249 250 246 243 252 253 250 248 250 246 248 249 245 252 251 252 255 249 249 251 254 250 248 251 256 249 249 252 258 251 253 252 251 251 255 262 246 255 248 254 256 250 247 254 249 252 253 254 255 248 256 251 259 248 253 249 251 264 246 262 249 262 255 253 259 252 255 286 258 246 242 268 282 270 243
210 213 220 215 221 224 227 222 225 216 221 231 231 229 214 224 225 223 225 226 221 225 228 233 226 227 223 227 224 224 231 230 228 229 230 233 229 233 227 232 227 233 237 226 235 233 226 238 239 233 232 237 229 233 227 231 230 230 232 237 235 240 236 228 242 232 231 235 231 236 235 234 229 234 225 241 224 233 231 232 235 230 232 233 235 234 243 234 230 231 232 229 231 235 236 234 233 242 239 247 237 232 238 236 241 238 236 236 239 239 245 249 236 255 247 234 231 242 222 256
205 205 218 219 218 198 214 206 206 212 209 212 210 220 213 214 209 210 206 220 215 209 212 209 210 213 213 214 212 217 216 214 214 210 214 218 217 218 215 202 215 223 217 219 220 215 222 218 219 217 218 222 205 205 207 221 223 217 226 220 218 219 223 227 226 224 224 226 205 220 221 225 223 216 203 225 222 220 225 217 218 226 221 229 222 220 226 219 222 219 221 222 227 227 221 225 230 222 227 221 219 213 223 228 223 223 217 213 217 229 221 220 226 235 215 234 213 235 203 233
193 197 196 200 208 200 187 188 186 180 186 200 188 206 189 189 193 190 194 189 206 193 194 206 185 188 184 191 184 192 187 186 192 186 203 197 193 197 191 192 196 188 188 189 198 201 194 191 199 193 192 198 195 194 193 201 197 192 199 196 195 194 200 197 201 199 201 201 201 201 193 198 201 193 191 192 201 193 194 194 188 194 198 194 217 197 198 188 196 213 193 199 192 193 192 188 195 211 211 193 204 218 208 209 214 208 215 205 208 206 202 209 212 220 213 205 210 212 181 207
174 177 191 178 191 174 179 179 179 178 184 175 181 187 182 182 186 185 189 187 188 185 183 186 187 193 188 191 183 194 193 184 194 186 196 192 194 194 191 192 194 195 188 192 199 195 190 193 198 195 196 197 193 196 191 201 199 194 197 200 200 201 196 195 198 193 195 198 200 196 199 195 196 200 191 196 199 197 195 195 193 193 187 195 186 185 195 187 193 189 191 182 191 192 191 192 181 188 191 183 191 182 177 186 187 176 180 183 179 182 178 183 188 180 181 186 176 174 172 196
177 168 176 176 172 181 176 181 181 180 184 174 179 185 184 179 183 185 180 186 186 185 182 185 181 185 184 188 184 192 188 182 188 184 187 186 185 183 186 183 184 178 191 190 189 185 190 192 192 184 191 191 191 184 187 188 194 192 181 190 187 186 186 194 194 191 187 191 193 192 192 188 187 193 185 185 191 191 184 186 192 193 186 189 185 196 191 185 186 191 182 181 186 182 181 187 188 188 187 179 182 185 186 178 180 175 184 178 173 181 183 178 181 182 180 178 176 171 181 174
167 163 161 168 166 165 165 171 165 166 171 169 171 170 174 175 171 177 178 180 173 173 174 171 174 171 181 174 173 178 179 177 178 179 172 173 178 172 174 178 174 175 183 175 174 180 180 185 182 184 182 185 176 180 179 179 176 177 174 178 175 175 179 181 182 178 176 182 177 175 178 180 171 179 181 174 179 185 181 176 184 184 184 171 174 175 175 182 179 184 177 180 177 174 181 176 179 179 180 178 176 180 184 172 173 184 175 174 173 174 174 171 174 167 178 166 177 175 171 164
163 163 166 162 161 164 158 164 163 168 169 167 164 169 167 166 169 171 172 170 171 161 167 167 172 168 170 171 171 166 174 174 169 169 167 164 172 165 169 172 164 175 177 167 172 175 169 175 175 172 176 172 177 172 172 171 172 176 173 173 170 175 174 169 173 174 169 171 170 173 172 174 174 170 169 177 174 174 174 171 170 175 169 169 168 177 177 172 175 170 170 175 167 174 173 171 172 170 171 174 175 166 168 167 180 170 179 167 172 165 172 176 174 171 167 170 173 171 159 173
158 157 162 167 161 166 163 157 158 163 160 159 156 157 161 167 161 172 167 168 159 161 169 164 162 161 165 160 162 163 160 170 162 167 159 158 160 164 159 162 162 162 163 165 165 164 164 159 159 164 162 168 165 167 168 163 163 165 164 172 162 169 162 167 162 167 161 167 168 167 163 160 162 164 161 168 172 167 167 161 157 163 165 170 163 163 165 165 167 171 162 160 166 161 168 163 161 163 166 167 169 166 160 164 159 163 172 162 161 163 165 168 163 172 173 162 158 172 159 169
147 147 153 150 150 146 149 151 156 155 148 148 153 148 150 155 151 163 148 160 155 154 159 155 156 156 150 153 165 161 156 157 157 157 152 155 150 158 150 156 158 152 161 159 157 151 158 163 156 160 159 159 160 163 158 157 156 159 162 157 159 155 160 161 154 155 156 155 156 155 159 160 156 154 158 165 167 157 160 149 155 157 162 154 153 159 158 154 161 161 157 159 156 160 154 155 155 155 157 157 157 160 154 151 162 151 149 149 153 155 148 160 150 159 151 152 163 152 161 149
139 141 149 145 149 143 141 147 143 142 146 147 143 145 151 147 145 154 146 151 155 149 153 157 150 153 151 150 148 150 153 148 143 143 147 146 149 152 147 152 152 152 150 154 151 149 149 149 146 150 150 151 147 150 155 147 151 156 154 158 155 150 153 155 152 154 150 156 151 158 151 156 155 154 154 150 157 156 154 152 152 154 147 144 152 145 153 150 154 151 151 154 156 150 152 149 147 152 157 159 152 155 157 156 147 151 147 150 154 153 155 152 157 153 157 154 154 163 165 148
135 136 137 138 137 137 135 143 141 140 142 144 141 139 135 139 142 139 141 148 142 143 141 144 146 142 148 145 143 147 138 130 145 144 139 145 131 146 145 144 147 146 150 148 147 148 141 145 144 149 146 143 145 142 144 133 143 146 149 145 144 146 142 145 146 144 147 149 146 148 145 148 143 144 146 148 153 149 155 148 141 147 143 142 142 141 148 146 145 143 146 148 150 147 147 153 144 142 151 151 148 146 147 141 140 143 140 139 142 146 137 147 140 139 144 150 145 138 154 137
128 135 134 130 133 140 136 142 139 133 139 0 133 137 133 138 138 141 140 140 144 141 140 140 141 146 145 138 139 129 129 129 131 138 142 130 140 131 139 129 131 142 142 143 140 143 132 130 128 123 140 132 132 142 137 147 144 132 132 127 133 130 131 144 135 141 141 143 134 140 131 131 130 140 144 141 146 144 142 145 147 138 129 139 132 145 139 137 139 141 137 138 142 143 139 140 141 138 138 139 141 140 139 144 139 134 131 133 147 143 131 135 127 131 131 129 127 131 134 115
133 130 126 134 138 139 143 137 138 143 135 134 142 137 137 125 129 139 135 122 141 140 141 136 142 136 132 137 136 124 125 124 138 125 130 128 126 130 127 127 140 139 130 139 0 141 128 131 128 124 127 129 131 132 0 141 0 128 130 131 133 129 135 135 140 126 141 131 142 127 128 127 130 126 133 127 128 130 128 124 136 132 126 141 128 126 127 125 130 146 134 129 137 134 128 126 139 142 143 142 136 123 126 121 127 130 129 133 133 132 138 137 140 136 135 140 133 144 126 130
116 103 125 106 123 129 136 122 112 114 124 119 118 132 124 120 122 133 123 118 122 127 127 134 124 138 137 138 0 128 124 128 118 125 122 119 126 126 125 121 127 129 128 127 0 0 128 121 128 118 124 121 122 124 126 128 130 126 127 120 129 120 128 129 125 128 128 132 122 131 124 118 122 124 122 123 120 126 120 125 127 128 125 123 121 126 118 125 129 129 119 125 128 119 122 122 125 135 133 128 121 115 115 116 117 116 120 122 119 117 129 133 123 133 97 134 127 126 132 89
110 120 109 112 113 121 121 118 127 112 118 117 118 121 119 112 113 118 124 117 120 124 125 134 123 123 137 127 123 131 126 0 122 123 119 110 122 123 0 122 133 124 0 0 0 0 124 128 123 121 123 121 126 121 128 132 118 123 121 119 125 124 117 124 122 126 128 125 124 118 124 117 128 117 117 115 122 125 128 124 120 119 122 123 117 120 122 121 124 122 116 121 117 123 124 119 125 124 126 123 122 118 121 120 109 121 117 115 129 135 129 130 132 132 126 129 133 109 94 138
105 101 113 115 114 115 112 116 111 112 119 113 111 113 116 113 115 115 114 118 114 109 111 123 120 114 121 119 117 121 124 0 118 119 115 115 114 0 117 122 120 0 0 124 125 0 120 117 113 117 118 116 119 116 120 122 118 121 114 118 118 123 121 121 123 122 119 119 118 115 112 117 112 118 117 119 110 110 116 120 112 114 119 118 116 112 122 119 117 122 120 118 120 114 109 120 125 118 113 119 114 123 113 113 113 114 113 113 109 115 125 123 109 119 117 133 126 107 95 150
96 106 107 102 94 97 118 109 103 113 109 105 109 112 122 117 113 112 107 106 114 102 115 101 116 113 114 117 118 117 119 116 109 109 112 108 108 115 0 112 113 115 110 109 112 113 114 0 117 0 111 111 120 117 0 0 108 112 116 111 123 115 107 113 110 107 109 111 115 109 111 108 110 107 106 107 108 106 110 113 111 105 108 110 110 110 109 107 106 114 107 104 101 119 114 118 109 114 109 109 106 112 117 105 106 115 99 107 103 116 100 107 99 106 95 113 97 112 107 84
107 108 114 108 109 101 110 109 108 112 112 107 105 109 117 118 110 113 113 98 108 101 101 108 113 106 107 113 105 118 113 107 108 110 114 112 111 0 106 109 110 108 108 99 113 109 109 107 117 0 110 109 110 110 111 111 106 109 114 104 107 111 113 0 116 110 111 114 110 110 105 104 105 115 102 103 104 101 105 112 109 101 110 110 96 105 104 111 105 99 104 107 105 100 97 107 109 104 111 106 107 115 112 116 108 99 106 106 98 113 106 103 114 119 129 111 100 131 115 153
90 81 106 106 98 92 97 99 92 94 106 97 95 102 101 100 96 108 107 96 99 97 90 101 101 104 106 98 101 105 105 106 103 100 109 97 104 107 107 105 102 101 95 99 98 101 106 101 105 101 102 100 107 109 99 106 99 103 104 103 102 106 105 0 110 105 0 110 104 105 101 101 101 106 101 106 96 102 0 98 0 103 96 99 91 100 96 98 95 104 102 104 95 93 96 95 94 101 100 98 101 104 103 100 95 93 94 94 95 96 93 97 88 105 92 101 101 108 86 127
86 95 83 96 93 96 97 94 94 94 95 98 96 98 98 98 93 95 98 95 97 90 89 95 93 96 102 101 99 96 106 101 102 102 103 102 95 98 96 95 101 99 96 90 96 96 100 96 103 102 106 97 99 100 90 101 101 104 102 99 108 104 105 100 110 102 104 105 104 100 103 102 100 102 97 97 106 102 96 98 0 103 91 96 98 93 99 109 93 96 98 97 99 104 93 104 88 92 93 101 103 94 102 86 97 102 98 92 101 90 87 88 89 82 87 107 83 85 78 99
85 97 92 96 87 89 94 87 89 96 92 95 96 90 94 87 93 89 107 108 97 95 92 92 90 87 100 94 90 97 98 98 102 96 96 103 100 88 96 104 97 99 90 93 99 91 96 97 91 98 97 92 87 91 99 102 100 92 90 96 97 95 100 0 96 101 96 98 96 93 97 102 106 105 99 102 97 98 101 106 92 99 88 100 99 94 90 95 89 94 92 95 98 80 88 90 98 87 100 93 94 99 96 104 95 92 92 92 89 88 91 88 96 80 79 89 137 97 99 118
84 78 79 81 81 89 84 87 81 90 83 90 96 91 93 93 88 91 92 94 94 92 88 90 93 91 96 90 92 96 87 86 96 91 88 95 84 90 91 91 87 98 98 98 90 97 87 89 98 97 98 92 89 96 93 90 96 94 97 88 98 98 87 94 90 91 98 92 90 96 98 92 98 99 85 97 90 97 92 89 93 92 96 93 89 87 88 93 90 90 94 95 92 90 90 90 93 92 86 87 92 86 91 80 85 85 84 86 86 87 79 89 88 86 86 83 81 81 81 108
91 80 84 83 95 85 88 101 85 89 84 86 88 85 91 86 90 85 90 86 82 95 94 90 93 89 92 88 89 83 87 89 91 88 102 92 91 94 89 98 91 95 95 98 96 97 94 92 87 94 95 90 92 92 92 94 92 99 92 94 92 91 95 92 88 97 89 92 86 91 98 89 97 92 96 96 93 92 84 94 96 90 93 91 97 97 91 93 90 90 95 96 95 91 92 91 93 82 89 98 92 85 90 92 89 92 85 83 87 80 83 83 89 94 91 82 90 77 0 0
82 88 86 86 93 89 83 88 87 0 81 81 92 90 83 88 90 87 89 93 94 94 92 90 90 88 94 94 89 96 90 93 92 93 90 95 91 90 94 92 88 98 95 88 85 90 90 96 90 98 99 94 91 90 95 97 95 93 99 96 91 97 97 97 87 97 99 95 94 95 97 94 84 94 90 91 98 91 87 92 96 94 92 92 96 90 86 95 97 92 91 98 102 89 89 85 91 94 87 88 92 91 92 91 91 90 90 89 91 80 86 90 86 80 81 81 94 81 84 0
75 84 74 84 84 87 94 89 87 79 81 82 84 87 88 88 85 88 85 83 86 91 91 83 86 84 91 84 93 86 90 89 88 90 84 90 88 89 90 92 85 86 95 97 87 85 94 92 93 90 92 97 92 83 87 89 95 97 92 92 94 89 92 87 87 92 90 90 89 97 87 96 93 93 94 84 92 95 92 88 86 88 94 90 89 88 94 83 88 86 95 94 87 86 85 80 89 83 87 80 73 80 88 85 90 85 82 90 67 87 82 88 88 80 85 87 71 62 0 0
80 73 82 80 87 80 93 94 81 87 83 88 88 87 87 87 83 90 88 89 91 93 89 81 86 82 90 86 89 85 86 86 89 89 90 82 86 91 87 86 91 89 93 95 94 92 94 94 97 96 88 91 92 94 83 94 89 91 83 87 94 89 90 96 89 96 79 85 87 95 94 89 87 86 91 86 88 90 85 82 92 93 93 80 92 94 94 92 89 91 90 91 81 84 86 85 88 90 95 87 84 90 87 84 85 90 86 90 90 78 84 81 97 86 95 82 0 0 0 0
79 69 64 66 74 80 82 82 83 74 81 70 83 89 84 74 80 79 79 71 89 75 86 79 74 74 83 86 79 71 89 70 78 78 89 74 81 80 81 81 83 80 82 75 80 81 80 83 85 74 81 71 73 79 82 90 80 88 90 77 80 79 82 81 74 80 73 76 80 74 85 84 78 78 84 78 73 83 87 85 73 76 70 80 73 86 85 74 78 80 79 68 81 75 80 74 78 84 70 75 67 78 68 65 74 74 77 72 71 90 85 66 73 72 73 15 0 0 0 0
72 68 78 76 68 81 88 82 81 80 81 83 69 81 83 84 86 82 79 81 75 81 81 74 82 84 74 76 82 78 87 81 80 86 83 70 78 78 85 75 88 80 87 88 80 88 82 74 83 80 78 72 77 73 80 77 80 77 83 71 81 80 82 77 73 65 85 75 83 70 75 79 82 79 82 77 80 91 84 82 83 80 81 79 72 82 79 74 81 90 76 83 72 73 84 76 89 70 71 72 86 74 74 70 66 74 76 89 69 72 56 54 82 57 81 0 0 0 0 0
