0 0 0 0 0 0 0 0 0 0 0 0 0 0 0 0 0 0 0 0 0 0 0 0 0 0 0 0 0 0 0 0 0 0 0 0 0 0 0 0 0 0 0 0 0 0 0 0 0 0 0 0 0 0 0 0 0 0 0 0 0 0 0 0 0 0 0 0 0 0 0 0 0 0 0 0 0 0 0 0 0 0 0 0 0 0 0 0 0 0 0 0 0 0 0 0 0 0 0 0 0 0 0 0 0 0 0 0 0 0 0 0 0 0 0 0 0 0 0 0
0 0 0 0 0 0 0 0 0 0 0 0 0 0 0 0 0 0 0 0 0 0 0 0 0 0 0 0 0 0 0 0 0 0 0 0 0 0 0 0 0 0 0 0 0 0 0 0 0 0 0 0 0 0 0 0 0 0 0 0 0 0 0 0 0 0 0 0 0 0 0 0 0 0 0 0 0 0 0 0 0 0 0 0 0 0 0 0 0 0 0 0 0 0 0 0 0 0 0 0 0 0 0 0 0 0 0 0 0 0 0 0 0 0 0 0 0 0 0 0
0 0 0 0 0 0 0 0 0 0 0 0 0 0 0 0 1267 1282 0 0 0 0 1282 0 0 0 0 0 0 0 0 0 0 0 0 0 0 0 0 0 0 0 0 0 0 0 0 0 0 0 0 0 0 0 0 0 0 0 0 0 0 0 0 0 0 0 0 0 0 0 0 0 0 0 0 0 0 0 0 0 0 0 0 0 0 0 0 0 0 0 0 0 0 0 0 0 0 0 0 0 0 0 0 0 0 0 0 0 0 0 0 0 0 0 0 0 0 0 0 0
0 0 0 0 0 0 0 0 0 0 0 1108 1160 1194 0 0 1295 1308 0 0 0 1235 1271 0 0 0 0 0 0 0 0 0 0 0 0 0 0 0 0 0 0 0 0 0 0 0 0 0 0 0 0 0 0 0 0 0 0 0 0 0 0 0 0 0 0 0 0 0 0 0 0 0 0 0 0 0 0 0 0 0 0 0 0 0 0 0 0 0 0 0 0 0 0 0 0 0 0 0 0 0 0 0 0 0 0 0 0 0 0 0 0 0 0 0 0 0 0 0 0 0
0 0 0 0 0 0 0 0 1095 1164 1113 1128 1170 1186 1154 1193 1272 1267 1295 0 1276 1263 1264 0 0 0 0 0 0 0 0 0 0 0 0 0 0 0 0 0 0 0 0 0 0 0 0 0 0 0 0 0 0 0 0 0 0 0 0 0 0 0 0 0 0 0 0 0 0 0 0 0 0 0 0 0 0 0 0 0 0 0 0 0 0 0 0 0 0 0 0 0 0 0 0 0 0 0 0 0 0 0 0 0 0 0 0 0 0 0 0 0 0 0 0 0 0 0 0 0
0 0 0 0 0 0 0 1120 1117 1142 0 0 1133 1159 1170 1235 1293 1289 1282 1267 1262 1247 1275 1275 0 0 0 0 0 0 0 0 0 0 0 0 0 0 0 0 0 0 0 0 0 0 0 0 0 0 0 0 0 0 0 0 0 0 0 0 0 0 0 0 0 0 0 0 0 0 0 0 0 0 0 0 0 0 0 0 0 0 0 0 0 0 0 0 0 0 0 0 0 0 0 0 0 0 0 0 0 0 0 0 0 0 0 0 0 0 0 0 0 0 0 0 0 0 0 0
0 0 0 0 0 0 0 0 0 0 0 0 1227 1220 1277 1269 1281 1271 1258 1261 1268 1267 1260 1277 1299 0 0 0 0 0 0 1402 0 0 0 0 0 0 0 0 0 0 0 0 0 0 0 0 0 0 0 0 0 0 0 0 0 0 0 0 0 0 0 0 0 0 0 0 0 0 0 0 0 0 0 0 0 0 0 0 0 0 0 0 0 0 0 0 0 0 0 0 0 0 0 0 0 0 0 0 0 0 0 0 0 0 0 0 0 0 0 0 0 0 0 0 0 0 0 0
0 0 0 0 0 0 0 0 0 0 0 0 1233 1283 1296 1309 1307 1283 1276 1294 1277 1274 1263 1310 0 1340 1395 1348 1358 0 0 1422 0 0 0 0 0 0 0 0 0 0 0 0 0 0 0 0 0 0 0 0 0 0 0 0 0 0 0 0 0 0 0 0 0 0 0 0 0 0 0 0 0 0 0 0 0 0 0 0 0 0 0 0 0 0 0 0 0 0 0 0 0 0 0 0 0 0 0 0 0 0 0 0 0 0 0 0 0 0 0 0 0 0 0 0 0 0 0 0
0 0 0 0 0 0 0 0 0 0 0 0 1252 1275 1271 1267 1287 1291 1283 1280 1252 1279 1262 1289 0 0 1326 1347 1358 1391 1349 1404 0 0 0 0 0 0 0 0 0 0 0 0 0 0 0 0 0 0 0 0 0 0 0 0 0 0 0 0 0 0 0 0 0 0 0 0 0 0 0 0 0 0 0 0 0 0 0 0 0 0 0 0 0 0 0 0 0 0 0 0 0 0 0 0 0 0 0 0 0 0 0 0 0 0 0 0 0 0 0 0 0 0 0 0 0 0 0 0
0 0 0 0 0 0 0 0 0 0 0 0 0 1294 1249 1291 1281 1274 1263 1227 1251 1258 1250 1276 1266 0 0 1364 1366 1339 1367 1408 0 0 0 0 0 0 0 0 0 0 0 0 0 0 0 0 0 0 0 0 0 0 0 0 0 0 0 0 0 0 0 0 0 0 0 0 0 0 0 0 0 0 0 0 0 0 0 0 0 0 0 0 0 0 0 0 0 0 0 0 0 0 0 0 0 0 0 0 0 0 0 0 0 0 0 0 0 0 0 0 0 0 0 0 0 0 0 0
0 0 0 0 0 0 0 0 0 0 0 0 0 0 0 0 0 0 0 0 0 0 1271 1257 1270 0 0 1360 1350 1365 1381 1447 1445 0 0 0 0 0 0 0 0 0 0 0 0 0 0 0 0 0 0 0 0 0 0 0 0 0 0 0 0 0 0 0 0 0 0 0 0 0 0 0 0 0 0 0 0 0 0 0 0 0 0 0 0 0 0 0 0 0 0 0 0 0 0 0 0 0 0 0 0 0 0 0 0 0 0 0 0 0 0 0 0 0 0 0 0 0 0 0
0 0 0 0 0 0 0 0 0 0 0 0 0 0 0 0 0 0 0 0 0 0 0 1341 1333 0 0 0 1343 1330 1318 1386 1437 0 0 0 0 0 0 0 0 0 0 0 0 0 0 0 0 0 0 0 0 0 0 0 0 0 0 0 0 0 0 0 0 0 0 0 0 0 0 0 0 0 0 0 0 0 0 0 0 0 0 0 0 0 0 0 0 0 0 0 0 0 0 0 0 0 0 0 0 0 0 0 0 0 0 1766 0 0 0 0 0 0 0 0 0 0 0 0
0 0 0 0 0 0 0 0 0 0 0 0 0 0 0 0 0 0 0 0 0 0 0 1355 1372 1301 1284 1311 1325 1332 1345 1402 1408 0 0 0 0 0 0 0 0 0 0 0 0 0 0 0 0 0 0 0 0 0 0 0 0 0 0 0 0 0 0 0 0 0 0 0 0 0 0 0 0 0 0 0 0 0 0 0 0 0 0 0 0 0 0 0 0 0 0 0 0 0 0 0 0 0 0 0 0 0 0 0 0 0 1739 1738 0 0 0 0 0 0 0 0 0 0 0 0
0 0 0 0 0 0 0 0 0 0 0 0 0 0 0 0 0 0 0 0 0 0 0 1360 1387 1384 1334 1305 1348 1359 1363 1428 1442 0 0 0 0 0 0 0 0 0 0 0 0 0 0 0 0 0 0 0 0 0 0 0 0 0 0 0 0 0 0 0 0 0 0 0 0 0 0 0 0 0 0 0 0 0 0 0 0 0 0 0 0 0 0 0 0 0 0 0 0 0 0 0 0 0 0 0 0 0 0 0 0 1698 1760 0 1737 0 0 0 0 0 0 0 0 0 0 0
0 0 0 0 0 0 0 0 0 0 0 0 0 0 0 0 0 0 0 0 0 0 0 1364 1363 1357 1360 1339 1331 1318 1357 1407 1399 0 0 0 0 0 0 0 0 0 0 0 0 0 0 0 0 0 0 0 0 0 0 0 0 0 0 0 0 0 0 0 0 0 0 0 0 0 0 0 0 0 0 0 0 0 0 0 0 0 0 0 0 0 0 0 0 0 0 0 0 0 0 0 0 0 0 0 0 0 0 0 0 1755 1714 0 0 0 0 0 0 0 0 0 0 0 0 0
0 0 0 0 0 0 0 0 0 0 0 0 0 0 0 0 0 0 0 0 0 0 0 1377 1376 1376 1372 1368 1367 1342 1379 1426 1452 0 0 0 0 0 0 0 0 0 0 0 0 0 0 0 0 0 0 0 0 0 0 0 0 0 0 0 0 0 0 0 0 0 0 0 0 0 0 0 0 0 0 0 0 0 0 0 0 0 0 0 0 0 0 0 0 0 0 0 0 0 0 0 0 0 0 0 0 0 0 0 0 0 0 1715 1680 0 0 0 0 1684 0 0 0 0 0 0
1253 1237 1261 1266 1294 1308 1329 0 0 0 0 0 0 0 0 0 0 0 0 0 0 0 0 0 1367 1363 1360 1371 1376 1368 1338 1407 1412 0 0 0 0 0 0 0 0 0 0 0 0 0 0 0 0 0 0 0 0 0 0 0 0 0 0 0 0 0 0 0 0 0 0 0 0 0 0 0 0 0 0 0 0 0 0 0 0 0 0 0 0 0 0 0 0 0 0 0 0 0 0 0 0 0 0 0 0 0 0 0 1774 1696 1714 1704 1688 1729 0 0 0 0 0 0 0 0 0 0
1245 1235 1286 1283 1284 1290 1298 1307 1322 1289 1349 0 0 0 0 0 0 0 0 0 0 0 0 1343 1356 1354 1356 1363 1357 1353 1405 1399 1432 0 0 0 0 0 0 0 0 0 0 0 0 0 0 0 0 0 0 0 0 0 0 0 0 0 0 0 0 0 0 0 0 0 0 0 0 0 0 0 0 0 0 0 0 0 0 0 0 0 0 0 0 0 0 0 0 0 0 0 0 0 0 0 0 0 0 0 0 0 0 1791 1760 1783 1729 1715 1701 1669 1667 1631 0 0 0 0 0 0 0 0
1232 1272 1250 1272 1283 1300 1318 1289 1335 1307 1371 1339 1408 1357 1381 1409 0 0 0 0 0 0 0 0 0 1360 0 0 1367 0 0 1453 1412 0 0 0 0 0 0 0 0 0 0 0 0 0 0 0 0 0 0 0 0 0 0 0 0 0 0 0 0 0 0 0 0 0 0 0 0 0 0 0 0 0 0 0 0 0 0 0 0 0 0 0 0 0 0 0 0 0 0 0 0 0 0 0 0 0 0 0 0 0 0 1766 1787 1734 1740 1725 1768 1679 1699 1652 0 0 0 0 0 0 0 0
0 0 0 0 1279 1262 1301 1289 1330 1322 1329 1361 1355 1382 1360 1377 1397 1428 1399 1434 0 0 0 0 0 0 0 0 0 0 0 1420 1442 1389 0 0 0 0 0 0 0 0 0 0 0 0 0 0 0 0 0 0 0 0 0 0 0 0 0 0 0 0 0 0 0 0 0 0 0 0 0 0 0 0 0 0 0 0 0 0 0 0 0 0 0 0 0 0 0 0 0 0 0 0 0 0 0 0 0 0 0 0 0 1752 1720 1740 1745 1659 1672 0 0 0 0 0 0 0 0 0 0 0
0 0 0 0 0 0 0 0 0 1301 1318 1339 1361 1352 1373 1410 1407 1396 1414 1425 1465 1475 0 0 0 0 0 0 0 0 0 1449 1480 1468 0 0 0 0 0 0 0 0 0 0 0 0 0 0 0 0 0 0 0 0 0 0 0 0 0 0 0 0 0 0 0 0 0 0 0 0 0 0 0 0 0 0 0 0 0 0 0 0 0 0 0 0 0 0 0 0 0 0 0 0 0 0 0 0 0 0 0 0 0 1749 1623 1678 1636 1574 1613 1560 1617 1548 1603 1554 0 0 0 0 0 0
0 0 0 0 0 0 0 0 0 0 0 0 0 0 0 1384 1388 1409 1452 1456 1468 1466 0 0 0 0 0 0 0 0 0 0 1490 0 0 0 0 0 0 0 0 0 0 0 0 0 0 0 0 0 0 0 0 0 0 0 0 0 0 0 0 0 0 0 0 0 0 0 0 0 0 0 0 0 0 0 0 0 0 0 0 0 0 0 0 0 0 0 0 0 0 0 0 0 0 0 0 0 0 0 0 0 1629 1618 1607 1591 1579 1578 1589 1583 1556 1556 1589 1578 1565 0 0 0 0 0
0 0 0 0 0 0 0 0 0 0 0 0 0 0 0 0 0 0 0 0 0 1486 0 0 0 0 0 0 0 0 0 0 0 0 0 0 0 0 0 0 0 0 0 0 0 0 0 0 0 0 0 0 0 0 0 0 0 0 0 0 0 0 0 0 0 0 0 0 0 0 0 0 0 0 0 0 0 0 0 0 0 0 0 0 0 0 0 0 0 0 0 0 0 0 0 0 0 0 0 0 0 1599 1635 1608 1599 1570 1573 1586 1564 1580 1582 1607 1584 1597 0 0 0 0 0 0
0 0 0 0 0 0 0 0 0 0 0 0 0 0 0 0 0 0 0 0 0 0 0 0 0 0 0 0 0 0 0 0 0 0 0 0 0 0 0 0 0 0 0 0 0 0 0 0 0 0 0 0 0 0 0 0 0 0 0 0 0 0 0 0 0 0 0 0 0 0 0 0 0 0 0 0 0 0 0 0 0 0 0 0 0 0 0 0 0 0 0 0 0 0 0 0 0 0 0 0 0 0 0 1586 1621 1571 1593 1597 1612 1579 1578 1590 0 0 0 0 0 0 0 0
0 0 0 0 0 0 0 0 0 0 0 0 0 0 0 0 0 0 0 0 0 0 0 0 0 0 0 0 0 0 0 0 0 0 0 0 0 0 0 0 0 0 0 0 0 0 0 0 0 0 0 0 0 0 0 0 0 0 0 0 0 0 0 0 0 0 0 0 0 0 0 0 0 0 0 0 0 0 0 0 0 0 0 0 0 0 0 0 0 0 0 0 0 0 0 0 0 0 0 0 0 0 0 0 0 0 0 1600 0 0 0 0 0 0 0 0 0 0 0 0
0 0 0 0 0 0 0 0 0 0 0 0 0 0 0 0 0 0 0 0 0 0 0 0 0 0 0 0 0 0 0 0 0 0 0 0 0 0 0 0 0 0 0 0 0 0 0 0 0 0 0 0 0 0 0 0 0 0 0 0 0 0 0 0 0 0 0 0 0 0 0 0 0 0 0 0 0 0 0 0 0 0 0 0 0 0 0 0 0 0 0 0 0 0 0 0 0 0 0 0 0 0 0 0 0 0 0 0 0 0 0 0 0 0 0 0 0 0 0 0
575 613 0 0 0 0 0 0 0 0 0 0 0 0 0 0 0 0 0 0 0 0 0 0 0 1885 1817 0 0 0 0 0 0 0 0 0 0 0 0 0 0 0 0 0 0 0 0 2899 2906 2898 2933 2920 2949 2921 2905 2926 2877 2898 2941 2874 2890 2885 2851 2838 2920 2899 0 0 0 0 0 0 0 0 0 0 0 0 0 0 0 0 0 0 0 0 0 0 0 0 0 0 0 0 0 0 1664 0 0 0 0 0 0 0 0 0 0 0 0 0 0 0 0 0 0 0 0 0 0 0
561 582 596 587 614 566 0 0 0 0 0 0 0 0 0 0 0 0 0 0 0 0 0 0 0 0 0 1906 1946 0 0 0 0 0 0 0 0 0 0 0 0 0 0 0 0 0 0 2897 2947 2971 2924 2937 2917 2927 2890 2980 2921 2925 2901 2918 2937 2955 2954 2898 2887 2898 0 0 0 0 0 0 0 0 0 0 0 0 0 0 0 0 0 0 0 0 0 0 0 0 0 0 0 0 0 0 0 0 0 0 0 0 0 0 0 0 0 0 0 0 0 0 0 0 0 0 0 0 0 0
591 576 577 605 633 632 647 658 679 0 0 0 0 0 0 0 0 0 0 0 0 0 0 0 0 0 0 0 0 0 0 0 0 0 0 0 0 0 0 0 0 0 0 0 0 0 0 2940 2959 2957 2901 2919 2902 2894 2860 2896 2898 2868 2862 2875 2853 2883 2904 2882 2873 0 0 0 0 0 0 0 0 0 0 0 0 0 0 0 0 0 0 0 0 0 0 0 0 0 0 0 0 0 0 0 0 0 0 0 0 0 0 0 0 0 0 0 0 0 0 0 0 0 0 0 0 0 0 0
575 591 590 593 619 617 639 640 660 681 697 692 0 0 0 0 0 0 0 0 0 0 0 0 0 0 0 0 0 0 0 0 0 0 0 0 0 0 0 0 0 0 0 0 0 0 0 2943 2904 2940 2970 2948 2911 2919 2907 2899 2901 2914 2954 2942 2892 2915 2899 2927 2917 2922 0 0 0 0 0 0 0 0 0 0 0 0 0 0 0 0 0 0 0 0 0 0 0 0 0 0 0 0 0 0 0 0 0 0 0 0 0 0 0 0 0 0 0 0 0 0 0 0 0 0 0 0 0 0
628 601 573 591 610 623 645 643 657 660 677 683 713 743 763 0 0 0 0 0 0 0 0 0 0 0 0 0 0 0 0 0 0 0 0 0 0 0 0 0 0 0 0 0 0 0 0 2928 2915 2933 2911 2955 2939 2929 2914 2912 2912 2895 2882 2877 2912 2912 2877 2889 2922 0 0 0 0 0 0 0 0 0 0 0 0 0 0 0 0 0 0 0 0 0 0 0 0 0 0 0 0 0 0 0 0 0 0 0 0 0 0 0 0 0 0 0 0 0 0 0 0 0 0 0 0 0 0 0
737 757 751 734 725 664 654 669 670 666 671 681 710 746 721 742 794 820 0 0 0 0 0 0 0 0 0 0 0 0 0 0 0 0 0 0 0 0 0 0 0 0 0 0 0 0 0 2905 2923 2944 2901 2902 2919 2924 2895 2884 2914 2954 2900 2888 2959 2884 2920 2920 2895 2901 0 0 0 0 0 0 0 0 0 0 0 0 0 0 0 0 0 0 0 0 0 0 0 0 0 0 0 0 0 0 0 0 0 0 0 0 0 0 0 0 0 0 0 0 0 0 0 0 0 0 0 0 0 0
791 797 801 828 857 838 865 854 809 779 751 714 732 730 734 743 757 800 819 826 869 0 0 0 0 0 0 0 0 0 0 0 0 0 0 0 0 0 0 0 0 0 0 0 0 0 0 2882 2916 2880 2913 2878 2916 2905 2851 2919 2889 2852 2872 2883 2906 2892 2929 2892 2877 2919 0 0 0 0 0 0 0 0 0 0 0 0 0 0 0 0 0 0 0 0 0 0 0 0 0 0 0 0 0 0 0 0 0 0 0 0 0 0 0 0 0 0 0 0 0 0 0 0 0 0 0 0 0 0
754 771 834 816 841 852 872 897 873 905 895 910 925 892 832 803 781 779 794 798 832 859 858 863 0 0 0 0 0 0 0 0 0 0 0 0 0 0 0 0 0 0 0 0 0 0 0 2913 2969 2886 2875 2958 2924 2936 2938 2886 2918 2898 2953 2916 2915 2901 2938 2892 2872 0 0 0 0 0 0 0 0 0 0 0 0 0 0 0 0 0 0 0 0 0 0 0 0 0 0 0 0 0 0 0 0 0 0 0 0 0 0 0 0 0 0 0 0 0 0 0 0 0 0 0 0 0 0 0
579 0 865 823 863 850 859 888 895 916 936 943 950 957 943 944 928 939 925 875 822 840 882 892 901 915 0 0 0 0 0 0 0 0 0 0 0 0 0 0 0 0 0 0 0 0 0 2924 2924 2885 2893 2921 2899 2904 2903 2890 2890 2891 2898 2917 2838 2884 2874 2893 2881 0 0 0 0 0 0 0 0 0 0 0 0 0 0 0 0 0 0 0 0 0 0 0 0 0 0 0 0 0 0 0 0 0 0 0 0 0 0 0 0 0 0 0 0 0 0 0 0 0 0 0 0 0 0 0
616 913 911 946 922 956 922 905 914 910 914 929 947 946 943 945 948 948 949 953 938 915 901 887 912 945 944 971 1019 0 0 0 0 0 0 0 0 0 0 0 0 0 0 0 0 0 0 2922 2899 2871 2928 2892 2875 2891 2915 2901 2916 2949 2914 2935 2882 2925 2857 2851 2877 0 0 0 0 0 0 0 0 0 0 0 0 0 0 0 0 0 0 0 0 0 0 0 0 0 0 0 0 0 0 0 0 0 0 0 0 0 0 0 0 0 0 0 0 0 0 0 0 0 0 0 0 0 0 0
617 749 0 0 0 0 0 0 0 0 992 985 977 967 954 960 967 951 934 955 955 956 950 946 949 982 973 994 1017 1035 1090 0 0 0 0 0 0 0 0 0 0 0 0 0 0 0 0 2940 2917 2895 2900 2943 2897 2877 2868 2932 2922 2856 2896 2851 2892 2877 2875 2900 2881 2890 0 0 0 0 0 0 0 0 0 0 0 0 0 0 0 0 0 0 0 0 0 0 0 0 0 0 0 0 0 0 0 0 0 0 0 0 0 0 0 0 0 0 0 0 0 0 0 0 0 0 0 0 0 0
594 587 610 0 1126 1155 1156 1161 1159 1154 1135 1141 1167 1162 1151 1137 1119 1040 0 0 1030 1075 1052 1034 1038 1011 1138 1113 1114 1063 1068 0 0 0 0 0 0 0 0 0 0 0 0 0 0 0 0 2898 2925 2922 2971 2920 2889 2872 2882 2923 2885 2886 2940 2917 2885 2920 2859 2876 2886 2840 0 0 0 0 0 0 0 0 0 0 0 0 0 0 0 0 0 0 0 0 0 0 0 0 0 0 0 0 0 0 0 0 0 0 0 0 0 0 0 0 0 0 0 0 0 0 0 0 0 0 0 0 0 0
590 590 586 617 0 0 0 0 0 0 0 0 0 0 0 0 1452 1034 987 0 0 1158 1113 0 0 1101 1168 1164 1148 1146 1133 0 0 0 0 0 0 0 0 0 0 0 0 0 0 0 0 2929 2860 2887 2892 2869 2918 2854 2875 2905 2886 2886 2947 2891 2935 2872 2858 2883 2896 2841 0 0 0 0 0 0 0 0 0 0 0 0 0 0 0 0 0 0 0 0 0 0 0 0 0 0 0 0 0 0 0 0 0 0 0 0 0 0 0 0 0 0 0 0 0 0 0 0 0 0 0 0 0 0
585 607 594 616 607 0 0 0 0 0 0 0 0 0 0 0 0 1024 989 0 0 0 0 0 0 0 0 0 0 0 0 0 0 0 0 0 0 0 0 0 0 0 0 0 0 0 0 2914 2940 2940 2935 2894 2874 2908 2875 2911 2931 2905 2882 2869 2918 2880 2918 2824 2891 2851 0 0 0 0 0 0 0 0 0 0 0 0 0 0 0 0 0 0 0 0 0 0 0 0 0 0 0 0 0 0 0 0 0 0 0 0 0 0 0 0 0 0 0 0 0 0 0 0 0 0 0 0 0 0
583 591 623 608 647 658 0 0 0 0 0 0 0 0 0 0 0 0 0 0 0 0 0 0 0 0 0 0 0 0 0 0 0 0 0 0 0 0 0 0 0 0 0 0 0 0 0 2903 2903 2950 2912 2898 2903 2866 2911 2896 2889 2920 2913 2892 2906 2869 2906 2826 2894 0 0 0 0 0 0 0 0 0 0 0 0 0 0 0 0 0 0 0 0 0 0 0 0 0 0 0 0 0 0 0 0 0 0 0 0 0 0 0 0 0 0 0 0 0 0 0 0 0 0 0 0 0 0 0
588 598 615 604 607 618 0 0 0 0 0 0 0 0 0 0 0 0 0 0 0 0 993 0 0 0 0 0 0 0 0 0 0 0 0 0 0 0 0 0 0 0 0 0 0 0 0 2920 2891 2928 2953 2936 2911 2899 2896 2929 2942 2878 2894 2944 2891 2881 2908 2881 2890 0 0 0 0 0 0 0 0 0 0 0 0 0 0 0 0 0 0 0 0 0 0 0 0 0 0 0 0 0 0 0 0 0 0 0 0 0 0 0 0 0 0 0 0 0 0 0 0 0 0 0 0 0 0 0
574 594 599 588 605 596 598 0 0 0 0 0 0 0 0 0 0 0 0 0 0 0 969 0 0 0 0 0 0 0 0 0 0 0 0 0 0 0 0 0 0 0 0 0 0 0 0 2918 2918 2902 2919 2899 2883 2909 2922 2893 2872 2887 2922 2949 2895 2859 2899 2885 2874 0 0 0 0 0 0 0 0 0 0 0 0 0 0 0 0 0 0 0 0 0 0 0 0 0 0 0 0 0 0 0 0 0 0 0 0 0 0 0 0 0 0 0 0 0 0 0 0 0 0 0 0 0 0 0
594 602 613 566 609 596 630 0 0 0 0 0 0 0 0 0 0 0 0 0 0 0 0 0 0 0 0 0 0 0 0 0 0 0 0 0 0 0 0 0 0 0 0 0 0 0 0 2871 2901 2888 2904 2932 2889 2927 2915 2899 2933 2917 2914 2902 2936 2883 2882 2935 2891 2906 0 0 0 0 0 0 0 0 0 0 0 0 0 0 0 0 0 0 0 0 0 0 0 0 0 0 0 0 0 0 0 0 0 0 0 0 0 0 0 0 0 0 0 0 0 0 0 0 0 0 0 0 0 0
584 578 606 609 601 618 589 0 0 0 0 0 0 0 0 0 2256 0 0 0 0 0 952 949 0 0 0 0 0 0 0 0 0 0 0 0 0 0 0 0 0 0 0 0 0 0 0 2890 2835 2864 2891 2863 2901 2912 2876 2899 2913 2875 2890 2897 2900 2867 2881 2871 2845 2875 0 0 0 0 0 0 0 0 0 0 0 0 0 0 0 0 0 0 0 0 0 0 0 0 0 0 0 0 0 0 0 0 0 0 0 0 0 0 0 0 0 0 0 0 0 0 0 0 0 0 0 0 0 0
592 612 597 585 584 600 609 0 0 0 0 0 0 0 0 0 0 0 0 0 0 0 0 0 0 0 0 0 0 0 0 0 0 0 0 0 0 0 0 0 0 0 0 0 0 0 0 2907 2873 2917 2951 2919 2932 2901 2893 2906 2929 2894 2876 2900 2877 2919 2863 2918 2868 2866 0 0 0 0 0 0 0 0 0 0 0 0 0 0 0 0 0 0 0 0 0 0 0 0 0 0 0 0 0 0 0 0 0 0 0 0 0 0 0 0 0 0 0 0 0 0 0 0 0 0 0 0 0 0
592 589 622 626 616 587 0 0 0 0 0 0 0 0 0 0 0 0 0 0 0 0 0 0 0 0 0 0 0 0 0 0 0 0 0 0 0 0 0 0 0 0 0 0 0 0 0 0 0 0 0 0 0 0 0 0 0 0 0 0 0 2926 3039 2897 2890 0 0 0 0 0 0 0 0 0 0 0 0 0 0 0 0 0 0 0 0 0 0 0 0 0 0 0 0 0 0 0 0 0 0 0 0 0 0 0 0 0 0 0 0 0 0 0 0 0 0 0 0 0 0 0
578 594 582 626 589 626 0 0 0 0 0 0 0 0 0 0 0 0 0 0 0 0 0 0 0 0 0 0 0 0 0 0 0 0 0 0 0 0 0 0 0 0 0 0 0 0 0 0 0 0 0 0 0 0 0 0 0 0 0 0 0 0 0 0 0 0 0 0 0 0 0 0 0 0 0 0 0 0 0 0 0 0 0 0 0 0 0 0 0 0 0 0 0 0 0 0 0 0 0 0 0 0 0 0 0 0 0 0 0 0 0 0 0 0 0 0 0 0 0 0
577 574 604 589 595 574 0 0 0 0 0 0 0 0 0 0 0 0 0 0 0 0 0 0 0 0 0 0 0 0 0 0 0 0 0 0 0 0 0 0 0 0 0 0 0 0 0 0 0 0 0 0 0 0 0 0 0 0 0 0 0 0 0 0 0 0 0 0 0 0 0 0 0 0 0 0 0 0 0 0 0 0 0 0 0 0 0 0 0 0 0 0 0 0 0 0 0 0 0 0 0 0 0 0 0 0 0 0 0 0 0 0 0 0 0 0 0 0 0 0
589 609 592 598 617 0 0 0 0 0 0 0 0 0 0 0 0 0 0 0 0 0 0 0 0 0 0 0 0 0 0 0 0 0 0 0 0 0 0 0 0 0 0 0 0 0 0 0 0 0 0 0 0 0 0 0 0 0 0 0 0 0 0 0 0 0 0 0 0 0 0 0 0 0 0 0 0 0 0 0 0 0 0 0 0 0 0 0 0 0 0 0 0 0 0 0 0 0 0 0 0 0 0 0 0 0 0 0 0 0 0 0 0 0 0 0 0 0 0 0
576 597 599 581 0 0 0 0 0 0 0 0 0 0 0 0 0 0 0 0 0 0 0 0 0 0 854 877 910 860 902 0 0 904 935 926 0 918 896 959 900 880 916 0 0 0 0 0 0 0 0 0 0 0 0 0 0 0 0 0 0 0 0 0 0 0 0 0 0 0 0 0 0 0 0 0 0 0 0 0 0 0 0 0 0 0 0 0 0 0 0 0 0 0 0 0 0 0 0 0 0 0 0 0 0 0 0 0 0 0 0 0 0 0 0 0 0 0 0 0
571 586 596 0 0 0 0 642 683 675 691 706 747 694 714 680 682 672 678 710 707 755 676 738 674 664 739 757 678 731 688 694 711 703 731 678 698 735 762 763 754 734 758 780 730 761 701 789 708 757 741 713 759 754 745 743 722 772 754 761 790 773 776 749 779 791 787 702 744 749 781 733 810 0 0 774 0 0 0 0 0 0 0 0 0 0 0 0 0 0 0 0 0 0 0 0 0 0 0 0 0 0 0 0 0 0 0 0 0 0 0 0 0 0 0 0 0 0 0 0
570 572 554 596 599 551 611 583 593 560 588 564 599 563 573 557 577 585 585 556 605 569 613 590 588 612 596 595 603 617 597 604 590 614 616 598 603 601 598 613 590 631 623 636 559 569 623 597 611 632 621 610 659 629 664 624 663 658 621 671 663 645 652 628 638 632 654 658 624 625 651 657 655 663 638 644 665 672 648 658 629 706 668 633 687 704 688 715 694 655 680 673 740 740 0 703 664 716 0 656 685 729 0 0 0 0 0 0 0 0 0 0 0 0 0 0 0 0 0 0
473 485 475 494 495 516 472 500 479 501 488 486 511 497 511 483 479 496 506 497 500 502 511 521 482 492 523 522 502 518 506 501 518 522 529 530 503 534 506 506 523 529 523 514 531 523 496 526 539 536 498 544 545 560 530 535 521 530 545 540 540 570 558 562 522 548 527 533 525 536 535 538 570 562 547 545 542 559 559 546 540 538 577 567 543 547 536 572 550 564 576 580 554 571 613 582 559 578 575 579 598 619 576 566 0 553 552 551 611 573 0 0 0 0 0 0 0 0 0 0
422 412 390 423 401 412 417 415 437 450 436 438 441 438 458 450 449 452 446 429 465 463 455 441 456 442 453 452 446 456 461 442 464 454 445 463 470 464 459 458 467 473 467 454 471 468 458 477 471 453 455 472 471 462 467 476 482 474 473 476 487 481 473 483 475 502 486 475 483 479 488 462 479 489 486 479 488 496 478 486 489 480 474 462 486 485 514 479 484 498 502 493 471 498 491 500 506 499 511 467 493 499 452 463 489 487 533 482 523 484 522 480 0 0 0 0 0 0 0 0
370 394 390 395 375 391 402 398 394 381 398 383 403 412 400 398 405 385 400 410 401 397 405 424 408 407 419 402 399 401 418 423 419 409 424 409 420 409 410 415 414 412 416 403 414 413 427 425 417 427 421 425 429 421 431 419 427 428 426 424 418 431 420 426 427 434 428 436 434 424 428 429 430 417 428 413 425 431 427 417 421 435 429 432 427 451 418 434 419 426 434 431 429 423 436 435 438 419 443 448 453 450 421 426 448 459 432 423 424 445 416 448 428 419 0 0 0 0 0 0
355 346 358 346 361 363 369 352 367 363 381 348 352 371 362 376 363 374 373 367 366 369 359 377 360 359 366 370 361 360 377 385 368 369 375 366 376 379 369 384 358 381 365 384 365 371 394 377 378 389 376 384 384 388 377 374 379 388 373 379 386 387 397 378 380 394 397 391 386 389 392 395 392 403 389 394 388 391 394 383 400 385 405 398 401 385 403 386 399 381 395 391 393 389 399 401 398 393 382 398 404 396 388 400 396 385 389 377 411 396 379 416 378 377 390 393 0 0 0 0
313 332 313 336 329 323 343 319 337 336 327 343 316 340 336 316 346 333 339 351 347 325 337 328 360 337 339 330 341 333 343 339 333 351 340 332 336 333 328 345 348 340 336 338 332 331 347 335 329 352 350 347 348 339 349 341 345 339 338 347 352 340 349 356 347 349 349 342 337 342 346 343 349 359 358 347 348 340 355 340 350 349 356 347 347 362 351 349 353 345 366 351 367 358 346 354 349 347 348 367 359 347 350 351 370 334 353 377 390 357 371 374 331 356 329 360 359 0 0 0
298 290 296 283 292 301 300 293 302 306 296 293 282 293 306 306 299 295 294 305 304 307 308 297 287 304 294 304 299 299 292 300 294 304 310 312 319 312 307 302 307 309 299 303 306 304 302 311 303 308 303 306 313 306 295 311 318 314 304 323 315 318 307 310 302 313 321 312 318 308 305 320 309 304 306 314 323 311 322 316 321 312 308 309 317 326 319 329 318 318 310 315 320 321 329 330 328 314 321 344 320 317 341 302 324 311 296 343 312 322 325 325 340 335 304 318 289 292 341 0
275 271 270 271 280 267 272 275 279 287 279 274 281 282 278 285 284 275 272 276 279 285 280 277 275 269 279 277 281 282 278 279 285 280 282 275 284 284 283 274 279 275 285 282 282 284 283 289 287 281 283 283 294 282 285 286 279 275 287 288 283 290 289 300 287 292 289 288 294 289 291 283 289 288 287 289 294 283 284 289 281 291 287 293 291 287 292 296 287 293 294 296 291 283 302 304 288 296 285 297 283 296 287 300 303 306 303 284 275 300 304 280 312 303 298 298 286 281 290 324
244 248 258 248 256 256 250 249 256 247 245 250 255 251 260 256 261 263 251 257 252 264 257 254 256 254 257 259 252 252 259 264 259 254 261 261 265 261 262 263 259 258 265 263 260 262 265 257 267 266 262 266 265 265 267 256 258 263 261 267 264 266 266 266 268 264 270 259 268 263 265 271 266 270 266 264 266 273 263 263 264 263 265 267 271 267 261 261 266 269 264 265 263 259 266 268 283 274 272 280 266 266 271 277 265 283 281 290 261 272 267 289 259 289 275 265 252 279 262 270
233 225 236 228 236 232 244 228 233 226 234 229 246 251 238 235 242 236 248 244 233 244 244 242 244 239 242 237 240 249 241 241 249 242 244 243 243 243 248 247 242 235 239 243 245 245 242 243 242 246 248 246 244 249 255 239 248 241 246 245 248 246 252 252 247 249 248 258 251 252 245 244 252 253 251 248 246 245 249 252 246 247 256 252 253 253 259 252 245 239 247 246 247 246 247 261 248 250 252 253 260 255 256 253 245 246 256 249 246 243 250 232 254 253 231 252 246 281 252 259
217 216 215 214 224 223 224 219 223 215 221 220 223 223 223 223 217 225 227 222 225 225 223 220 228 224 228 232 223 226 223 226 227 226 235 229 236 218 231 236 229 226 223 224 234 234 228 231 230 235 230 230 229 233 229 226 233 228 237 233 233 237 236 234 241 227 237 238 235 227 230 233 234 234 230 240 230 229 229 230 230 232 229 235 240 231 236 234 232 232 227 239 236 234 229 234 233 237 241 238 238 246 236 239 241 235 237 234 235 236 243 240 242 245 237 236 229 220 238 244
209 205 220 216 215 210 208 206 207 218 215 209 213 216 211 214 213 209 214 217 210 213 212 215 210 214 197 218 214 212 217 219 216 215 217 213 218 203 201 220 216 218 223 218 225 218 217 219 221 223 218 222 217 204 220 219 219 221 219 224 223 207 218 229 218 220 222 220 220 221 228 224 204 219 219 220 223 215 219 223 219 221 224 230 222 229 214 221 217 216 219 219 221 218 224 221 229 221 229 233 221 213 221 230 227 226 224 222 230 223 219 220 228 232 232 207 203 231 211 236
190 195 196 201 209 198 199 188 184 183 198 203 188 190 203 187 189 191 210 192 187 186 195 191 186 183 191 187 187 192 193 190 187 197 193 195 190 197 187 189 190 192 197 191 199 199 195 201 197 199 194 202 194 201 198 197 197 194 195 193 199 195 200 199 197 199 196 197 198 194 196 197 201 194 193 195 192 200 196 189 195 196 194 198 213 198 198 185 197 213 196 197 194 191 195 187 185 194 208 209 189 216 206 214 211 217 211 212 207 206 223 212 211 210 215 182 194 202 172 185
175 179 202 193 192 178 196 186 182 183 180 176 175 180 179 183 183 180 188 190 191 187 186 189 179 193 191 190 188 192 195 190 189 188 186 192 194 188 194 191 190 197 197 194 199 196 194 196 197 196 192 200 195 196 193 200 199 199 198 191 194 199 199 200 191 197 201 195 189 199 189 191 191 197 197 197 194 196 195 194 196 197 196 194 186 188 193 190 189 189 185 190 191 179 178 190 185 189 187 181 187 184 201 191 182 189 183 201 193 203 202 174 206 179 181 187 184 191 181 171
175 179 174 168 179 180 181 177 181 184 177 181 178 181 186 180 183 186 181 189 182 184 189 182 184 189 186 189 190 189 183 179 187 181 189 187 187 183 188 188 187 182 188 190 190 189 185 192 190 189 190 188 189 193 192 190 191 189 190 187 184 187 186 195 189 195 192 190 188 189 185 188 189 190 187 188 188 186 191 190 192 192 186 183 191 194 185 185 186 192 190 192 186 185 190 186 189 190 184 188 180 188 187 177 183 175 185 183 175 181 183 181 184 176 190 175 197 181 175 187
166 165 161 164 165 171 165 173 168 168 172 173 168 175 174 174 172 174 177 180 174 170 172 170 172 168 176 169 177 174 175 172 172 181 173 172 179 172 175 178 182 178 175 174 177 182 178 180 185 177 174 179 176 179 180 183 180 180 181 177 176 177 184 180 179 177 179 184 186 184 180 182 175 181 179 180 180 180 184 183 185 182 172 176 174 175 175 178 175 180 180 176 175 175 177 173 180 174 180 175 173 184 175 174 178 177 166 176 169 173 178 172 172 167 175 167 169 176 177 167
162 164 166 162 158 170 158 159 169 163 170 171 163 168 166 169 161 167 171 169 164 158 171 168 171 162 167 170 168 166 173 165 167 169 166 168 169 169 170 168 167 164 174 171 179 172 163 168 174 172 170 171 170 176 171 171 172 178 175 173 174 174 171 175 174 177 169 169 172 168 171 177 168 169 166 173 176 172 170 173 168 173 173 171 163 175 178 167 176 168 171 168 168 170 172 177 172 166 169 181 165 176 174 175 179 170 179 173 174 157 166 166 170 176 173 177 172 168 177 175
156 158 166 162 158 159 163 156 157 159 163 160 155 157 162 167 164 159 168 169 159 161 164 166 162 161 163 157 162 163 159 170 164 164 160 163 162 157 162 158 155 164 167 163 159 165 162 153 164 164 161 164 162 169 165 171 161 166 163 167 164 164 166 160 162 164 162 164 163 160 159 162 165 167 165 165 167 170 167 167 161 158 165 164 159 161 164 161 166 163 163 164 164 158 167 164 163 163 166 168 169 166 158 167 160 162 161 159 163 157 162 166 159 159 178 157 173 155 167 171
141 147 155 148 152 149 148 148 150 156 148 158 149 150 156 151 153 155 148 161 157 149 153 159 154 150 147 157 155 159 155 153 153 155 155 155 152 154 149 156 156 154 155 159 155 156 160 154 156 152 153 163 160 160 156 157 160 156 163 161 160 158 160 159 160 154 158 158 152 154 160 157 157 153 159 164 163 164 157 152 158 160 158 156 154 155 158 155 157 152 152 156 153 152 156 153 156 158 155 154 153 156 155 160 155 152 149 151 157 148 152 147 151 154 156 152 149 154 152 161
138 141 144 142 148 147 144 149 151 142 148 149 144 146 150 146 150 152 144 155 156 150 150 148 154 151 147 148 148 150 149 148 148 150 149 142 146 155 149 154 155 153 155 150 152 150 151 153 150 153 150 154 147 153 153 146 150 152 157 156 152 151 151 152 151 150 153 155 153 155 148 157 149 153 152 157 160 160 155 152 154 151 151 144 147 153 153 151 155 149 153 153 155 152 156 149 149 149 152 154 157 160 162 156 152 147 153 150 150 148 151 147 148 144 168 155 157 148 153 136
138 135 137 137 136 134 135 138 137 137 140 144 141 141 137 134 141 140 141 148 144 146 140 145 138 142 147 145 143 145 138 130 146 142 141 141 131 144 143 146 145 144 146 147 146 149 143 139 147 143 145 145 142 142 147 142 143 149 147 147 144 148 141 145 147 149 146 146 149 146 146 151 143 147 146 148 152 147 147 148 141 142 142 138 140 149 146 148 149 143 146 148 147 144 148 148 139 144 152 151 150 147 147 141 142 146 144 146 139 148 134 146 141 150 145 148 137 141 143 136
130 134 131 133 133 140 140 146 136 137 137 0 133 137 137 139 136 139 139 143 147 140 142 140 140 142 146 138 139 138 138 128 131 130 131 138 140 131 137 138 144 146 132 141 140 132 129 132 129 139 140 144 142 143 135 145 143 134 130 129 144 129 128 145 144 141 141 144 135 140 128 140 126 142 139 145 145 130 143 144 147 140 128 122 140 143 146 140 144 139 129 141 141 146 140 141 142 142 140 141 139 140 140 143 139 138 135 136 144 136 135 137 127 131 140 134 127 132 145 132
135 127 128 134 136 138 141 131 134 137 133 133 138 138 137 132 127 139 137 134 142 142 139 144 142 138 139 138 137 125 128 136 129 127 129 125 127 131 130 125 138 141 139 129 0 133 129 129 128 127 126 127 131 133 0 141 0 130 128 129 131 126 135 141 128 130 143 128 142 127 126 126 128 140 130 128 142 127 129 126 138 141 138 127 129 138 137 129 129 142 124 140 136 138 138 128 135 140 140 143 128 124 142 139 139 119 133 139 136 143 130 135 132 139 136 146 130 146 125 148
117 103 126 107 123 127 138 129 114 111 124 117 118 125 124 121 121 132 131 118 118 120 128 125 122 136 138 139 0 136 125 123 118 127 122 118 129 126 124 124 129 125 129 129 131 0 126 128 128 121 127 124 125 127 122 128 131 130 124 123 122 119 124 128 126 130 128 130 124 128 126 121 124 123 116 117 117 130 121 126 128 129 125 122 115 128 120 126 123 127 126 130 134 121 123 121 124 140 128 128 122 116 120 123 121 120 113 128 118 131 127 135 138 120 145 133 129 139 108 101
110 113 111 108 113 117 121 115 127 116 113 115 118 121 118 116 116 133 132 117 122 123 127 123 122 121 129 125 125 129 132 0 125 121 118 113 118 121 0 121 126 124 0 0 0 0 122 126 122 121 126 121 124 125 125 127 122 121 125 118 122 125 115 122 124 128 128 125 118 122 126 120 128 122 119 115 122 124 124 124 117 119 126 122 119 120 122 115 130 119 114 117 119 127 121 122 135 122 119 120 120 117 122 118 107 122 120 114 120 122 116 133 129 133 128 120 140 115 125 143
107 100 117 116 113 111 113 118 110 111 117 114 107 105 112 117 114 116 109 118 117 112 111 119 114 116 119 115 117 124 119 0 119 117 117 109 112 0 114 114 120 0 0 120 121 0 119 118 111 113 116 117 122 119 118 120 121 117 114 118 120 122 119 119 117 117 121 117 119 116 118 117 110 112 116 118 118 113 116 119 112 117 119 116 114 113 118 118 115 118 111 117 117 113 104 117 123 123 114 115 114 121 113 109 109 110 119 116 110 117 103 124 114 127 121 116 113 116 89 124
89 98 108 102 100 105 114 105 102 112 111 107 106 104 123 116 116 113 100 107 115 110 111 107 106 107 114 117 112 115 119 114 110 112 111 109 105 116 0 110 111 112 109 108 111 115 115 0 111 0 116 111 116 116 0 0 105 110 113 112 123 117 106 112 105 113 105 111 121 111 116 105 108 98 105 105 104 108 107 111 110 105 110 111 110 107 107 105 110 112 106 106 101 113 104 114 112 113 111 111 102 113 112 107 109 109 105 107 111 115 107 113 103 105 105 103 97 96 116 78
104 101 110 109 110 109 108 107 112 107 110 109 108 107 114 116 114 114 110 104 106 100 108 107 116 106 109 110 105 117 108 106 103 108 112 108 114 0 104 108 109 107 112 99 101 107 104 110 112 0 111 112 111 112 106 111 102 107 112 109 106 110 114 0 116 105 108 109 114 111 106 107 102 112 102 105 100 102 102 110 107 107 108 105 100 107 104 105 103 104 103 109 104 104 97 109 104 100 111 110 108 109 107 114 113 102 101 107 92 110 99 94 114 110 104 108 91 99 110 128
93 90 108 105 98 90 94 95 95 92 98 101 98 101 100 107 98 100 102 97 101 100 95 99 98 102 107 100 100 103 107 104 103 99 104 102 104 106 102 107 103 101 100 94 99 104 106 99 105 99 106 103 104 104 101 104 102 104 102 101 102 107 105 0 108 106 0 112 100 106 104 99 97 106 100 107 97 104 0 100 0 102 97 100 95 100 97 102 102 102 108 99 94 93 97 96 92 100 99 100 100 98 99 99 99 100 92 93 92 97 98 99 82 104 95 86 93 92 97 113
86 93 84 91 88 97 95 88 92 97 102 97 100 93 102 95 96 98 105 95 98 95 90 87 96 100 102 100 100 99 102 104 103 100 99 103 102 102 104 99 101 97 97 95 103 101 102 101 103 102 107 94 99 104 94 100 98 105 103 104 108 103 105 104 110 106 105 105 106 96 102 107 98 101 95 94 104 98 100 99 0 103 96 91 98 97 97 104 92 99 103 98 98 99 95 107 90 93 87 103 98 92 98 88 97 102 99 95 107 104 90 94 99 88 93 113 112 96 82 127
91 98 90 105 92 92 92 87 83 89 89 96 95 86 96 87 93 89 102 105 103 94 92 88 96 87 100 94 90 97 100 97 104 99 97 99 100 94 96 100 93 89 86 92 101 91 99 101 94 97 100 96 100 100 100 96 100 95 89 94 92 90 99 0 96 102 100 97 97 94 98 97 100 105 84 102 94 97 100 105 98 95 85 106 99 100 91 88 91 93 93 89 103 79 88 90 93 86 96 87 96 96 97 93 98 93 100 79 95 95 88 88 93 87 92 90 104 89 80 82
85 78 76 88 88 82 89 87 87 88 83 87 93 92 86 90 86 89 90 91 89 93 92 93 92 86 100 94 91 94 88 87 96 95 87 93 88 89 95 97 86 86 88 97 89 99 99 89 90 95 98 91 98 95 97 89 98 98 98 90 86 88 99 91 90 96 89 99 95 97 86 91 97 89 96 95 93 92 96 93 96 95 97 92 87 86 92 97 93 95 91 92 95 89 89 92 93 93 93 84 87 87 90 80 91 83 88 81 89 85 82 86 82 83 84 102 80 84 67 83
91 79 84 85 90 91 97 93 85 89 86 90 87 88 90 91 86 87 87 88 81 92 92 89 93 89 98 96 88 88 91 89 96 88 101 86 100 91 97 96 91 93 92 92 93 97 95 93 90 88 97 98 96 99 90 93 94 99 89 93 90 86 95 91 92 98 98 98 96 90 99 88 93 97 93 90 93 94 98 93 97 88 96 96 95 97 89 94 92 90 96 97 100 89 90 92 85 82 93 102 93 95 91 94 86 92 90 85 82 85 91 85 81 84 100 84 85 54 0 0
87 88 83 86 90 88 85 89 85 0 82 86 87 85 80 91 92 90 89 85 94 84 92 91 90 91 91 84 96 94 86 91 92 96 94 90 92 91 93 94 97 87 97 98 97 89 93 96 89 98 99 95 95 87 91 97 88 95 95 94 95 86 94 97 92 88 95 89 94 92 96 95 82 98 90 89 87 95 97 95 94 96 88 89 91 94 83 92 98 96 88 95 100 89 87 87 89 94 88 84 90 88 89 95 81 86 92 84 88 82 90 92 86 95 77 84 84 117 135 0
80 86 74 88 86 89 92 86 88 78 82 81 90 92 85 87 81 86 84 89 90 90 91 86 85 92 89 84 91 90 85 82 83 87 86 95 86 89 84 89 86 85 93 97 87 84 95 94 89 89 96 95 90 81 89 93 92 96 91 96 90 94 87 87 89 97 85 86 91 91 91 91 92 94 95 86 92 96 94 91 90 84 87 91 90 86 90 88 91 80 99 87 84 83 83 82 88 79 92 88 82 73 90 88 85 89 88 88 78 78 75 84 85 89 61 87 61 60 0 0
81 75 77 81 88 78 86 92 81 89 84 88 89 90 90 84 87 90 89 91 92 87 87 84 83 90 88 85 87 92 86 82 90 95 89 86 89 86 85 89 91 83 85 95 92 82 93 94 89 93 89 91 92 86 96 89 89 94 84 97 92 87 90 96 89 94 88 86 89 93 89 89 91 87 94 87 88 91 97 85 95 86 84 83 92 94 89 89 91 87 82 93 83 87 85 84 91 87 92 86 85 91 88 88 74 86 84 90 90 79 80 79 91 76 88 100 0 0 0 0
77 64 62 62 80 78 83 81 83 76 83 75 79 81 78 79 79 78 78 77 87 77 80 82 75 74 77 81 79 77 85 72 76 77 88 78 80 81 85 78 86 78 81 74 81 82 81 87 84 82 84 80 78 84 85 80 86 84 88 75 79 76 81 81 78 82 75 75 75 85 80 78 81 76 85 83 81 84 84 90 75 83 74 77 77 80 80 73 71 86 87 71 80 75 83 79 71 78 69 87 66 75 73 55 71 65 74 78 59 87 79 78 69 79 52 63 0 0 0 0
69 68 74 80 69 79 84 88 80 80 80 84 68 76 77 77 86 87 77 78 79 81 75 77 85 83 76 73 81 86 82 81 83 87 85 76 83 79 79 76 85 80 84 87 83 86 81 77 84 81 81 81 77 75 80 92 84 79 86 73 87 78 81 78 83 71 77 74 87 75 78 83 84 80 86 83 84 82 87 88 82 80 80 82 75 80 82 68 86 86 63 82 73 71 85 76 89 78 72 70 88 71 70 76 74 75 76 85 78 87 76 88 71 81 84 0 0 0 0 0
