0 0 0 0 0 0 0 0 0 0 0 0 0 0 0 0 0 0 0 0 0 0 0 0 0 0 0 0 0 0 0 0 0 0 0 0 0 0 0 0 0 0 0 0 0 0 0 0 0 0 0 0 0 0 0 0 0 0 0 0 0 0 0 0 0 0 0 0 0 0 0 0 0 0 0 0 0 0 0 0 0 0 0 0 0 0 0 0 0 0 0 0 0 0 0 0 0 0 0 0 0 0 0 0 0 0 0 0 0 0 0 0 0 0 0 0 0 0 0 0
0 0 0 0 0 0 0 0 0 0 0 0 0 0 0 0 0 0 0 0 0 0 0 0 0 0 0 0 0 0 0 0 0 0 0 0 0 0 0 0 0 0 0 0 0 0 0 0 0 0 0 0 0 0 0 0 0 0 0 0 0 0 0 0 0 0 0 0 0 0 0 0 0 0 0 0 0 0 0 0 0 0 0 0 0 0 0 0 0 0 0 0 0 0 0 0 0 0 0 0 0 0 0 0 0 0 0 0 0 0 0 0 0 0 0 0 0 0 0 0
0 0 0 0 0 0 0 0 0 0 0 0 0 0 0 0 0 1253 0 0 0 0 0 0 0 0 0 0 0 0 0 0 0 0 0 0 0 0 0 0 0 0 0 0 0 0 0 0 0 0 0 0 0 0 0 0 0 0 0 0 0 0 0 0 0 0 0 0 0 0 0 0 0 0 0 0 0 0 0 0 0 0 0 0 0 0 0 0 0 0 0 0 0 0 0 0 0 0 0 0 0 0 0 0 0 0 0 0 0 0 0 0 0 0 0 0 0 0 0 0
0 0 0 0 0 0 0 0 0 0 0 1143 1126 1141 0 0 1277 1304 1290 0 0 1238 1266 0 0 0 0 0 0 0 0 0 0 0 0 0 0 0 0 0 0 0 0 0 0 0 0 0 0 0 0 0 0 0 0 0 0 0 0 0 0 0 0 0 0 0 0 0 0 0 0 0 0 0 0 0 0 0 0 0 0 0 0 0 0 0 0 0 0 0 0 0 0 0 0 0 0 0 0 0 0 0 0 0 0 0 0 0 0 0 0 0 0 0 0 0 0 0 0 0
0 0 0 0 0 0 0 1099 1133 1113 1117 1116 1152 1169 1139 0 1259 1290 1296 0 1259 1265 1226 0 0 0 0 0 0 0 0 0 0 0 0 0 0 0 0 0 0 0 0 0 0 0 0 0 0 0 0 0 0 0 0 0 0 0 0 0 0 0 0 0 0 0 0 0 0 0 0 0 0 0 0 0 0 0 0 0 0 0 0 0 0 0 0 0 0 0 0 0 0 0 0 0 0 0 0 0 0 0 0 0 0 0 0 0 0 0 0 0 0 0 0 0 0 0 0 0
0 0 0 0 0 0 0 1095 1091 1128 1136 0 1135 1159 1143 1155 1254 1237 1252 0 1253 1237 1267 1268 0 0 0 0 0 0 0 0 0 0 0 0 0 0 0 0 0 0 0 0 0 0 0 0 0 0 0 0 0 0 0 0 0 0 0 0 0 0 0 0 0 0 0 0 0 0 0 0 0 0 0 0 0 0 0 0 0 0 0 0 0 0 0 0 0 0 0 0 0 0 0 0 0 0 0 0 0 0 0 0 0 0 0 0 0 0 0 0 0 0 0 0 0 0 0 0
0 0 0 0 0 0 0 0 0 0 0 0 1209 1203 1258 1295 1277 1317 1298 1318 1283 1272 1273 1276 1297 0 1314 0 0 0 0 1380 0 0 0 0 0 0 0 0 0 0 0 0 0 0 0 0 0 0 0 0 0 0 0 0 0 0 0 0 0 0 0 0 0 0 0 0 0 0 0 0 0 0 0 0 0 0 0 0 0 0 0 0 0 0 0 0 0 0 0 0 0 0 0 0 0 0 0 0 0 0 0 0 0 0 0 0 0 0 0 0 0 0 0 0 0 0 0 0
0 0 0 0 0 0 0 0 0 0 0 0 1271 1288 1273 1294 1250 1304 1285 1296 1291 1294 1274 1280 0 1323 1352 1372 1330 1396 0 1401 0 0 0 0 0 0 0 0 0 0 0 0 0 0 0 0 0 0 0 0 0 0 0 0 0 0 0 0 0 0 0 0 0 0 0 0 0 0 0 0 0 0 0 0 0 0 0 0 0 0 0 0 0 0 0 0 0 0 0 0 0 0 0 0 0 0 0 0 0 0 0 0 0 0 0 0 0 0 0 0 0 0 0 0 0 0 0 0
0 0 0 0 0 0 0 0 0 0 0 0 1256 1256 1243 1270 1292 1271 1271 1276 1270 1263 1262 1305 0 0 1351 1338 1345 1370 1382 1383 0 0 0 0 0 0 0 0 0 0 0 0 0 0 0 0 0 0 0 0 0 0 0 0 0 0 0 0 0 0 0 0 0 0 0 0 0 0 0 0 0 0 0 0 0 0 0 0 0 0 0 0 0 0 0 0 0 0 0 0 0 0 0 0 0 0 0 0 0 0 0 0 0 0 0 1800 0 0 0 0 0 0 0 0 0 0 0 0
0 0 0 0 0 0 0 0 0 0 0 0 0 1300 1280 1294 1276 1278 1284 1297 1237 1265 1266 1273 1287 0 1358 1383 1351 1357 1388 1400 1421 0 0 0 0 0 0 0 0 0 0 0 0 0 0 0 0 0 0 0 0 0 0 0 0 0 0 0 0 0 0 0 0 0 0 0 0 0 0 0 0 0 0 0 0 0 0 0 0 0 0 0 0 0 0 0 0 0 0 0 0 0 0 0 0 0 0 0 0 0 0 0 0 0 0 1702 0 0 0 0 0 0 0 0 0 0 0 0
0 0 0 0 0 0 0 0 0 0 0 0 0 0 0 0 0 0 0 0 0 1272 1257 1258 1235 0 0 1312 1359 1329 1386 1379 1429 0 0 0 0 0 0 0 0 0 0 0 0 0 0 0 0 0 0 0 0 0 0 0 0 0 0 0 0 0 0 0 0 0 0 0 0 0 0 0 0 0 0 0 0 0 0 0 0 0 0 0 0 0 0 0 0 0 0 0 0 0 0 0 0 0 0 0 0 0 0 0 0 0 0 0 0 0 0 0 0 0 0 0 0 0 0 0
0 0 0 0 0 0 0 0 0 0 0 0 0 0 0 0 0 0 0 0 0 0 0 0 1295 0 0 0 1340 1333 1347 1388 1423 0 0 0 0 0 0 0 0 0 0 0 0 0 0 0 0 0 0 0 0 0 0 0 0 0 0 0 0 0 0 0 0 0 0 0 0 0 0 0 0 0 0 0 0 0 0 0 0 0 0 0 0 0 0 0 0 0 0 0 0 0 0 0 0 0 0 0 0 0 0 0 0 0 0 1690 0 0 0 0 0 0 0 0 0 0 0 0
0 0 0 0 0 0 0 0 0 0 0 0 0 0 0 0 0 0 0 0 0 0 0 1335 1354 1278 1261 0 1298 1335 1354 1361 1406 0 0 0 0 0 0 0 0 0 0 0 0 0 0 0 0 0 0 0 0 0 0 0 0 0 0 0 0 0 0 0 0 0 0 0 0 0 0 0 0 0 0 0 0 0 0 0 0 0 0 0 0 0 0 0 0 0 0 0 0 0 0 0 0 0 0 0 0 0 0 0 0 1704 1703 0 0 0 0 0 0 0 0 0 0 0 0 0
0 0 0 0 0 0 0 0 0 0 0 0 0 0 0 0 0 0 0 0 0 0 0 1356 1389 1353 1318 1322 1299 1334 1326 1386 1381 0 0 0 0 0 0 0 0 0 0 0 0 0 0 0 0 0 0 0 0 0 0 0 0 0 0 0 0 0 0 0 0 0 0 0 0 0 0 0 0 0 0 0 0 0 0 0 0 0 0 0 0 0 0 0 0 0 0 0 0 0 0 0 0 0 0 0 0 0 0 0 0 1747 1718 0 1727 0 0 0 0 0 0 0 0 0 0 0
0 0 0 0 0 0 0 0 0 0 0 0 0 0 0 0 0 0 0 0 0 0 0 1388 1363 1381 1356 1341 1317 1324 1331 1431 1421 0 0 0 0 0 0 0 0 0 0 0 0 0 0 0 0 0 0 0 0 0 0 0 0 0 0 0 0 0 0 0 0 0 0 0 0 0 0 0 0 0 0 0 0 0 0 0 0 0 0 0 0 0 0 0 0 0 0 0 0 0 0 0 0 0 0 0 0 0 0 1813 0 1744 1693 1684 1722 1688 0 0 0 0 0 0 0 0 0 0
0 0 0 0 0 0 0 0 0 0 0 0 0 0 0 0 0 0 0 0 0 0 0 1353 1371 1383 1399 1378 1356 1357 1366 1418 1414 0 0 0 0 0 0 0 0 0 0 0 0 0 0 0 0 0 0 0 0 0 0 0 0 0 0 0 0 0 0 0 0 0 0 0 0 0 0 0 0 0 0 0 0 0 0 0 0 0 0 0 0 0 0 0 0 0 0 0 0 0 0 0 0 0 0 0 0 0 1813 1809 0 0 1729 1770 1719 1671 1733 0 0 0 1604 0 0 0 0 0
1275 1257 1284 1294 1282 1321 1341 0 0 0 0 0 0 0 0 0 0 0 0 0 0 0 0 0 1349 1377 1367 1374 1389 1367 1382 1424 1479 0 0 0 0 0 0 0 0 0 0 0 0 0 0 0 0 0 0 0 0 0 0 0 0 0 0 0 0 0 0 0 0 0 0 0 0 0 0 0 0 0 0 0 0 0 0 0 0 0 0 0 0 0 0 0 0 0 0 0 0 0 0 0 0 0 0 0 0 0 1806 0 0 0 1729 1683 1697 1670 1661 1653 0 1612 0 0 0 0 0 0
1268 1272 1269 1285 1282 1325 1329 1316 1354 1346 1362 0 0 0 0 0 0 0 0 0 0 0 0 1379 1359 1362 1384 1354 1379 1374 1366 1448 1426 0 0 0 0 0 0 0 0 0 0 0 0 0 0 0 0 0 0 0 0 0 0 0 0 0 0 0 0 0 0 0 0 0 0 0 0 0 0 0 0 0 0 0 0 0 0 0 0 0 0 0 0 0 0 0 0 0 0 0 0 0 0 0 0 0 0 0 0 1845 1787 1786 0 1778 1708 1628 1692 1746 1664 1644 1648 0 0 0 0 0 0 0
1250 1263 1243 1273 1289 1309 1294 1304 1339 1316 1349 1351 1379 1376 1381 1383 0 0 0 0 0 0 0 0 0 1356 0 0 1358 0 0 1414 1386 0 0 0 0 0 0 0 0 0 0 0 0 0 0 0 0 0 0 0 0 0 0 0 0 0 0 0 0 0 0 0 0 0 0 0 0 0 0 0 0 0 0 0 0 0 0 0 0 0 0 0 0 0 0 0 0 0 0 0 0 0 0 0 0 0 0 0 0 1839 1826 1723 1739 1691 1656 1665 1652 1658 1642 0 0 0 0 0 0 0 0 0
0 0 0 0 1268 1264 1286 1321 1301 1320 1328 1365 1355 1379 1351 1408 1390 1423 1431 1450 1477 0 0 0 0 0 0 0 0 0 0 1444 1411 1428 0 0 0 0 0 0 0 0 0 0 0 0 0 0 0 0 0 0 0 0 0 0 0 0 0 0 0 0 0 0 0 0 0 0 0 0 0 0 0 0 0 0 0 0 0 0 0 0 0 0 0 0 0 0 0 0 0 0 0 0 0 0 0 0 0 0 0 0 0 1788 1710 1616 1636 1582 1576 1600 1599 0 0 0 0 0 0 0 0 0
0 0 0 0 0 0 0 0 0 1329 1374 1338 1364 1375 1381 1399 1401 1416 1426 1429 1463 1475 0 0 0 0 0 0 0 0 0 1430 1472 1449 0 0 0 0 0 0 0 0 0 0 0 0 0 0 0 0 0 0 0 0 0 0 0 0 0 0 0 0 0 0 0 0 0 0 0 0 0 0 0 0 0 0 0 0 0 0 0 0 0 0 0 0 0 0 0 0 0 0 0 0 0 0 0 0 0 0 0 0 1709 1691 1653 1651 1627 1579 1607 1593 1597 0 0 0 0 0 0 0 0 0
0 0 0 0 0 0 0 0 0 0 0 0 0 0 0 1383 1391 1407 1440 1425 1440 1465 0 0 0 0 0 0 0 0 0 0 1465 0 0 0 0 0 0 0 0 0 0 0 0 0 0 0 0 0 0 0 0 0 0 0 0 0 0 0 0 0 0 0 0 0 0 0 0 0 0 0 0 0 0 0 0 0 0 0 0 0 0 0 0 0 0 0 0 0 0 0 0 0 0 0 0 0 0 1695 1641 1623 1629 1597 1613 1625 1608 1592 1594 1575 0 0 0 0 0 0 0 0 0 0
0 0 0 0 0 0 0 0 0 0 0 0 0 0 0 0 0 0 0 0 0 1479 0 0 0 0 0 0 0 0 0 0 0 0 0 0 0 0 0 0 0 0 0 0 0 0 0 0 0 0 0 0 0 0 0 0 0 0 0 0 0 0 0 0 0 0 0 0 0 0 0 0 0 0 0 0 0 0 0 0 0 0 0 0 0 0 0 0 0 0 0 0 0 0 0 0 0 1684 1674 1649 1649 1649 1641 1642 1613 1620 1599 1615 0 0 0 0 0 0 1540 1526 0 0 0 0
0 0 0 0 0 0 0 0 0 0 0 0 0 0 0 0 0 0 0 0 0 0 0 0 0 0 0 0 0 0 0 0 0 0 0 0 0 0 0 0 0 0 0 0 0 0 0 0 0 0 0 0 0 0 0 0 0 0 0 0 0 0 0 0 0 0 0 0 0 0 0 0 0 0 0 0 0 0 0 0 0 0 0 0 0 0 0 0 0 0 0 0 0 0 0 1681 1673 1689 1634 1649 1653 1656 1664 1631 1607 1610 1638 0 0 0 0 0 0 1588 1599 1629 0 0 0 0
0 0 0 0 0 0 0 0 0 0 0 0 0 0 0 0 0 0 0 0 0 0 0 0 0 0 0 0 0 0 0 0 0 0 0 0 0 0 0 0 0 0 0 0 0 0 0 0 0 0 0 0 0 0 0 0 0 0 0 0 0 0 0 0 0 0 0 0 0 0 0 0 0 0 0 0 0 0 0 0 0 0 0 0 0 0 0 0 0 0 0 0 0 0 0 0 0 1664 1657 1635 1662 1643 1626 1648 1624 0 0 0 0 0 0 0 0 0 0 0 0 0 0 0
0 0 0 0 0 0 0 0 0 0 0 0 0 0 0 0 0 0 0 0 0 0 0 0 0 0 0 0 0 0 0 0 0 0 0 0 0 0 0 0 0 0 0 0 0 0 0 0 0 0 0 0 0 0 0 0 0 0 0 0 0 0 0 0 0 0 0 0 0 0 0 0 0 0 0 0 0 0 0 0 0 0 0 0 0 0 0 0 0 0 0 0 0 0 0 0 0 0 0 0 0 0 0 0 0 0 0 0 0 0 0 0 0 0 0 0 0 0 0 0
562 545 0 0 0 0 0 0 0 0 0 0 0 0 0 0 0 0 0 0 0 0 0 0 0 1835 1859 0 0 0 0 0 0 0 0 0 0 0 0 0 0 0 0 0 0 0 0 2943 2951 2918 2927 2926 2949 2894 2952 2937 2945 2941 2921 2902 2916 2915 2903 2908 2933 2943 0 0 0 0 0 0 0 0 0 0 0 0 0 0 0 0 0 0 0 0 0 0 0 0 0 0 0 0 0 0 0 0 0 0 0 0 0 0 0 0 0 0 0 0 0 0 0 0 0 0 0 0 0 0
581 594 604 584 598 614 0 0 0 0 0 0 0 0 0 0 0 0 0 0 0 0 0 0 0 0 1884 1891 1913 0 0 0 0 0 0 0 0 0 0 0 0 0 0 0 0 0 0 2946 2879 2930 2917 2866 2915 2905 2914 2897 2913 2912 2896 2949 2900 2940 2907 2896 2872 2895 0 0 0 0 0 0 0 0 0 0 0 0 0 0 0 0 0 0 0 0 0 0 0 0 0 0 0 0 0 0 0 0 0 0 0 0 0 0 0 0 0 0 0 0 0 0 0 0 0 0 0 0 0 0
565 589 587 607 610 637 643 662 664 0 0 0 0 0 0 0 0 0 0 0 0 0 0 0 0 0 0 0 0 0 0 0 0 0 0 0 0 0 0 0 0 0 0 0 0 0 0 2932 2976 2931 2927 2907 2954 2904 2969 2965 2935 2917 2916 2919 2908 2935 2949 2918 2911 0 0 0 0 0 0 0 0 0 0 0 0 0 0 0 0 0 0 0 0 0 0 0 0 0 0 0 0 0 0 0 0 0 0 0 0 0 0 0 0 0 0 0 0 0 0 0 0 0 0 0 0 0 0 0
570 575 587 594 639 631 634 648 643 673 685 699 0 0 0 0 0 0 0 0 0 0 0 0 0 0 0 0 0 0 0 0 0 0 0 0 0 0 0 0 0 0 0 0 0 0 0 2951 2924 2973 2950 2916 2920 2906 2933 2929 2910 2926 2956 2941 2902 2911 2913 2913 2887 2934 0 0 0 0 0 0 0 0 0 0 0 0 0 0 0 0 0 0 0 0 0 0 0 0 0 0 0 0 0 0 0 0 0 0 0 0 0 0 0 0 0 0 0 0 0 0 0 0 0 0 0 0 0 0
600 597 601 613 655 633 648 649 666 704 702 702 699 735 773 0 0 0 0 0 0 0 0 0 0 0 0 0 0 0 0 0 0 0 0 0 0 0 0 0 0 0 0 0 0 0 0 2898 2927 2881 2890 2881 2867 2822 2873 2863 2888 2865 2861 2880 2855 2854 2872 2853 2842 2855 0 0 0 0 0 0 0 0 0 0 0 0 0 0 0 0 0 0 0 0 0 0 0 0 0 0 0 0 0 0 0 0 0 0 0 0 0 0 0 0 0 0 0 0 0 0 0 0 0 0 0 0 0 0
768 777 785 741 733 672 647 650 665 666 673 673 723 745 756 751 779 811 0 0 0 0 0 0 0 0 0 0 0 0 0 0 0 0 0 0 0 0 0 0 0 0 0 0 0 0 0 2879 2933 2912 2934 2902 2930 2915 2901 2884 2896 2900 2883 2921 2887 2924 2896 2895 2898 2968 0 0 0 0 0 0 0 0 0 0 0 0 0 0 0 0 0 0 0 0 0 0 0 0 0 0 0 0 0 0 0 0 0 0 0 0 0 0 0 0 0 0 0 0 0 0 0 0 0 0 0 0 0 0
801 812 797 832 843 857 833 856 848 809 763 745 752 747 730 754 776 791 809 816 839 0 0 0 0 0 0 0 0 0 0 0 0 0 0 0 0 0 0 0 0 0 0 0 0 0 0 2886 2881 2871 2925 2912 2858 2866 2881 2874 2894 2861 2894 2852 2902 2842 2895 2855 2905 2909 0 0 0 0 0 0 0 0 0 0 0 0 0 0 0 0 0 0 0 0 0 0 0 0 0 0 0 0 0 0 0 0 0 0 0 0 0 0 0 0 0 0 0 0 0 0 0 0 0 0 0 0 0 0
803 786 812 844 838 857 876 891 910 924 929 935 930 905 841 817 763 808 805 822 824 860 895 912 0 0 0 0 0 0 0 0 0 0 0 0 0 0 0 0 0 0 0 0 0 0 0 2897 2903 2948 2898 2920 2887 2914 2924 2918 2938 2903 2873 2891 2930 2916 2947 2895 2883 2894 0 0 0 0 0 0 0 0 0 0 0 0 0 0 0 0 0 0 0 0 0 0 0 0 0 0 0 0 0 0 0 0 0 0 0 0 0 0 0 0 0 0 0 0 0 0 0 0 0 0 0 0 0 0
631 0 778 839 831 853 857 878 898 899 926 951 955 947 943 935 939 921 912 867 838 834 886 883 893 911 0 0 0 0 0 0 0 0 0 0 0 0 0 0 0 0 0 0 0 0 0 2895 2940 2907 2925 2911 2925 2903 2882 2925 2964 2915 2903 2925 2890 2862 2859 2918 2888 2919 0 0 0 0 0 0 0 0 0 0 0 0 0 0 0 0 0 0 0 0 0 0 0 0 0 0 0 0 0 0 0 0 0 0 0 0 0 0 0 0 0 0 0 0 0 0 0 0 0 0 0 0 0 0
654 898 925 940 937 896 878 886 911 921 938 946 957 950 946 951 956 944 936 934 942 923 901 889 898 945 920 939 981 0 0 0 0 0 0 0 0 0 0 0 0 0 0 0 0 0 0 2962 2901 2964 2917 2876 2882 2934 2950 2961 2924 2942 2967 2990 2900 2863 2908 2918 2901 0 0 0 0 0 0 0 0 0 0 0 0 0 0 0 0 0 0 0 0 0 0 0 0 0 0 0 0 0 0 0 0 0 0 0 0 0 0 0 0 0 0 0 0 0 0 0 0 0 0 0 0 0 0 0
564 703 0 0 0 0 0 0 0 964 1001 1005 1015 960 970 952 963 951 965 961 956 952 945 945 959 978 969 1005 1025 1023 1088 0 0 0 0 0 0 0 0 0 0 0 0 0 0 0 0 2875 2948 2907 2898 2932 2902 2950 2882 2924 2891 2877 2889 2897 2926 2908 2897 2937 2875 2836 0 0 0 0 0 0 0 0 0 0 0 0 0 0 0 0 0 0 0 0 0 0 0 0 0 0 0 0 0 0 0 0 0 0 0 0 0 0 0 0 0 0 0 0 0 0 0 0 0 0 0 0 0 0
557 578 609 0 1092 1131 1131 1145 1169 1133 1146 1145 1139 1121 1133 1126 1112 1045 0 0 1016 1060 1070 995 1026 1044 1129 1116 1125 1065 1091 0 0 0 0 0 0 0 0 0 0 0 0 0 0 0 0 2933 2949 2869 2905 2950 2915 2905 2878 2974 2935 2914 2935 2904 2917 2882 2937 2883 2880 0 0 0 0 0 0 0 0 0 0 0 0 0 0 0 0 0 0 0 0 0 0 0 0 0 0 0 0 0 0 0 0 0 0 0 0 0 0 0 0 0 0 0 0 0 0 0 0 0 0 0 0 0 0 0
612 583 638 619 0 0 0 0 0 0 0 0 0 0 0 0 1406 1054 981 0 0 1176 1110 0 0 1132 1167 1147 1156 1168 1130 0 0 0 0 0 0 0 0 0 0 0 0 0 0 0 0 2908 2886 2872 2849 2882 2926 2902 2899 2885 2918 2866 2881 2872 2895 2902 2895 2868 2930 0 0 0 0 0 0 0 0 0 0 0 0 0 0 0 0 0 0 0 0 0 0 0 0 0 0 0 0 0 0 0 0 0 0 0 0 0 0 0 0 0 0 0 0 0 0 0 0 0 0 0 0 0 0 0
582 597 584 590 600 0 0 0 0 0 0 0 0 0 0 0 0 988 953 0 0 0 0 0 0 0 0 0 0 0 0 0 0 0 0 0 0 0 0 0 0 0 0 0 0 0 0 2936 2874 2874 2932 2864 2917 2945 2909 2909 2902 2918 2870 2905 2916 2887 2916 2915 2915 0 0 0 0 0 0 0 0 0 0 0 0 0 0 0 0 0 0 0 0 0 0 0 0 0 0 0 0 0 0 0 0 0 0 0 0 0 0 0 0 0 0 0 0 0 0 0 0 0 0 0 0 0 0 0
578 596 614 640 629 632 0 0 0 0 0 0 0 0 0 0 0 0 0 0 0 0 0 0 0 0 0 0 0 0 0 0 0 0 0 0 0 0 0 0 0 0 0 0 0 0 0 2926 2861 2914 2918 2928 2923 2891 2962 2896 2928 2898 2882 2837 2886 2841 2872 2906 2853 0 0 0 0 0 0 0 0 0 0 0 0 0 0 0 0 0 0 0 0 0 0 0 0 0 0 0 0 0 0 0 0 0 0 0 0 0 0 0 0 0 0 0 0 0 0 0 0 0 0 0 0 0 0 0
626 579 583 604 593 611 0 0 0 0 0 0 0 0 0 0 0 0 0 0 0 0 959 0 0 0 0 0 0 0 0 0 0 0 0 0 0 0 0 0 0 0 0 0 0 0 0 2931 2912 2920 2929 2931 2910 2924 2923 2939 2845 2896 2893 2913 2896 2863 2915 2890 2888 2846 0 0 0 0 0 0 0 0 0 0 0 0 0 0 0 0 0 0 0 0 0 0 0 0 0 0 0 0 0 0 0 0 0 0 0 0 0 0 0 0 0 0 0 0 0 0 0 0 0 0 0 0 0 0
584 558 584 601 601 575 599 0 0 0 0 0 0 0 0 0 0 0 0 0 0 0 933 0 0 0 0 0 0 0 0 0 0 0 0 0 0 0 0 0 0 0 0 0 0 0 0 2902 2913 2999 2921 2874 2956 2922 2971 2900 2951 2891 2975 2964 2923 2911 2898 2935 2921 0 0 0 0 0 0 0 0 0 0 0 0 0 0 0 0 0 0 0 0 0 0 0 0 0 0 0 0 0 0 0 0 0 0 0 0 0 0 0 0 0 0 0 0 0 0 0 0 0 0 0 0 0 0 0
579 573 570 568 625 594 612 0 0 0 0 0 0 0 0 0 0 0 0 0 0 0 0 0 0 0 0 0 0 0 0 0 0 0 0 0 0 0 0 0 0 0 0 0 0 0 0 2953 2889 2914 2900 2892 2897 2968 2908 2900 2913 2930 2919 2908 2865 2946 2860 2885 2863 0 0 0 0 0 0 0 0 0 0 0 0 0 0 0 0 0 0 0 0 0 0 0 0 0 0 0 0 0 0 0 0 0 0 0 0 0 0 0 0 0 0 0 0 0 0 0 0 0 0 0 0 0 0 0
553 615 610 612 599 602 574 0 0 0 0 0 0 0 0 0 2329 0 0 0 0 0 0 973 0 0 0 0 0 0 0 0 0 0 0 0 0 0 0 0 0 0 0 0 0 0 0 2888 2906 2945 2919 2899 2947 2914 2952 2928 2918 2927 2917 2908 2911 2905 2909 2889 2907 2856 0 0 0 0 0 0 0 0 0 0 0 0 0 0 0 0 0 0 0 0 0 0 0 0 0 0 0 0 0 0 0 0 0 0 0 0 0 0 0 0 0 0 0 0 0 0 0 0 0 0 0 0 0 0
583 581 593 597 591 565 541 0 0 0 0 0 0 0 0 0 0 0 0 0 0 0 0 0 0 0 0 0 0 0 0 0 0 0 0 0 0 0 0 0 0 0 0 0 0 0 0 2893 2917 2923 2925 2943 2890 2948 2901 2948 2909 2913 2938 2905 2874 2924 2911 2885 2891 2899 0 0 0 0 0 0 0 0 0 0 0 0 0 0 0 0 0 0 0 0 0 0 0 0 0 0 0 0 0 0 0 0 0 0 0 0 0 0 0 0 0 0 0 0 0 0 0 0 0 0 0 0 0 0
601 593 623 643 608 648 0 0 0 0 0 0 0 0 0 0 0 0 0 0 0 0 0 0 0 0 0 0 0 0 0 0 0 0 0 0 0 0 0 0 0 0 0 0 0 0 0 0 0 0 0 0 0 0 0 0 0 0 0 0 0 0 2974 2875 2879 0 0 0 0 0 0 0 0 0 0 0 0 0 0 0 0 0 0 0 0 0 0 0 0 0 0 0 0 0 0 0 0 0 0 0 0 0 0 0 0 0 0 0 0 0 0 0 0 0 0 0 0 0 0 0
608 596 621 608 608 602 0 0 0 0 0 0 0 0 0 0 0 0 0 0 0 0 0 0 0 0 0 0 0 0 0 0 0 0 0 0 0 0 0 0 0 0 0 0 0 0 0 0 0 0 0 0 0 0 0 0 0 0 0 0 0 0 0 0 0 0 0 0 0 0 0 0 0 0 0 0 0 0 0 0 0 0 0 0 0 0 0 0 0 0 0 0 0 0 0 0 0 0 0 0 0 0 0 0 0 0 0 0 0 0 0 0 0 0 0 0 0 0 0 0
607 606 593 621 623 602 0 0 0 0 0 0 0 0 0 0 0 0 0 0 0 0 0 0 0 0 0 0 0 0 0 0 0 0 0 0 0 0 0 0 0 0 0 0 0 0 0 0 0 0 0 0 0 0 0 0 0 0 0 0 0 0 0 0 0 0 0 0 0 0 0 0 0 0 0 0 0 0 0 0 0 0 0 0 0 0 0 0 0 0 0 0 0 0 0 0 0 0 0 0 0 0 0 0 0 0 0 0 0 0 0 0 0 0 0 0 0 0 0 0
609 590 610 574 662 0 0 0 0 0 0 0 0 0 0 0 0 0 0 0 0 0 0 0 0 0 0 0 0 0 0 0 0 0 0 0 0 0 0 0 0 0 0 0 0 0 0 0 0 0 0 0 0 0 0 0 0 0 0 0 0 0 0 0 0 0 0 0 0 0 0 0 0 0 0 0 0 0 0 0 0 0 0 0 0 0 0 0 0 0 0 0 0 0 0 0 0 0 0 0 0 0 0 0 0 0 0 0 0 0 0 0 0 0 0 0 0 0 0 0
590 572 566 595 0 0 0 0 0 0 0 0 0 0 0 0 0 0 0 0 0 0 0 0 0 0 882 0 885 863 854 0 857 852 898 900 0 904 908 897 919 0 894 0 0 0 0 0 0 0 0 0 0 0 0 0 0 0 0 0 0 0 0 0 0 0 0 0 0 0 0 0 0 0 0 0 0 0 0 0 0 0 0 0 0 0 0 0 0 0 0 0 0 0 0 0 0 0 0 0 0 0 0 0 0 0 0 0 0 0 0 0 0 0 0 0 0 0 0 0
563 531 582 0 0 707 0 700 670 643 667 658 708 652 680 655 676 643 686 686 707 696 706 715 688 680 704 656 718 693 728 661 737 709 710 655 722 736 733 720 684 718 742 728 707 712 775 722 793 675 705 743 759 732 711 708 767 750 748 761 767 715 760 724 780 758 763 754 720 784 772 726 755 788 764 782 0 0 0 0 0 0 0 0 0 0 0 0 0 0 0 0 0 0 0 0 0 0 0 0 0 0 0 0 0 0 0 0 0 0 0 0 0 0 0 0 0 0 0 0
536 546 524 536 570 555 558 564 585 543 573 576 574 567 576 601 546 559 562 574 582 595 603 595 606 590 555 592 601 577 586 608 573 604 578 577 624 591 613 616 638 638 574 637 609 608 624 624 605 626 623 608 627 626 616 636 617 596 661 621 612 623 632 620 633 653 602 616 630 676 653 638 637 688 647 669 596 663 659 652 689 654 678 670 644 677 716 667 688 665 660 691 702 680 682 0 654 683 685 671 703 686 0 0 0 0 0 0 0 0 0 0 0 0 0 0 0 0 0 0
501 466 487 491 517 498 463 513 477 486 502 480 506 494 494 496 501 526 476 479 530 506 512 508 521 500 506 494 505 523 491 530 534 495 518 505 510 514 522 520 501 533 518 498 528 527 508 523 509 519 542 530 552 502 512 504 542 535 519 522 537 524 542 546 528 534 546 539 540 548 527 531 529 537 528 525 523 541 549 548 569 546 549 543 556 546 543 577 575 527 533 577 560 538 545 571 541 566 562 562 542 617 572 606 0 533 693 576 573 533 0 0 0 0 0 0 0 0 0 0
422 481 418 444 419 431 440 444 463 435 440 449 439 454 436 446 449 465 459 459 477 460 471 458 457 431 452 453 467 455 456 470 476 469 445 472 467 454 463 469 472 466 477 460 498 465 461 476 482 480 474 469 480 479 475 468 482 475 473 482 493 494 473 483 481 489 499 501 476 497 515 486 485 502 491 479 492 484 482 499 482 486 481 493 485 504 492 520 490 496 491 494 516 497 505 509 497 540 519 495 485 498 510 509 520 510 524 544 487 523 508 505 0 0 0 0 0 0 0 0
401 388 388 406 395 387 410 411 392 400 405 395 406 401 390 408 407 400 411 411 406 405 411 419 413 404 412 419 386 406 410 414 434 407 406 422 422 423 417 419 418 411 425 422 421 416 423 423 427 426 433 429 412 434 422 420 427 428 428 428 421 439 431 440 431 428 418 431 436 429 440 428 452 425 425 425 419 433 426 417 446 426 426 450 452 450 448 453 434 437 444 428 419 446 437 441 455 434 433 446 446 435 427 457 425 423 437 452 422 481 447 445 477 441 0 0 0 0 0 0
360 354 357 355 348 382 356 362 363 358 381 344 360 353 363 359 370 369 365 371 371 366 357 371 362 372 369 369 370 373 372 382 378 371 372 362 379 387 371 369 372 373 374 379 385 371 393 371 380 375 384 379 380 377 380 385 374 373 378 389 375 389 393 394 390 388 379 391 393 381 381 406 380 391 390 396 404 393 400 397 402 398 398 397 398 391 377 399 394 392 403 378 398 392 405 384 391 411 395 398 396 393 407 398 402 392 396 397 410 406 391 410 418 393 388 398 0 0 0 0
316 334 343 330 325 331 333 352 333 347 340 343 343 334 338 337 333 353 331 339 335 343 331 340 358 351 324 358 345 350 340 326 334 339 340 347 357 335 337 336 349 352 342 346 341 342 332 354 343 347 360 343 350 343 345 332 342 335 340 351 353 340 334 353 350 343 345 351 357 349 351 355 362 347 351 349 341 343 338 341 347 335 346 347 349 341 340 342 359 357 356 356 365 363 357 336 353 348 368 374 350 354 359 364 362 357 372 369 376 353 355 347 354 371 358 378 346 0 0 0
292 286 297 294 304 321 314 304 313 314 290 301 300 301 295 303 310 297 287 309 297 297 302 301 297 302 307 289 303 312 298 300 297 318 309 295 307 304 307 305 306 305 311 301 321 308 302 317 311 303 314 306 314 312 304 318 309 313 318 310 321 298 316 316 313 314 318 320 314 303 318 314 319 309 317 319 320 308 318 324 324 319 312 323 317 324 322 320 319 326 327 325 322 322 318 348 325 328 326 323 336 331 324 328 334 345 339 303 324 331 332 332 314 329 323 339 326 326 275 0
280 278 277 273 270 280 275 276 277 269 278 288 285 297 282 282 275 281 277 287 281 273 275 277 284 275 275 276 286 278 275 288 281 283 292 275 279 287 280 290 277 285 287 290 285 286 295 288 286 282 290 286 287 287 288 286 282 285 283 290 293 296 283 294 285 286 282 290 292 287 291 288 290 284 287 281 288 289 286 291 295 298 298 301 289 292 290 298 291 298 286 291 285 291 299 291 295 304 297 292 313 298 288 310 315 306 293 288 284 293 279 290 275 278 282 297 326 300 303 305
254 254 255 261 252 256 253 259 251 247 249 252 251 254 268 255 268 256 254 256 259 261 261 254 259 260 257 255 259 264 262 258 259 266 255 261 265 261 262 262 259 257 263 262 263 264 266 263 265 266 269 263 262 260 270 255 260 260 266 273 264 263 271 264 275 265 263 270 270 268 264 260 263 271 270 259 268 268 268 261 263 265 262 273 271 266 267 269 264 264 273 269 268 265 258 263 266 268 275 272 259 268 267 258 275 292 264 271 280 272 259 283 265 276 275 258 266 255 285 292
232 233 238 236 229 233 238 230 238 237 234 233 233 248 232 240 236 235 247 242 238 245 237 242 241 242 241 240 240 244 245 254 243 246 244 252 242 250 244 245 250 245 244 243 250 254 247 247 246 253 254 252 244 240 251 246 244 249 247 247 248 255 254 254 248 256 251 253 243 246 248 245 249 250 246 255 257 249 242 249 252 242 238 247 254 251 248 257 252 251 253 256 253 252 258 254 253 251 252 256 249 247 248 253 253 245 255 253 253 248 250 245 256 258 236 242 270 258 245 244
214 216 221 217 220 228 219 216 216 215 224 230 223 228 222 222 229 225 227 223 227 224 233 231 225 223 223 233 223 238 227 228 231 233 232 238 235 236 236 234 232 233 236 231 233 234 229 237 239 232 227 234 232 235 228 232 234 230 238 237 241 239 234 234 240 243 233 236 234 232 233 233 236 234 233 234 235 232 232 229 231 226 231 237 243 239 241 241 235 236 237 221 233 236 236 235 234 243 237 231 241 233 237 229 238 243 242 237 234 249 231 246 234 261 240 245 221 242 249 259
210 212 217 212 215 202 208 210 213 215 212 211 208 223 213 212 213 212 212 218 215 209 197 209 210 213 209 201 213 213 215 214 212 213 216 214 222 199 221 217 220 220 214 216 226 219 218 221 226 223 221 216 224 222 221 220 226 203 229 219 225 221 218 224 223 216 222 221 224 217 220 223 221 220 216 222 220 220 220 220 223 235 228 227 220 223 227 224 218 222 223 218 220 222 215 222 224 225 221 230 217 220 222 238 218 226 211 222 230 229 226 224 215 223 244 240 213 212 231 234
192 196 196 196 206 199 199 200 187 198 184 205 201 206 204 190 190 189 207 191 191 204 194 190 184 186 185 193 188 196 189 197 191 190 198 192 198 198 193 190 194 192 199 196 194 193 192 197 200 198 196 194 193 202 192 198 195 195 195 196 197 195 198 199 195 199 196 195 198 192 197 200 197 196 191 189 198 200 194 188 187 198 197 200 200 198 197 192 195 217 211 194 211 191 189 187 194 208 215 197 209 212 190 209 210 214 220 207 205 203 200 209 204 221 207 202 208 195 209 216
177 175 177 192 194 177 181 182 182 182 187 174 178 182 199 178 180 188 187 188 182 185 182 191 190 183 191 183 186 184 193 190 194 193 192 195 194 194 194 195 193 196 198 192 198 194 189 196 194 194 194 197 190 196 193 200 199 200 199 191 191 196 196 199 202 193 202 199 197 198 197 195 198 197 189 196 192 195 195 196 193 187 195 189 188 193 190 193 195 192 187 187 182 192 178 190 182 182 191 185 192 204 187 188 186 179 186 190 193 202 183 182 189 195 174 177 186 174 184 186
171 179 173 177 172 172 172 181 180 181 181 175 181 178 185 181 183 185 185 183 188 186 186 184 179 183 183 189 193 185 186 187 187 184 182 187 184 182 183 181 182 183 192 190 191 191 188 192 191 188 186 191 186 185 194 194 190 188 187 188 185 189 185 192 191 190 193 191 189 190 188 189 190 191 186 192 187 191 184 185 189 191 185 186 188 189 184 187 186 191 186 192 185 189 192 185 187 187 187 188 183 182 184 178 185 178 180 179 176 178 178 178 178 187 189 178 195 173 194 168
171 168 156 171 165 168 165 172 170 175 173 172 171 171 173 179 173 178 175 177 174 172 174 171 172 168 175 174 173 183 169 177 178 181 176 169 177 172 174 174 177 182 181 173 180 179 178 182 180 179 178 181 173 185 177 181 182 184 176 179 175 178 183 180 179 178 179 181 180 177 177 182 175 180 178 176 181 183 177 178 184 185 179 177 182 179 177 180 183 179 174 179 178 183 178 178 173 181 181 186 179 181 177 174 172 178 178 177 177 180 171 176 179 169 171 170 173 177 171 166
161 161 165 166 160 162 158 157 171 165 168 165 162 170 166 170 166 171 174 173 167 161 168 170 173 160 171 171 168 175 172 172 169 169 166 172 169 174 171 166 169 170 172 171 173 166 167 168 174 169 175 168 170 170 172 172 170 174 177 169 168 173 174 176 176 171 177 167 171 170 172 168 173 171 172 174 177 172 178 174 169 171 177 171 167 174 178 168 175 171 173 175 172 171 162 168 177 168 176 177 169 172 178 168 175 170 180 165 165 169 165 169 171 176 168 173 179 169 144 171
153 159 162 163 161 162 164 161 157 157 162 158 161 160 162 162 160 168 163 166 156 162 166 167 160 164 162 158 164 165 162 168 163 164 158 160 165 166 158 163 161 166 167 164 164 165 162 162 163 164 161 166 165 169 162 167 168 163 163 170 162 165 162 166 166 169 159 165 165 165 165 163 167 165 164 167 168 166 170 167 162 160 166 165 166 165 164 165 165 168 168 166 162 161 164 162 160 161 171 170 172 166 155 164 168 162 165 162 157 160 170 176 166 160 177 155 174 154 152 146
149 149 151 148 153 152 146 151 153 158 149 152 152 151 154 150 155 156 153 169 161 153 156 158 152 153 154 156 158 161 156 151 150 155 157 156 152 156 149 152 155 158 159 159 161 153 160 155 154 157 159 154 159 161 160 157 161 156 161 160 159 161 158 157 157 159 156 153 153 158 158 159 157 156 159 161 163 161 159 152 155 159 159 155 161 159 161 157 160 157 154 157 159 158 159 157 157 151 154 158 155 158 157 159 157 156 152 158 158 157 161 161 155 149 166 157 147 157 172 159
140 139 149 146 146 151 147 147 151 143 154 151 144 150 151 151 151 152 144 151 153 154 158 149 151 150 153 149 152 149 151 144 151 153 149 147 153 153 145 149 153 152 151 151 149 153 153 152 147 151 150 157 152 148 153 152 151 154 153 155 155 156 152 156 147 152 148 153 150 152 154 153 151 156 152 150 158 162 155 151 154 153 152 150 150 149 154 152 156 151 154 153 158 152 157 151 150 149 153 159 154 155 160 152 152 150 152 149 148 148 160 159 156 150 156 146 149 157 166 132
135 136 135 138 139 138 138 142 141 137 144 142 142 141 138 130 145 138 143 147 142 147 143 147 141 142 148 145 143 144 146 140 146 141 142 132 140 146 146 144 146 152 147 143 147 147 143 138 154 143 143 148 146 148 146 145 148 147 151 144 147 141 146 145 146 146 150 145 146 147 133 148 144 148 148 148 147 154 150 147 144 147 143 144 146 145 150 147 151 146 143 150 143 146 149 146 142 149 150 141 150 150 151 142 143 143 139 140 143 138 136 146 147 144 141 140 139 141 137 135
128 132 131 135 133 140 140 141 139 138 138 0 133 137 135 136 140 139 138 136 145 142 142 141 139 146 144 140 139 144 137 137 130 138 131 141 141 131 137 131 142 141 140 144 140 130 132 131 128 130 141 142 142 143 135 142 142 142 134 128 143 142 143 145 144 144 141 146 143 144 140 131 132 140 144 145 145 129 144 144 150 127 142 139 132 148 144 140 140 139 128 145 142 145 143 146 143 140 142 141 147 144 138 141 142 135 135 141 146 138 141 138 135 137 138 147 135 146 140 141
133 127 129 132 133 135 145 135 135 139 134 132 140 138 136 125 134 137 137 134 142 139 137 139 139 136 138 137 137 123 137 129 130 127 129 125 124 129 127 129 141 140 132 129 0 140 128 132 126 124 123 127 141 133 0 141 0 131 131 132 134 129 133 131 130 131 145 126 132 130 124 124 123 139 130 129 142 126 130 129 138 141 129 140 128 127 128 124 124 141 135 139 140 136 136 125 138 141 141 139 139 125 137 136 126 131 141 118 128 137 133 134 134 140 146 133 132 143 131 141
116 106 115 108 129 116 136 130 110 111 121 116 118 124 125 123 119 134 122 119 122 129 126 127 124 139 136 137 0 128 127 123 118 121 117 123 126 127 124 120 129 128 124 131 0 0 131 128 129 119 122 116 125 127 123 129 131 128 128 127 125 116 125 127 124 129 140 129 125 129 122 125 121 124 114 123 120 130 123 126 132 123 125 124 119 130 117 123 137 124 126 126 127 124 118 119 126 141 127 126 120 122 120 120 121 117 121 122 122 127 130 131 124 143 115 128 129 145 115 98
108 114 103 113 109 118 124 116 129 114 114 119 118 121 121 119 112 123 121 118 121 123 120 119 122 122 130 122 126 126 128 0 124 121 118 108 118 121 0 122 126 124 0 0 0 0 121 125 122 121 126 127 125 121 120 127 122 120 120 121 125 123 117 122 119 122 127 119 122 120 124 119 124 121 116 119 118 130 126 124 119 115 122 122 119 121 123 117 121 118 117 121 117 124 123 120 135 121 117 119 122 112 123 119 114 119 116 116 118 129 127 136 130 127 110 127 132 98 103 129
110 105 115 118 117 114 112 117 107 111 129 113 107 113 114 118 114 116 114 122 116 107 113 120 116 114 123 117 117 122 125 0 118 115 114 113 113 0 115 119 121 0 0 122 124 0 120 114 113 114 118 117 121 118 119 117 119 116 114 117 124 122 119 116 120 122 120 118 122 117 115 117 113 115 120 116 117 120 112 119 108 118 117 117 116 112 117 119 117 122 117 118 117 112 107 122 121 120 111 121 117 123 117 110 111 109 129 120 123 128 111 126 130 127 127 131 136 115 112 148
95 104 102 101 99 105 114 113 100 110 113 108 110 110 120 120 110 107 99 104 115 105 109 104 107 109 115 119 112 116 121 115 114 111 115 111 108 116 0 116 115 113 112 105 113 112 117 0 114 0 113 111 115 116 0 0 112 110 115 112 123 112 104 110 107 109 105 109 114 109 110 99 109 99 111 108 103 104 106 111 108 107 102 109 108 107 106 110 108 116 106 108 99 112 115 112 115 115 110 108 109 112 112 105 105 111 107 121 112 127 111 113 99 109 93 95 93 92 105 92
101 103 109 109 103 103 108 107 108 112 102 116 111 109 114 116 108 112 113 102 110 100 105 103 114 106 110 108 104 118 110 106 109 105 113 111 113 0 105 107 108 107 111 99 107 105 102 109 115 0 108 109 109 112 110 110 106 109 112 109 106 107 116 0 116 113 107 110 108 107 109 104 107 112 102 101 101 102 102 111 108 106 107 107 101 107 100 111 108 102 102 110 104 101 101 108 100 101 109 105 102 115 111 112 116 99 102 113 98 120 108 103 128 111 118 104 97 110 136 127
91 95 106 107 102 98 95 96 94 95 102 101 96 100 106 101 101 105 109 96 104 100 89 101 108 104 106 99 99 109 110 104 103 100 103 101 107 103 105 107 110 103 100 103 99 104 110 100 105 101 107 104 101 103 104 106 97 100 104 100 105 106 103 0 109 104 0 109 108 107 105 102 101 105 98 107 103 103 0 102 0 106 95 101 101 105 97 102 97 106 98 101 96 100 96 96 93 98 98 98 97 97 102 101 97 102 89 92 99 94 97 107 88 110 109 96 103 102 94 132
83 93 82 91 91 92 97 91 97 95 95 97 101 100 100 100 97 93 103 92 97 90 97 90 94 94 102 100 101 96 105 103 105 101 104 98 102 101 101 97 101 99 101 95 95 98 105 105 100 104 109 95 98 104 98 98 98 105 106 101 105 97 109 100 111 103 104 105 102 98 101 106 101 104 96 97 104 96 100 98 0 105 99 93 99 95 97 107 97 99 102 98 95 102 93 103 93 92 87 104 105 90 100 86 97 100 98 97 91 97 84 86 92 91 88 104 113 84 84 114
92 97 91 95 93 91 91 85 86 91 92 93 91 87 96 87 92 91 106 106 106 96 81 94 94 87 98 94 92 99 97 94 102 95 98 102 101 94 95 102 94 93 90 91 98 93 100 99 90 98 101 94 97 91 97 98 92 98 96 91 90 98 101 0 100 101 96 91 97 96 96 104 102 103 87 104 99 96 102 102 92 94 89 104 97 96 94 89 89 95 88 95 102 93 90 88 93 89 105 91 90 95 98 91 95 97 103 92 92 91 96 90 93 91 100 84 115 96 81 67
85 87 82 89 89 88 78 91 85 90 84 87 91 87 84 92 89 90 94 94 90 91 88 90 92 87 99 90 87 94 86 87 98 95 88 90 88 93 91 93 89 97 97 87 87 96 88 99 98 95 93 94 97 98 95 93 96 91 96 93 99 98 98 91 93 89 91 87 93 96 86 92 97 89 99 94 89 97 89 92 95 98 88 91 97 96 88 89 93 93 93 87 95 88 91 89 92 93 88 93 91 84 88 92 90 79 90 86 83 90 80 82 75 84 85 81 76 79 95 84
92 82 81 82 91 90 88 100 88 87 86 89 86 92 90 90 89 89 95 91 82 91 93 92 90 91 97 87 89 90 87 91 96 89 100 86 89 89 94 96 86 94 96 94 92 98 95 93 88 93 100 98 97 98 91 94 97 98 90 95 93 98 98 92 99 94 89 98 89 90 99 88 98 93 94 98 94 100 98 92 95 86 93 94 93 97 91 95 93 88 96 95 95 88 91 87 92 93 93 97 91 91 87 96 89 100 85 79 87 87 83 89 81 78 88 84 75 78 0 0
82 88 85 87 84 85 86 90 82 0 87 85 91 90 91 80 87 83 87 92 91 83 88 98 89 90 87 88 91 89 86 95 92 96 91 92 94 91 95 96 86 89 91 83 98 88 92 97 86 98 98 94 95 92 94 92 88 95 96 94 94 98 96 98 96 89 95 93 88 88 88 96 98 93 98 92 90 92 90 93 92 92 88 91 93 92 95 95 99 89 93 98 102 90 90 87 91 91 91 84 82 81 93 89 82 87 90 89 92 79 86 91 81 87 88 88 84 82 111 0
84 82 81 83 83 88 96 90 87 79 82 82 83 88 88 86 81 86 82 83 85 92 92 84 90 85 82 89 88 89 84 91 83 92 89 90 89 91 91 92 89 87 97 97 97 84 93 94 92 94 95 95 92 83 94 95 89 93 89 89 93 92 91 89 90 92 87 88 94 89 89 96 97 92 90 86 91 95 97 86 91 89 91 89 90 92 93 88 95 86 91 90 84 85 84 80 87 86 91 81 78 75 90 87 89 88 93 89 80 90 72 86 94 99 75 76 83 78 0 0
78 75 77 80 86 87 90 97 86 85 87 78 88 83 79 88 83 85 90 88 92 93 89 85 78 92 86 78 90 92 89 84 88 90 84 80 90 92 85 93 89 86 85 90 95 91 95 89 95 94 86 84 83 89 76 92 94 97 85 91 91 91 82 96 91 93 82 84 86 91 90 87 88 90 91 90 88 92 97 83 93 96 92 87 92 92 92 84 93 86 89 90 84 85 90 85 90 84 90 87 82 89 91 86 89 89 84 87 90 74 86 81 87 74 106 0 0 0 0 0
79 67 65 63 77 77 82 83 80 76 83 76 86 88 83 77 81 81 78 77 84 77 80 81 76 78 80 77 80 79 91 73 82 84 88 77 82 82 81 75 81 83 84 75 79 84 84 89 88 80 83 79 77 86 84 82 86 88 86 74 86 80 80 80 82 81 77 75 85 82 76 86 85 77 83 84 77 86 87 82 76 81 77 80 76 84 80 79 80 90 77 69 87 72 81 82 69 78 74 82 66 75 72 64 72 75 79 76 76 79 85 67 81 61 94 54 0 0 0 0
66 64 78 81 70 77 83 87 82 76 78 84 75 78 80 85 81 84 72 78 74 81 70 80 85 84 76 70 84 87 81 82 82 88 80 78 79 77 78 77 87 82 85 85 85 85 87 81 85 82 81 76 74 78 82 86 80 79 82 74 83 77 83 79 76 80 73 79 85 72 79 81 83 79 82 80 84 88 84 92 82 73 78 81 73 83 79 75 78 79 81 78 68 72 82 76 85 79 71 71 86 74 70 69 69 77 72 77 81 88 71 83 75 76 68 0 0 0 0 0
