0 0 0 0 0 0 0 0 0 0 0 0 0 0 0 0 0 0 0 0 0 0 0 0 0 0 0 0 0 0 0 0 0 0 0 0 0 0 0 0 0 0 0 0 0 0 0 0 0 0 0 0 0 0 0 0 0 0 0 0 0 0 0 0 0 0 0 0 0 0 0 0 0 0 0 0 0 0 0 0 0 0 0 0 0 0 0 0 0 0 0 0 0 0 0 0 0 0 0 0 0 0 0 0 0 0 0 0 0 0 0 0 0 0 0 0 0 0 0 0
0 0 0 0 0 0 0 0 0 0 0 0 0 0 0 0 0 0 0 0 0 0 0 0 0 0 0 0 0 0 0 0 0 0 0 0 0 0 0 0 0 0 0 0 0 0 0 0 0 0 0 0 0 0 0 0 0 0 0 0 0 0 0 0 0 0 0 0 0 0 0 0 0 0 0 0 0 0 0 0 0 0 0 0 0 0 0 0 0 0 0 0 0 0 0 0 0 0 0 0 0 0 0 0 0 0 0 0 0 0 0 0 0 0 0 0 0 0 0 0
0 0 0 0 0 0 0 0 0 0 0 0 0 0 0 0 0 1290 0 0 0 0 1251 0 0 0 0 0 0 0 0 0 0 0 0 0 0 0 0 0 0 0 0 0 0 0 0 0 0 0 0 0 0 0 0 0 0 0 0 0 0 0 0 0 0 0 0 0 0 0 0 0 0 0 0 0 0 0 0 0 0 0 0 0 0 0 0 0 0 0 0 0 0 0 0 0 0 0 0 0 0 0 0 0 0 0 0 0 0 0 0 0 0 0 0 0 0 0 0 0
0 0 0 0 0 0 0 0 0 0 0 1120 1122 1156 1156 0 1272 1284 0 0 0 0 1268 0 0 0 0 0 0 0 0 0 0 0 0 0 0 0 0 0 0 0 0 0 0 0 0 0 0 0 0 0 0 0 0 0 0 0 0 0 0 0 0 0 0 0 0 0 0 0 0 0 0 0 0 0 0 0 0 0 0 0 0 0 0 0 0 0 0 0 0 0 0 0 0 0 0 0 0 0 0 0 0 0 0 0 0 0 0 0 0 0 0 0 0 0 0 0 0 0
0 0 0 0 0 0 0 0 1122 1119 1135 1156 1132 1173 1169 0 1289 1291 1297 1288 1258 1267 1267 0 0 0 0 0 0 0 0 0 0 0 0 0 0 0 0 0 0 0 0 0 0 0 0 0 0 0 0 0 0 0 0 0 0 0 0 0 0 0 0 0 0 0 0 0 0 0 0 0 0 0 0 0 0 0 0 0 0 0 0 0 0 0 0 0 0 0 0 0 0 0 0 0 0 0 0 0 0 0 0 0 0 0 0 0 0 0 0 0 0 0 0 0 0 0 0 0
0 0 0 0 0 0 0 1125 1135 1148 0 0 1171 1200 1173 1220 1240 1306 1286 1304 1280 1285 1262 1257 0 0 0 0 0 0 0 0 0 0 0 0 0 0 0 0 0 0 0 0 0 0 0 0 0 0 0 0 0 0 0 0 0 0 0 0 0 0 0 0 0 0 0 0 0 0 0 0 0 0 0 0 0 0 0 0 0 0 0 0 0 0 0 0 0 0 0 0 0 0 0 0 0 0 0 0 0 0 0 0 0 0 0 0 0 0 0 0 0 0 0 0 0 0 0 0
0 0 0 0 0 0 0 0 0 0 0 0 1180 1245 1267 1292 1279 1268 1280 1275 1273 1277 1257 1250 1262 0 0 0 0 0 0 1445 0 0 0 0 0 0 0 0 0 0 0 0 0 0 0 0 0 0 0 0 0 0 0 0 0 0 0 0 0 0 0 0 0 0 0 0 0 0 0 0 0 0 0 0 0 0 0 0 0 0 0 0 0 0 0 0 0 0 0 0 0 0 0 0 0 0 0 0 0 0 0 0 0 0 0 0 0 0 0 0 0 0 0 0 0 0 0 0
0 0 0 0 0 0 0 0 0 0 0 0 1294 1274 1269 1278 1279 1263 1286 1278 1264 1267 1253 1240 0 1322 1333 1353 1370 0 0 1409 0 0 0 0 0 0 0 0 0 0 0 0 0 0 0 0 0 0 0 0 0 0 0 0 0 0 0 0 0 0 0 0 0 0 0 0 0 0 0 0 0 0 0 0 0 0 0 0 0 0 0 0 0 0 0 0 0 0 0 0 0 0 0 0 0 0 0 0 0 0 0 0 0 0 0 0 0 0 0 0 0 0 0 0 0 0 0 0
0 0 0 0 0 0 0 0 0 0 0 0 1262 1252 1255 1278 1302 1251 1271 1257 1288 1252 1266 1267 0 0 1343 1341 1334 1352 1398 1384 0 0 0 0 0 0 0 0 0 0 0 0 0 0 0 0 0 0 0 0 0 0 0 0 0 0 0 0 0 0 0 0 0 0 0 0 0 0 0 0 0 0 0 0 0 0 0 0 0 0 0 0 0 0 0 0 0 0 0 0 0 0 0 0 0 0 0 0 0 0 0 0 0 0 0 0 0 0 0 0 0 0 0 0 0 0 0 0
0 0 0 0 0 0 0 0 0 0 0 0 0 0 1264 1297 1273 1275 1284 1267 1290 1268 1264 1254 1234 0 0 1389 1331 1384 1400 1419 0 0 0 0 0 0 0 0 0 0 0 0 0 0 0 0 0 0 0 0 0 0 0 0 0 0 0 0 0 0 0 0 0 0 0 0 0 0 0 0 0 0 0 0 0 0 0 0 0 0 0 0 0 0 0 0 0 0 0 0 0 0 0 0 0 0 0 0 0 0 0 0 0 0 0 0 0 0 0 0 0 0 0 0 0 0 0 0
0 0 0 0 0 0 0 0 0 0 0 0 0 0 0 0 0 0 0 0 0 1264 1257 1242 1250 0 0 1302 1354 1362 1372 1426 1454 0 0 0 0 0 0 0 0 0 0 0 0 0 0 0 0 0 0 0 0 0 0 0 0 0 0 0 0 0 0 0 0 0 0 0 0 0 0 0 0 0 0 0 0 0 0 0 0 0 0 0 0 0 0 0 0 0 0 0 0 0 0 0 0 0 0 0 0 0 0 0 0 0 0 0 0 0 0 0 0 0 0 0 0 0 0 0
0 0 0 0 0 0 0 0 0 0 0 0 0 0 0 0 0 0 0 0 0 0 0 1369 1315 0 0 1343 1345 1350 1329 1412 1410 0 0 0 0 0 0 0 0 0 0 0 0 0 0 0 0 0 0 0 0 0 0 0 0 0 0 0 0 0 0 0 0 0 0 0 0 0 0 0 0 0 0 0 0 0 0 0 0 0 0 0 0 0 0 0 0 0 0 0 0 0 0 0 0 0 0 0 0 0 0 0 0 0 0 1742 0 0 0 0 0 0 0 0 0 0 0 0
0 0 0 0 0 0 0 0 0 0 0 0 0 0 0 0 0 0 0 0 0 0 0 1377 1396 1294 1296 0 1360 1345 1355 1398 1415 0 0 0 0 0 0 0 0 0 0 0 0 0 0 0 0 0 0 0 0 0 0 0 0 0 0 0 0 0 0 0 0 0 0 0 0 0 0 0 0 0 0 0 0 0 0 0 0 0 0 0 0 0 0 0 0 0 0 0 0 0 0 0 0 0 0 0 0 0 0 0 0 0 1740 1706 0 0 0 0 0 0 0 0 0 0 0 0
0 0 0 0 0 0 0 0 0 0 0 0 0 0 0 0 0 0 0 0 0 0 0 1400 1385 1392 1325 1294 1333 1349 1354 1399 1432 0 0 0 0 0 0 0 0 0 0 0 0 0 0 0 0 0 0 0 0 0 0 0 0 0 0 0 0 0 0 0 0 0 0 0 0 0 0 0 0 0 0 0 0 0 0 0 0 0 0 0 0 0 0 0 0 0 0 0 0 0 0 0 0 0 0 0 0 0 0 0 0 1759 1735 1747 1703 0 0 0 0 0 0 0 0 0 0 0
0 0 0 0 0 0 0 0 0 0 0 0 0 0 0 0 0 0 0 0 0 0 0 1373 1350 1382 1370 1346 1331 1347 1355 1407 1414 0 0 0 0 0 0 0 0 0 0 0 0 0 0 0 0 0 0 0 0 0 0 0 0 0 0 0 0 0 0 0 0 0 0 0 0 0 0 0 0 0 0 0 0 0 0 0 0 0 0 0 0 0 0 0 0 0 0 0 0 0 0 0 0 0 0 0 0 0 0 0 0 1753 1732 0 0 0 0 0 0 0 0 0 0 0 0 0
0 0 0 0 0 0 0 0 0 0 0 0 0 0 0 0 0 0 0 0 0 0 0 1377 1355 1360 1363 1376 1363 1341 1362 1433 1430 0 0 0 0 0 0 0 0 0 0 0 0 0 0 0 0 0 0 0 0 0 0 0 0 0 0 0 0 0 0 0 0 0 0 0 0 0 0 0 0 0 0 0 0 0 0 0 0 0 0 0 0 0 0 0 0 0 0 0 0 0 0 0 0 0 0 0 0 0 0 0 0 0 0 1711 1721 0 0 0 0 1682 0 0 0 0 0 0
1238 1251 1283 1280 1304 1320 1315 0 0 0 0 0 0 0 0 0 0 0 0 0 0 0 0 0 1349 1365 1376 1378 1388 1369 1360 1445 1416 0 0 0 0 0 0 0 0 0 0 0 0 0 0 0 0 0 0 0 0 0 0 0 0 0 0 0 0 0 0 0 0 0 0 0 0 0 0 0 0 0 0 0 0 0 0 0 0 0 0 0 0 0 0 0 0 0 0 0 0 0 0 0 0 0 0 0 0 0 0 0 1689 1762 1735 1745 1739 1696 0 0 0 0 0 0 0 0 0 0
1251 1266 1238 1279 1264 1275 1286 1290 1317 1337 1303 0 0 0 0 0 0 0 0 0 0 0 0 1352 1347 1354 1366 1365 1353 1366 1364 1393 1415 0 0 0 0 0 0 0 0 0 0 0 0 0 0 0 0 0 0 0 0 0 0 0 0 0 0 0 0 0 0 0 0 0 0 0 0 0 0 0 0 0 0 0 0 0 0 0 0 0 0 0 0 0 0 0 0 0 0 0 0 0 0 0 0 0 0 0 0 0 0 1787 1744 1761 1689 1687 1690 1690 1680 1698 0 0 0 0 0 0 0 0
1230 1251 1273 1274 1284 1304 1302 1304 1313 1351 1318 1334 1368 1345 1387 1403 0 0 0 0 0 0 0 0 0 1374 0 0 1377 0 0 1422 1405 0 0 0 0 0 0 0 0 0 0 0 0 0 0 0 0 0 0 0 0 0 0 0 0 0 0 0 0 0 0 0 0 0 0 0 0 0 0 0 0 0 0 0 0 0 0 0 0 0 0 0 0 0 0 0 0 0 0 0 0 0 0 0 0 0 0 0 0 0 0 1765 1778 1769 1697 1734 1710 1676 1662 1677 0 0 0 0 0 0 0 0
0 0 0 0 1304 1313 1291 1324 1323 1333 1350 1348 1368 1371 1377 1406 1405 1438 1404 1478 0 0 0 0 0 0 0 0 0 0 0 1445 1422 1439 0 0 0 0 0 0 0 0 0 0 0 0 0 0 0 0 0 0 0 0 0 0 0 0 0 0 0 0 0 0 0 0 0 0 0 0 0 0 0 0 0 0 0 0 0 0 0 0 0 0 0 0 0 0 0 0 0 0 0 0 0 0 0 0 0 0 0 0 1829 1759 1746 1733 1682 1717 1698 1743 0 0 0 0 0 0 0 0 0 0
0 0 0 0 0 0 0 0 0 1328 1322 1362 1343 1364 1420 1401 1400 1397 1430 1465 1453 1497 0 0 0 0 0 0 0 0 0 1460 1480 1458 0 0 0 0 0 0 0 0 0 0 0 0 0 0 0 0 0 0 0 0 0 0 0 0 0 0 0 0 0 0 0 0 0 0 0 0 0 0 0 0 0 0 0 0 0 0 0 0 0 0 0 0 0 0 0 0 0 0 0 0 0 0 0 0 0 0 0 0 0 1777 1646 1671 1611 1615 1567 1553 1605 1576 1599 1571 1571 0 0 0 0 0
0 0 0 0 0 0 0 0 0 0 0 0 0 0 0 1367 1404 1430 1442 1437 1427 1473 0 0 0 0 0 0 0 0 0 0 1453 0 0 0 0 0 0 0 0 0 0 0 0 0 0 0 0 0 0 0 0 0 0 0 0 0 0 0 0 0 0 0 0 0 0 0 0 0 0 0 0 0 0 0 0 0 0 0 0 0 0 0 0 0 0 0 0 0 0 0 0 0 0 0 0 0 0 0 0 0 1643 1624 1593 1602 1621 1624 1583 1585 1573 1616 1586 1567 1561 0 0 0 0 0
0 0 0 0 0 0 0 0 0 0 0 0 0 0 0 0 0 0 0 0 0 1467 0 0 0 0 0 0 0 0 0 0 0 0 0 0 0 0 0 0 0 0 0 0 0 0 0 0 0 0 0 0 0 0 0 0 0 0 0 0 0 0 0 0 0 0 0 0 0 0 0 0 0 0 0 0 0 0 0 0 0 0 0 0 0 0 0 0 0 0 0 0 0 0 0 0 0 0 0 0 0 1605 1596 1585 1598 1613 1601 1620 1600 1581 1605 1577 1540 1571 0 0 0 0 0 0
0 0 0 0 0 0 0 0 0 0 0 0 0 0 0 0 0 0 0 0 0 0 0 0 0 0 0 0 0 0 0 0 0 0 0 0 0 0 0 0 0 0 0 0 0 0 0 0 0 0 0 0 0 0 0 0 0 0 0 0 0 0 0 0 0 0 0 0 0 0 0 0 0 0 0 0 0 0 0 0 0 0 0 0 0 0 0 0 0 0 0 0 0 0 0 0 0 0 0 0 0 0 0 1610 1608 1623 1582 1611 1602 1604 1574 1598 0 0 0 0 0 0 0 0
0 0 0 0 0 0 0 0 0 0 0 0 0 0 0 0 0 0 0 0 0 0 0 0 0 0 0 0 0 0 0 0 0 0 0 0 0 0 0 0 0 0 0 0 0 0 0 0 0 0 0 0 0 0 0 0 0 0 0 0 0 0 0 0 0 0 0 0 0 0 0 0 0 0 0 0 0 0 0 0 0 0 0 0 0 0 0 0 0 0 0 0 0 0 0 0 0 0 0 0 0 0 0 0 0 0 0 1578 0 0 0 0 0 0 0 0 0 0 0 0
0 0 0 0 0 0 0 0 0 0 0 0 0 0 0 0 0 0 0 0 0 0 0 0 0 0 0 0 0 0 0 0 0 0 0 0 0 0 0 0 0 0 0 0 0 0 0 0 0 0 0 0 0 0 0 0 0 0 0 0 0 0 0 0 0 0 0 0 0 0 0 0 0 0 0 0 0 0 0 0 0 0 0 0 0 0 0 0 0 0 0 0 0 0 0 0 0 1690 0 0 0 0 0 0 0 0 0 0 0 0 0 0 0 0 0 0 0 0 0 0
595 587 0 0 0 0 0 0 0 0 0 0 0 0 0 0 0 0 0 0 0 0 0 0 0 1860 1887 0 0 0 0 0 0 0 0 0 0 0 0 0 0 0 0 0 0 0 0 2961 2911 2933 2949 2945 2914 2872 2869 2839 2945 2882 2867 2874 2909 2950 2909 2879 2926 2949 0 0 0 0 0 0 0 0 0 0 0 0 0 0 0 0 0 0 0 0 0 0 0 0 0 0 0 0 0 0 1678 0 0 0 0 0 0 0 0 0 0 0 0 0 0 0 0 0 0 0 0 0 0 0
564 584 595 583 622 652 0 0 0 0 0 0 0 0 0 0 0 0 0 0 0 0 0 0 0 0 0 1922 0 0 0 0 0 0 0 0 0 0 0 0 0 0 0 0 0 0 0 2890 2873 2896 2992 2920 2886 2962 2904 2960 2965 2924 2871 2924 2866 2873 2879 2884 2895 2924 0 0 0 0 0 0 0 0 0 0 0 0 0 0 0 0 0 0 0 0 0 0 0 0 0 0 0 0 0 0 0 0 0 0 0 0 0 0 0 0 0 0 0 0 0 0 0 0 0 0 0 0 0 0
571 570 596 604 607 621 635 662 593 0 0 0 0 0 0 0 0 0 0 0 0 0 0 0 0 0 0 0 0 0 0 0 0 0 0 0 0 0 0 0 0 0 0 0 0 0 0 2935 2872 2953 2913 2953 2935 2865 2901 2924 2908 2912 2872 2882 2915 2903 2919 2859 2932 2944 0 0 0 0 0 0 0 0 0 0 0 0 0 0 0 0 0 0 0 0 0 0 0 0 0 0 0 0 0 0 0 0 0 0 0 0 0 0 0 0 0 0 0 0 0 0 0 0 0 0 0 0 0 0
556 587 614 597 619 626 627 641 677 664 644 741 0 0 0 0 0 0 0 0 0 0 0 0 0 0 0 0 0 0 0 0 0 0 0 0 0 0 0 0 0 0 0 0 0 0 0 2960 2943 2861 2916 2931 2899 2919 2861 2912 2844 2874 2858 2871 2900 2921 2905 2923 2842 2894 0 0 0 0 0 0 0 0 0 0 0 0 0 0 0 0 0 0 0 0 0 0 0 0 0 0 0 0 0 0 0 0 0 0 0 0 0 0 0 0 0 0 0 0 0 0 0 0 0 0 0 0 0 0
560 584 591 607 626 627 638 618 654 669 683 693 702 730 733 0 0 0 0 0 0 0 0 0 0 0 0 0 0 0 0 0 0 0 0 0 0 0 0 0 0 0 0 0 0 0 0 2903 2935 2925 2943 2950 2918 2882 2901 2924 2882 2893 2907 2913 2935 2943 2914 2945 2899 2881 0 0 0 0 0 0 0 0 0 0 0 0 0 0 0 0 0 0 0 0 0 0 0 0 0 0 0 0 0 0 0 0 0 0 0 0 0 0 0 0 0 0 0 0 0 0 0 0 0 0 0 0 0 0
731 744 756 737 730 661 665 672 683 664 687 699 717 735 759 757 793 810 0 0 0 0 0 0 0 0 0 0 0 0 0 0 0 0 0 0 0 0 0 0 0 0 0 0 0 0 0 2921 2941 2917 2906 2921 2927 2908 2908 2922 2914 2915 2942 2906 2880 2907 2876 2888 2928 0 0 0 0 0 0 0 0 0 0 0 0 0 0 0 0 0 0 0 0 0 0 0 0 0 0 0 0 0 0 0 0 0 0 0 0 0 0 0 0 0 0 0 0 0 0 0 0 0 0 0 0 0 0 0
778 788 810 816 835 859 847 857 851 789 754 746 734 731 730 756 789 800 784 834 839 0 0 0 0 0 0 0 0 0 0 0 0 0 0 0 0 0 0 0 0 0 0 0 0 0 0 2929 2906 2888 2920 2902 2921 2887 2937 2870 2845 2893 2912 2899 2888 2906 2878 2929 2865 2874 0 0 0 0 0 0 0 0 0 0 0 0 0 0 0 0 0 0 0 0 0 0 0 0 0 0 0 0 0 0 0 0 0 0 0 0 0 0 0 0 0 0 0 0 0 0 0 0 0 0 0 0 0 0
775 812 819 818 849 855 876 897 886 897 913 908 932 902 864 821 761 777 786 813 836 856 890 868 0 0 0 0 0 0 0 0 0 0 0 0 0 0 0 0 0 0 0 0 0 0 0 2925 2916 2921 2892 2886 2908 2914 2916 2928 2877 2867 2923 2908 2896 2906 2869 2901 2942 2946 0 0 0 0 0 0 0 0 0 0 0 0 0 0 0 0 0 0 0 0 0 0 0 0 0 0 0 0 0 0 0 0 0 0 0 0 0 0 0 0 0 0 0 0 0 0 0 0 0 0 0 0 0 0
624 0 844 830 842 843 852 892 903 915 925 946 947 964 948 940 943 917 904 838 849 854 856 895 921 933 0 0 0 0 0 0 0 0 0 0 0 0 0 0 0 0 0 0 0 0 0 2961 2924 2904 2924 2949 2902 2892 2885 2937 2909 2900 2911 2966 2935 2889 2909 2863 2902 2913 0 0 0 0 0 0 0 0 0 0 0 0 0 0 0 0 0 0 0 0 0 0 0 0 0 0 0 0 0 0 0 0 0 0 0 0 0 0 0 0 0 0 0 0 0 0 0 0 0 0 0 0 0 0
666 933 934 938 959 901 897 935 900 930 948 939 952 955 956 948 956 946 951 944 954 924 932 910 916 914 1000 991 1013 0 0 0 0 0 0 0 0 0 0 0 0 0 0 0 0 0 0 2898 2914 2921 2935 2875 2916 2881 2905 2941 2954 2892 2888 2860 2874 2885 2915 2864 2912 0 0 0 0 0 0 0 0 0 0 0 0 0 0 0 0 0 0 0 0 0 0 0 0 0 0 0 0 0 0 0 0 0 0 0 0 0 0 0 0 0 0 0 0 0 0 0 0 0 0 0 0 0 0 0
574 653 0 0 0 0 0 0 0 0 992 1003 987 974 973 976 966 955 945 955 939 938 961 946 974 952 973 979 1050 1035 1080 0 0 0 0 0 0 0 0 0 0 0 0 0 0 0 0 2919 2899 2942 2918 2901 2910 2927 2921 2927 2883 2932 2920 2915 2882 2923 2887 2872 2929 2864 0 0 0 0 0 0 0 0 0 0 0 0 0 0 0 0 0 0 0 0 0 0 0 0 0 0 0 0 0 0 0 0 0 0 0 0 0 0 0 0 0 0 0 0 0 0 0 0 0 0 0 0 0 0
607 594 568 0 1134 1137 1161 1147 1160 1151 1159 1144 1159 1141 1159 1144 1130 1047 0 0 1015 1082 1057 1014 997 1032 1127 1137 1118 1099 1120 0 0 0 0 0 0 0 0 0 0 0 0 0 0 0 0 2896 2967 2863 2906 2917 2903 2917 2887 2926 2873 2857 2890 2885 2862 2901 2887 2866 2903 2874 0 0 0 0 0 0 0 0 0 0 0 0 0 0 0 0 0 0 0 0 0 0 0 0 0 0 0 0 0 0 0 0 0 0 0 0 0 0 0 0 0 0 0 0 0 0 0 0 0 0 0 0 0 0
591 584 593 611 0 0 0 0 0 0 0 0 0 0 0 0 1356 1014 0 0 0 1147 1081 0 0 1110 1163 1140 1139 1150 1144 0 0 0 0 0 0 0 0 0 0 0 0 0 0 0 0 2917 2876 2877 2901 2953 2918 2908 2900 2871 2893 2849 2887 2886 2877 2929 2884 2898 2867 2894 0 0 0 0 0 0 0 0 0 0 0 0 0 0 0 0 0 0 0 0 0 0 0 0 0 0 0 0 0 0 0 0 0 0 0 0 0 0 0 0 0 0 0 0 0 0 0 0 0 0 0 0 0 0
591 606 617 590 622 0 0 0 0 0 0 0 0 0 0 0 0 1004 995 0 0 0 0 0 0 0 0 0 0 0 0 0 0 0 0 0 0 0 0 0 0 0 0 0 0 0 0 2879 2908 2920 2878 2915 2940 2903 2891 2962 2895 2852 2932 2898 2911 2917 2915 2899 2930 2877 0 0 0 0 0 0 0 0 0 0 0 0 0 0 0 0 0 0 0 0 0 0 0 0 0 0 0 0 0 0 0 0 0 0 0 0 0 0 0 0 0 0 0 0 0 0 0 0 0 0 0 0 0 0
603 574 612 593 610 590 0 0 0 0 0 0 0 0 0 0 0 0 0 0 0 0 0 0 0 0 0 0 0 0 0 0 0 0 0 0 0 0 0 0 0 0 0 0 0 0 0 2953 2883 2932 2886 2940 2899 2899 2878 2928 2918 2920 2903 2939 2927 2885 2872 2916 2859 0 0 0 0 0 0 0 0 0 0 0 0 0 0 0 0 0 0 0 0 0 0 0 0 0 0 0 0 0 0 0 0 0 0 0 0 0 0 0 0 0 0 0 0 0 0 0 0 0 0 0 0 0 0 0
587 571 638 615 610 578 0 0 0 0 0 0 0 0 0 0 0 0 0 0 0 0 980 0 0 0 0 0 0 0 0 0 0 0 0 0 0 0 0 0 0 0 0 0 0 0 0 2896 2895 2907 2886 2929 2905 2888 2861 2912 2889 2895 2853 2924 2906 2862 2894 2917 2889 2845 0 0 0 0 0 0 0 0 0 0 0 0 0 0 0 0 0 0 0 0 0 0 0 0 0 0 0 0 0 0 0 0 0 0 0 0 0 0 0 0 0 0 0 0 0 0 0 0 0 0 0 0 0 0
591 631 600 600 615 612 0 0 0 0 0 0 0 0 0 0 0 0 0 0 0 0 977 0 0 0 0 0 0 0 0 0 0 0 0 0 0 0 0 0 0 0 0 0 0 0 0 2936 2939 2895 2900 2880 2914 2912 2910 2878 2913 2913 2884 2884 2840 2897 2889 2902 2875 0 0 0 0 0 0 0 0 0 0 0 0 0 0 0 0 0 0 0 0 0 0 0 0 0 0 0 0 0 0 0 0 0 0 0 0 0 0 0 0 0 0 0 0 0 0 0 0 0 0 0 0 0 0 0
587 570 617 585 587 581 615 0 0 0 0 0 0 0 0 0 0 0 0 0 0 0 0 0 0 0 0 0 0 0 0 0 0 0 0 0 0 0 0 0 0 0 0 0 0 0 0 2906 2887 2927 2933 2910 2901 2906 2875 2897 2933 2930 2866 2886 2892 2893 2868 2880 2837 0 0 0 0 0 0 0 0 0 0 0 0 0 0 0 0 0 0 0 0 0 0 0 0 0 0 0 0 0 0 0 0 0 0 0 0 0 0 0 0 0 0 0 0 0 0 0 0 0 0 0 0 0 0 0
582 585 585 645 607 628 636 0 0 0 0 0 0 0 0 0 2285 0 0 0 0 0 989 989 0 0 0 0 0 0 0 0 0 0 0 0 0 0 0 0 0 0 0 0 0 0 0 2933 2879 2886 2895 2872 2908 2912 2898 2863 2890 2895 2912 2904 2884 2872 2888 2900 2877 2857 0 0 0 0 0 0 0 0 0 0 0 0 0 0 0 0 0 0 0 0 0 0 0 0 0 0 0 0 0 0 0 0 0 0 0 0 0 0 0 0 0 0 0 0 0 0 0 0 0 0 0 0 0 0
608 627 577 611 576 641 591 0 0 0 0 0 0 0 0 0 0 0 0 0 0 0 0 0 0 0 0 0 0 0 0 0 0 0 0 0 0 0 0 0 0 0 0 0 0 0 0 2894 2894 2880 2935 2898 2884 2887 2892 2904 2868 2839 2869 2872 2871 2891 2892 2903 2862 2857 0 0 0 0 0 0 0 0 0 0 0 0 0 0 0 0 0 0 0 0 0 0 0 0 0 0 0 0 0 0 0 0 0 0 0 0 0 0 0 0 0 0 0 0 0 0 0 0 0 0 0 0 0 0
603 588 607 612 600 613 0 0 0 0 0 0 0 0 0 0 0 0 0 0 0 0 0 0 0 0 0 0 0 0 0 0 0 0 0 0 0 0 0 0 0 0 0 0 0 0 0 0 0 0 0 0 0 0 0 0 0 0 0 0 0 2920 2942 2854 2886 0 0 0 0 0 0 0 0 0 0 0 0 0 0 0 0 0 0 0 0 0 0 0 0 0 0 0 0 0 0 0 0 0 0 0 0 0 0 0 0 0 0 0 0 0 0 0 0 0 0 0 0 0 0 0
596 594 617 574 588 579 0 0 0 0 0 0 0 0 0 0 0 0 0 0 0 0 0 0 0 0 0 0 0 0 0 0 0 0 0 0 0 0 0 0 0 0 0 0 0 0 0 0 0 0 0 0 0 0 0 0 0 0 0 0 0 0 0 0 0 0 0 0 0 0 0 0 0 0 0 0 0 0 0 0 0 0 0 0 0 0 0 0 0 0 0 0 0 0 0 0 0 0 0 0 0 0 0 0 0 0 0 0 0 0 0 0 0 0 0 0 0 0 0 0
590 615 632 591 595 0 0 0 0 0 0 0 0 0 0 0 0 0 0 0 0 0 0 0 0 0 0 0 0 0 0 0 0 0 0 0 0 0 0 0 0 0 0 0 0 0 0 0 0 0 0 0 0 0 0 0 0 0 0 0 0 0 0 0 0 0 0 0 0 0 0 0 0 0 0 0 0 0 0 0 0 0 0 0 0 0 0 0 0 0 0 0 0 0 0 0 0 0 0 0 0 0 0 0 0 0 0 0 0 0 0 0 0 0 0 0 0 0 0 0
595 580 616 610 601 0 0 0 0 0 0 0 0 0 0 0 0 0 0 0 0 0 0 0 0 0 0 0 0 0 0 0 0 0 0 0 0 0 0 0 0 0 0 0 0 0 0 0 0 0 0 0 0 0 0 0 0 0 0 0 0 0 0 0 0 0 0 0 0 0 0 0 0 0 0 0 0 0 0 0 0 0 0 0 0 0 0 0 0 0 0 0 0 0 0 0 0 0 0 0 0 0 0 0 0 0 0 0 0 0 0 0 0 0 0 0 0 0 0 0
594 632 602 659 0 0 0 0 0 0 0 0 0 0 0 0 0 0 0 0 0 0 0 0 0 0 898 0 933 887 923 903 869 838 926 935 0 0 915 928 0 978 0 0 0 0 0 0 0 0 0 0 0 0 0 0 0 0 0 0 0 0 0 0 0 0 0 0 0 0 0 0 0 0 0 0 0 0 0 0 0 0 0 0 0 0 0 0 0 0 0 0 0 0 0 0 0 0 0 0 0 0 0 0 0 0 0 0 0 0 0 0 0 0 0 0 0 0 0 0
547 568 588 0 0 0 0 693 718 695 685 672 683 705 702 667 668 693 731 710 682 735 677 705 687 687 733 725 709 748 713 685 720 716 776 762 699 748 751 758 754 750 775 772 746 804 759 767 786 765 793 729 735 755 798 759 752 772 808 782 832 795 801 800 735 775 828 806 810 767 804 812 798 0 0 0 0 0 0 0 0 0 0 0 0 0 0 0 0 0 0 0 0 0 0 0 0 0 0 0 0 0 0 0 0 0 0 0 0 0 0 0 0 0 0 0 0 0 0 0
551 572 616 595 562 532 558 598 553 556 585 599 577 559 613 602 576 571 597 601 591 586 585 615 600 620 617 611 643 616 600 598 585 575 609 614 621 599 607 622 629 637 606 602 596 608 609 637 641 655 644 622 620 659 614 628 630 664 676 651 648 643 636 605 669 649 636 649 670 667 634 660 706 665 640 635 689 639 659 667 653 677 662 696 722 671 717 715 710 695 686 664 747 707 672 0 715 740 745 725 653 762 0 0 0 0 0 0 0 0 0 0 0 0 0 0 0 0 0 0
518 497 479 502 473 516 498 492 512 506 499 485 509 498 510 522 471 504 503 478 506 496 488 492 523 497 506 491 511 537 512 508 526 512 518 514 532 514 532 520 522 523 534 516 502 536 496 514 525 533 517 561 527 519 525 521 522 543 522 528 527 553 522 540 548 512 539 563 520 545 522 550 589 544 511 565 535 533 559 559 542 576 546 569 558 549 582 554 559 545 576 573 561 591 572 567 574 563 607 602 596 562 633 576 0 565 0 562 594 587 0 0 0 0 0 0 0 0 0 0
399 397 406 432 438 435 471 443 466 445 435 441 438 447 458 443 430 473 428 457 464 463 440 451 457 442 454 442 469 458 458 460 458 460 469 458 480 463 456 454 475 465 470 475 484 450 471 452 480 459 470 465 471 472 474 473 480 477 465 473 496 467 474 497 460 481 457 487 475 469 488 464 491 502 490 493 469 497 481 482 476 502 486 492 499 488 538 489 519 482 517 493 493 495 474 498 512 476 486 487 478 494 483 489 534 475 534 533 539 487 520 518 0 0 0 0 0 0 0 0
382 379 379 380 376 391 388 391 397 384 389 386 390 397 388 394 392 406 400 406 397 400 399 395 409 405 392 407 393 400 408 405 410 410 420 404 406 409 419 405 403 411 425 410 421 411 411 411 414 407 404 412 403 415 435 419 420 428 416 429 412 428 406 416 417 426 409 431 424 417 410 422 425 416 428 412 424 429 434 434 426 417 434 419 439 433 440 440 414 421 432 432 419 433 428 422 436 425 423 447 419 440 466 436 432 398 438 429 423 415 428 420 425 406 0 0 0 0 0 0
352 349 340 345 366 381 359 368 362 358 376 358 358 361 367 368 366 364 360 369 375 368 374 374 362 365 364 365 364 359 365 394 360 371 375 364 377 379 385 373 363 378 363 376 362 370 391 384 387 379 388 379 382 376 381 384 375 386 373 375 390 388 381 381 391 375 379 381 396 395 378 382 395 392 394 387 400 401 395 393 383 396 405 397 398 396 385 400 377 410 394 394 402 391 398 381 400 397 392 409 401 397 421 389 403 417 396 395 387 394 382 383 391 390 392 381 0 0 0 0
317 320 320 302 310 309 331 311 336 339 324 325 323 330 342 326 325 324 319 335 345 333 339 328 338 317 330 348 351 331 338 326 338 337 338 342 323 343 328 338 336 333 333 332 332 336 342 336 346 364 344 344 341 345 338 343 341 334 335 341 341 351 337 339 355 339 352 333 347 339 347 350 352 342 348 349 345 356 343 346 339 360 340 351 348 346 358 346 357 361 360 349 365 358 344 334 348 342 362 362 360 346 352 345 333 373 351 361 366 358 372 356 343 356 334 332 345 0 0 0
290 308 298 287 293 303 302 305 297 303 302 291 291 293 299 293 297 298 295 299 307 302 308 308 290 293 280 305 306 293 300 302 300 307 308 307 302 304 304 308 310 305 313 315 314 299 320 309 301 307 302 309 314 317 303 310 315 305 312 310 310 311 305 327 312 310 325 308 318 316 308 310 309 309 315 309 317 308 316 315 320 308 321 312 310 322 332 330 324 321 336 313 310 317 321 330 314 337 315 341 347 324 318 312 342 323 332 334 330 329 327 338 323 320 334 333 325 331 329 0
276 270 272 270 266 277 275 278 268 273 274 274 281 283 283 286 279 291 274 284 271 276 277 277 278 278 283 280 285 275 271 276 279 285 274 279 287 283 284 283 287 283 284 278 277 283 281 285 284 288 293 283 291 279 280 294 281 284 278 286 290 287 281 293 294 291 286 276 291 296 296 293 292 288 291 291 289 283 290 291 284 294 286 287 286 292 286 296 299 299 301 290 287 300 301 298 285 285 304 285 297 294 292 300 282 290 299 297 284 273 293 287 280 307 298 280 293 292 282 284
256 254 255 260 246 250 244 257 245 249 253 252 255 256 259 257 261 258 250 257 260 257 258 252 257 260 258 253 253 260 258 267 258 264 260 264 260 265 260 267 262 260 269 257 264 265 263 257 267 258 266 266 267 263 267 262 266 263 264 261 270 266 268 261 264 264 261 264 265 269 263 267 268 267 269 261 268 269 271 265 264 261 250 266 269 271 266 260 264 269 266 265 280 269 262 266 261 274 271 274 273 274 263 272 266 269 291 279 275 269 269 282 271 269 276 248 292 284 264 276
234 232 235 238 233 238 237 233 238 237 233 231 242 241 238 241 238 237 248 242 234 234 236 238 246 237 239 240 241 249 241 248 248 235 244 253 246 247 250 252 244 246 245 237 255 239 251 246 244 255 244 246 246 249 252 239 244 249 248 249 250 253 246 252 249 253 249 249 245 252 251 244 249 253 256 241 253 249 247 245 245 252 249 248 248 256 249 247 250 259 250 260 258 251 250 252 241 249 247 253 251 254 254 249 258 247 242 236 252 254 251 258 258 255 234 272 240 246 273 219
216 215 217 218 221 227 227 214 219 214 217 226 218 229 221 220 224 224 222 224 225 222 228 238 225 224 227 225 229 225 227 228 230 230 235 238 221 237 227 232 229 236 232 224 234 235 225 238 232 235 228 227 230 227 229 232 227 227 236 234 236 231 230 235 236 228 234 232 234 233 228 232 231 234 232 235 231 225 228 233 236 231 238 230 237 225 233 234 240 226 234 234 240 227 227 232 231 227 232 242 233 233 238 236 236 233 244 231 238 245 234 236 239 249 240 230 237 242 219 215
203 201 219 222 208 204 202 204 210 214 207 208 210 213 212 210 215 206 211 215 214 205 214 207 209 209 213 216 212 215 213 215 210 213 213 215 212 196 200 219 214 218 199 215 218 217 200 198 217 218 214 196 205 203 220 216 220 202 219 206 203 219 218 224 203 215 219 220 218 227 221 218 225 205 219 217 224 216 218 221 218 218 222 225 219 219 220 216 219 217 221 226 225 195 229 217 227 214 227 223 210 213 223 224 218 220 214 217 230 224 216 223 228 230 218 200 222 210 203 215
191 202 201 201 207 202 203 202 185 197 199 198 187 196 189 188 194 192 208 205 194 189 197 191 187 190 184 197 185 195 184 187 191 192 200 192 186 195 199 194 199 193 195 189 196 193 194 196 200 193 195 192 191 194 194 198 199 194 193 196 198 194 197 195 197 199 194 194 198 195 216 196 199 194 192 197 196 196 197 192 185 199 201 194 213 197 194 189 192 211 210 210 196 213 209 193 190 208 210 197 213 212 207 196 205 215 189 208 209 206 210 210 213 213 194 202 202 175 206 218
178 178 196 194 192 177 180 182 177 181 183 177 180 184 184 180 187 183 187 187 181 185 191 186 181 181 194 192 185 194 189 185 193 188 191 193 194 193 190 194 191 197 196 198 199 194 197 196 198 196 199 196 195 196 190 196 191 197 196 201 194 195 193 200 200 196 196 198 199 197 198 194 191 199 192 191 196 196 191 191 192 197 191 191 184 196 190 193 184 187 193 183 192 192 191 192 180 182 188 191 187 188 183 187 185 184 185 190 194 190 187 183 184 199 182 197 174 171 201 188
176 173 176 178 172 180 182 178 178 176 182 182 186 184 183 177 182 184 182 181 188 185 182 182 178 187 183 188 184 188 184 188 191 184 180 185 181 187 187 183 184 180 186 185 186 189 185 196 190 185 185 190 186 193 192 187 191 192 185 191 190 192 188 190 193 188 182 192 188 190 192 190 189 187 184 185 193 188 188 186 191 188 185 190 188 188 191 187 188 193 182 194 188 185 190 185 190 186 184 187 186 178 179 186 180 181 178 183 173 176 185 174 177 173 177 177 172 196 180 187
175 168 164 169 173 168 169 179 168 167 173 173 175 169 177 175 169 185 178 180 178 176 174 168 171 174 177 174 168 178 173 180 172 173 174 175 175 176 180 187 178 182 177 177 181 181 182 181 183 184 179 179 181 181 179 180 178 180 180 176 176 178 184 187 185 179 180 183 180 180 183 179 177 181 178 178 182 183 184 177 181 179 178 176 181 181 178 184 178 180 180 177 172 181 181 178 177 181 180 177 180 175 187 180 182 180 173 171 168 176 182 175 181 178 176 172 174 176 172 196
163 163 165 166 163 169 158 162 170 165 168 163 162 168 159 169 169 170 170 170 169 168 171 170 172 162 168 171 172 172 171 166 167 163 167 167 168 171 168 170 166 170 175 175 168 172 167 175 176 174 172 174 176 175 177 171 169 175 174 171 171 173 172 170 176 167 176 174 174 172 170 173 168 169 169 171 170 175 171 170 170 169 173 169 170 171 172 172 174 173 171 172 171 168 166 169 179 168 171 178 171 169 167 171 172 176 173 165 160 164 166 166 175 171 170 170 172 169 172 167
157 159 162 162 159 164 161 161 156 160 161 163 160 165 163 164 163 159 165 169 163 164 169 162 162 163 161 159 161 164 166 166 162 167 159 160 165 162 160 163 161 166 162 160 163 168 167 161 166 164 164 170 168 164 168 168 168 170 164 168 164 165 166 166 166 170 163 165 160 163 159 161 165 169 167 167 167 165 167 167 160 162 165 163 164 168 165 159 162 165 167 164 162 162 166 160 164 163 168 171 172 169 163 165 162 156 168 159 165 161 162 159 162 166 174 159 177 151 165 173
141 146 151 148 152 146 149 153 152 156 145 150 152 149 154 156 145 156 151 164 154 152 152 155 150 155 152 159 161 159 154 155 153 160 155 153 152 153 153 158 156 156 157 155 157 156 157 158 157 161 155 157 159 161 160 157 157 156 157 160 163 157 162 159 156 161 156 157 158 152 160 160 156 162 159 160 162 159 159 153 153 156 156 158 151 158 157 160 161 156 159 157 158 158 162 155 156 159 157 161 156 154 154 158 160 151 156 153 155 158 143 158 150 153 160 146 149 151 157 150
141 140 145 144 148 139 141 144 144 148 152 151 149 144 146 140 147 147 144 149 150 155 146 152 150 145 147 156 151 146 151 148 148 148 144 143 150 150 150 145 153 151 147 153 152 146 149 149 150 150 153 155 147 145 148 146 153 146 156 160 152 152 149 154 147 149 149 151 150 152 148 156 151 153 152 152 154 157 152 154 148 155 151 145 142 147 153 151 153 151 149 152 154 155 157 150 148 150 151 152 151 153 153 153 153 149 145 149 141 150 156 139 149 146 155 144 145 138 151 112
134 135 136 137 138 140 136 137 138 139 141 144 139 145 136 136 148 138 140 146 139 141 142 151 141 144 148 145 144 142 139 141 141 142 142 145 145 146 143 146 143 148 144 148 143 147 141 142 142 144 130 145 146 145 142 132 145 147 149 147 150 129 142 147 146 142 145 148 147 144 143 147 148 143 142 145 156 147 149 147 141 146 143 138 141 144 151 141 150 149 152 150 145 147 147 153 139 146 152 149 146 149 149 141 142 143 140 141 142 145 140 145 143 150 150 142 141 144 142 140
130 135 132 134 132 138 140 135 138 137 138 0 133 138 136 134 139 139 136 140 144 141 141 136 141 145 146 138 139 129 128 127 130 131 131 131 141 138 127 140 129 143 142 140 130 141 131 141 124 140 133 130 133 142 136 144 145 135 132 142 136 131 142 149 141 131 141 144 143 127 130 140 128 143 143 140 144 139 142 142 146 139 130 131 139 129 146 141 140 142 128 145 145 145 143 139 142 143 143 141 140 140 145 142 140 133 136 140 146 139 129 137 131 139 137 140 134 124 135 138
136 127 130 131 138 137 141 132 131 135 132 133 141 136 135 133 126 137 136 135 141 139 137 139 140 136 134 138 138 124 124 125 129 128 130 126 127 129 129 123 144 130 129 138 0 141 130 127 125 124 122 129 130 134 0 144 0 129 129 128 142 129 134 132 129 130 144 127 140 127 127 126 126 140 130 128 134 125 130 126 138 125 129 124 139 137 140 121 128 145 125 138 137 140 135 135 142 141 141 141 135 135 137 134 136 132 135 130 133 130 130 132 129 136 129 139 128 148 136 142
114 105 123 107 127 130 136 124 117 115 120 120 114 132 122 125 120 123 121 119 121 125 128 127 126 139 136 137 0 136 127 120 119 124 122 119 129 125 124 116 125 129 127 133 0 0 130 125 128 119 121 119 123 125 126 129 132 130 125 122 125 122 128 129 124 124 128 129 123 124 128 122 122 120 116 121 119 129 125 124 126 123 129 123 124 138 122 127 128 128 123 125 123 123 124 117 132 137 135 126 130 122 122 121 114 118 118 120 128 132 118 133 139 137 117 100 128 118 114 101
105 113 121 113 109 115 122 113 127 117 122 118 113 125 118 114 113 118 120 116 120 123 128 122 123 125 127 125 125 123 131 0 124 118 110 110 120 121 0 121 128 124 0 0 0 0 122 129 122 124 123 126 126 122 123 124 120 124 122 120 129 124 113 121 123 124 125 125 119 122 126 122 124 121 118 116 118 127 126 125 119 116 126 121 118 120 124 108 128 120 116 121 117 121 118 122 125 134 124 120 120 119 123 117 106 120 112 121 128 131 128 131 128 125 105 110 138 106 112 136
108 100 113 115 110 115 108 118 114 107 117 114 114 109 117 111 115 104 113 122 113 109 110 118 118 107 119 113 113 118 123 0 120 118 111 110 114 0 114 117 122 0 0 121 125 0 121 120 115 116 118 116 120 119 121 120 115 119 115 114 119 121 119 120 120 124 119 120 119 117 119 116 113 114 109 118 118 116 116 118 113 115 115 118 116 112 115 121 116 123 124 115 125 110 109 121 123 118 113 120 117 116 113 108 113 106 119 118 123 118 112 127 108 125 128 131 127 125 94 118
98 103 111 100 100 107 114 111 102 108 107 108 106 107 120 118 116 113 106 96 112 112 111 103 111 108 114 114 115 114 117 115 111 114 112 110 106 112 0 115 114 114 113 106 113 112 118 0 114 0 112 112 120 113 0 0 109 111 119 110 124 118 106 112 109 115 107 110 114 107 109 104 108 104 108 106 108 108 111 113 108 105 104 108 105 102 111 114 102 113 105 102 99 114 109 107 111 112 108 102 106 111 115 105 104 108 98 110 112 115 103 110 103 113 103 104 98 89 89 107
101 102 108 110 102 99 108 109 110 105 103 109 108 110 110 116 109 113 117 98 109 97 102 101 116 106 105 113 102 112 110 104 109 108 112 110 114 0 105 110 110 107 108 94 101 106 106 108 114 0 108 112 107 108 110 114 107 108 113 108 101 112 118 0 114 104 108 110 111 103 107 105 107 113 102 104 99 99 103 114 107 102 107 111 101 109 100 106 107 99 100 108 97 106 101 107 101 104 107 106 103 111 106 106 106 102 99 98 99 117 104 97 105 100 120 117 94 115 135 94
97 98 103 107 97 90 95 96 92 93 100 102 101 100 104 101 100 108 102 99 100 100 96 100 98 102 106 102 97 103 106 103 104 100 104 100 100 107 101 105 105 100 97 97 100 100 105 95 105 100 103 105 107 103 102 108 100 99 104 100 101 110 104 0 107 105 0 112 103 105 103 103 100 109 101 105 98 103 0 102 0 102 96 98 102 99 99 101 96 106 100 107 98 95 92 89 100 99 103 98 99 98 100 88 95 104 95 95 91 98 106 95 81 109 89 81 85 105 94 112
90 96 85 93 90 96 98 91 95 93 99 96 95 99 99 99 97 99 102 94 101 94 88 88 95 98 103 95 102 99 104 105 101 105 99 97 100 100 101 97 101 98 97 96 95 100 100 103 100 102 105 96 102 104 97 99 105 106 102 101 108 99 108 103 112 101 105 108 105 97 101 103 100 99 96 97 105 95 101 98 0 103 95 93 99 95 101 105 99 98 101 99 97 100 95 103 90 92 89 100 99 93 94 89 95 97 99 93 105 103 97 90 105 92 89 114 95 94 91 100
89 92 94 99 89 92 94 84 84 92 94 93 97 88 90 83 90 85 103 104 98 94 92 91 90 87 97 95 94 99 98 95 99 98 97 99 98 93 92 104 97 90 90 91 101 93 102 104 87 99 101 94 83 92 97 98 94 88 92 97 92 93 100 0 98 100 92 99 97 93 97 101 104 103 85 102 96 98 98 100 93 91 90 108 97 92 90 88 89 92 89 96 96 96 89 91 95 90 104 88 94 96 100 94 96 99 97 77 89 90 92 88 96 78 86 83 116 89 96 75
86 78 87 83 88 86 90 87 81 79 82 91 96 90 90 82 91 90 91 93 93 91 88 91 95 89 101 90 87 94 87 87 95 90 87 95 86 96 89 89 85 86 97 87 89 97 88 89 90 87 91 96 90 97 99 99 97 98 95 95 98 89 87 91 90 91 99 98 96 97 86 91 97 93 99 94 89 93 88 95 88 95 96 94 93 93 91 92 93 90 85 91 90 92 91 92 95 93 90 85 84 86 90 85 88 90 88 88 86 81 87 90 84 86 86 89 84 74 89 88
87 83 78 82 85 83 88 96 82 92 85 86 85 88 92 87 96 90 93 94 93 88 92 88 92 91 94 93 88 85 92 90 98 86 102 83 88 90 90 96 90 95 87 93 96 95 95 93 88 92 99 89 96 90 93 98 92 99 99 96 98 87 94 97 99 96 97 90 99 90 96 87 98 93 95 89 95 92 82 92 97 96 97 93 95 89 90 95 90 91 98 100 97 88 91 92 85 83 93 99 89 93 89 93 92 88 88 85 80 77 91 85 84 85 82 82 107 48 0 0
86 87 87 86 86 85 84 92 84 0 81 82 83 84 86 89 91 92 90 85 89 85 92 99 90 87 89 84 87 89 88 89 91 94 93 94 96 90 94 93 86 91 97 84 89 88 93 96 87 88 90 99 98 94 95 85 91 96 95 95 97 86 95 95 89 96 95 95 97 94 93 90 83 93 92 93 85 94 93 97 92 92 87 88 94 89 84 95 102 94 92 93 101 91 87 92 91 90 87 90 82 93 85 90 85 91 91 86 93 82 86 87 88 89 82 81 103 105 78 0
77 82 78 84 87 84 91 87 84 83 83 78 86 88 90 87 80 90 81 90 87 87 91 89 87 87 92 90 93 92 84 83 88 90 89 91 89 89 90 91 91 91 93 98 95 82 91 93 93 89 93 96 89 84 90 95 88 92 98 92 90 95 95 86 86 91 88 83 93 92 90 87 93 96 96 85 88 94 94 92 87 80 91 90 85 83 90 88 81 84 90 88 85 86 79 76 84 82 88 87 78 77 84 85 81 85 89 85 75 81 70 88 79 86 57 79 75 73 0 0
79 72 77 73 84 83 90 94 79 87 90 77 87 84 81 88 83 91 87 89 91 91 90 87 78 81 86 82 83 85 85 86 90 89 86 86 92 86 88 89 88 81 90 93 92 85 97 89 91 95 90 87 88 85 85 94 89 94 83 92 91 89 85 92 87 94 86 84 90 90 87 89 90 90 91 85 87 92 95 85 87 79 85 79 87 92 89 87 89 86 89 87 81 87 87 88 89 93 90 88 81 87 88 82 75 90 82 86 86 74 83 79 100 87 72 94 0 0 0 0
77 72 66 65 79 80 89 81 82 76 82 74 78 76 87 78 81 77 78 78 83 78 83 81 70 69 79 83 79 81 90 74 82 82 90 74 84 78 82 77 85 84 81 73 85 82 82 89 85 79 85 80 74 87 85 83 90 88 89 74 89 77 78 81 80 81 76 79 76 78 83 78 81 82 81 81 80 84 88 85 76 83 73 74 77 87 80 79 74 80 80 72 83 73 83 76 76 86 73 82 67 78 78 64 72 69 78 79 76 88 77 72 78 66 87 81 0 0 0 0
67 73 75 85 68 80 86 88 90 76 78 84 74 81 75 79 81 79 73 81 84 85 76 73 87 86 82 71 76 83 85 81 80 84 76 70 75 80 81 81 89 82 84 83 88 83 81 81 83 78 84 71 71 81 85 79 86 84 81 74 83 72 82 76 69 81 79 78 90 66 81 80 85 76 83 83 76 85 84 84 81 79 77 77 70 82 79 73 87 82 68 86 71 71 83 74 89 71 67 67 85 69 73 76 65 70 69 83 78 89 87 85 60 88 53 0 0 0 0 0
