0 0 0 0 0 0 0 0 0 0 0 0 0 0 0 0 0 0 0 0 0 0 0 0 0 0 0 0 0 0 0 0 0 0 0 0 0 0 0 0 0 0 0 0 0 0 0 0 0 0 0 0 0 0 0 0 0 0 0 0 0 0 0 0 0 0 0 0 0 0 0 0 0 0 0 0 0 0 0 0 0 0 0 0 0 0 0 0 0 0 0 0 0 0 0 0 0 0 0 0 0 0 0 0 0 0 0 0 0 0 0 0 0 0 0 0 0 0 0 0
0 0 0 0 0 0 0 0 0 0 0 0 0 0 0 0 0 0 0 0 0 0 0 0 0 0 0 0 0 0 0 0 0 0 0 0 0 0 0 0 0 0 0 0 0 0 0 0 0 0 0 0 0 0 0 0 0 0 0 0 0 0 0 0 0 0 0 0 0 0 0 0 0 0 0 0 0 0 0 0 0 0 0 0 0 0 0 0 0 0 0 0 0 0 0 0 0 0 0 0 0 0 0 0 0 0 0 0 0 0 0 0 0 0 0 0 0 0 0 0
0 0 0 0 0 0 0 0 0 0 0 0 0 0 0 0 1345 1304 0 0 0 0 1259 0 0 0 0 0 0 0 0 0 0 0 0 0 0 0 0 0 0 0 0 0 0 0 0 0 0 0 0 0 0 0 0 0 0 0 0 0 0 0 0 0 0 0 0 0 0 0 0 0 0 0 0 0 0 0 0 0 0 0 0 0 0 0 0 0 0 0 0 0 0 0 0 0 0 0 0 0 0 0 0 0 0 0 0 0 0 0 0 0 0 0 0 0 0 0 0 0
0 0 0 0 0 0 0 0 0 0 0 1138 1122 1143 0 0 1309 1293 1319 0 0 1315 1255 0 0 0 0 0 0 0 0 0 0 0 0 0 0 0 0 0 0 0 0 0 0 0 0 0 0 0 0 0 0 0 0 0 0 0 0 0 0 0 0 0 0 0 0 0 0 0 0 0 0 0 0 0 0 0 0 0 0 0 0 0 0 0 0 0 0 0 0 0 0 0 0 0 0 0 0 0 0 0 0 0 0 0 0 0 0 0 0 0 0 0 0 0 0 0 0 0
0 0 0 0 0 0 0 0 1139 1131 1126 1155 1190 1152 1172 0 1259 1318 1312 0 1297 1251 1261 0 0 0 0 0 0 0 0 0 0 0 0 0 0 0 0 0 0 0 0 0 0 0 0 0 0 0 0 0 0 0 0 0 0 0 0 0 0 0 0 0 0 0 0 0 0 0 0 0 0 0 0 0 0 0 0 0 0 0 0 0 0 0 0 0 0 0 0 0 0 0 0 0 0 0 0 0 0 0 0 0 0 0 0 0 0 0 0 0 0 0 0 0 0 0 0 0
0 0 0 0 0 0 0 1156 1118 1141 1167 0 1170 1190 1205 1238 1285 1301 1288 1295 1283 1291 1290 1290 0 0 0 0 0 0 0 1438 0 0 0 0 0 0 0 0 0 0 0 0 0 0 0 0 0 0 0 0 0 0 0 0 0 0 0 0 0 0 0 0 0 0 0 0 0 0 0 0 0 0 0 0 0 0 0 0 0 0 0 0 0 0 0 0 0 0 0 0 0 0 0 0 0 0 0 0 0 0 0 0 0 0 0 0 0 0 0 0 0 0 0 0 0 0 0 0
0 0 0 0 0 0 0 0 0 0 0 0 1199 1210 1226 1267 1277 1252 1284 1233 1306 1247 1248 1247 1312 0 0 0 0 0 0 1415 0 0 0 0 0 0 0 0 0 0 0 0 0 0 0 0 0 0 0 0 0 0 0 0 0 0 0 0 0 0 0 0 0 0 0 0 0 0 0 0 0 0 0 0 0 0 0 0 0 0 0 0 0 0 0 0 0 0 0 0 0 0 0 0 0 0 0 0 0 0 0 0 0 0 0 0 0 0 0 0 0 0 0 0 0 0 0 0
0 0 0 0 0 0 0 0 0 0 0 0 1258 1260 1264 1282 1285 1304 1258 1249 1251 1252 1246 1289 0 1315 1315 1369 1343 1312 0 1391 0 0 0 0 0 0 0 0 0 0 0 0 0 0 0 0 0 0 0 0 0 0 0 0 0 0 0 0 0 0 0 0 0 0 0 0 0 0 0 0 0 0 0 0 0 0 0 0 0 0 0 0 0 0 0 0 0 0 0 0 0 0 0 0 0 0 0 0 0 0 0 0 0 0 0 0 0 0 0 0 0 0 0 0 0 0 0 0
0 0 0 0 0 0 0 0 0 0 0 0 1243 1252 1240 1270 1286 1267 1255 1262 1261 1280 1271 1261 0 0 1343 1355 1331 1328 1342 1416 0 0 0 0 0 0 0 0 0 0 0 0 0 0 0 0 0 0 0 0 0 0 0 0 0 0 0 0 0 0 0 0 0 0 0 0 0 0 0 0 0 0 0 0 0 0 0 0 0 0 0 0 0 0 0 0 0 0 0 0 0 0 0 0 0 0 0 0 0 0 0 0 0 0 0 0 0 0 0 0 0 0 0 0 0 0 0 0
0 0 0 0 0 0 0 0 0 0 0 0 0 1272 1251 1305 1286 1250 1247 1241 1228 1248 1259 1255 1233 0 1325 1362 1348 1351 1357 1401 1381 0 0 0 0 0 0 0 0 0 0 0 0 0 0 0 0 0 0 0 0 0 0 0 0 0 0 0 0 0 0 0 0 0 0 0 0 0 0 0 0 0 0 0 0 0 0 0 0 0 0 0 0 0 0 0 0 0 0 0 0 0 0 0 0 0 0 0 0 0 0 0 0 0 0 0 0 0 0 0 0 0 0 0 0 0 0 0
0 0 0 0 0 0 0 0 0 0 0 0 0 0 0 0 0 0 0 0 0 1283 1256 1258 1312 0 0 1350 1379 1314 1369 1443 1422 0 0 0 0 0 0 0 0 0 0 0 0 0 0 0 0 0 0 0 0 0 0 0 0 0 0 0 0 0 0 0 0 0 0 0 0 0 0 0 0 0 0 0 0 0 0 0 0 0 0 0 0 0 0 0 0 0 0 0 0 0 0 0 0 0 0 0 0 0 0 0 0 0 0 0 0 0 0 0 0 0 0 0 0 0 0 0
0 0 0 0 0 0 0 0 0 0 0 0 0 0 0 0 0 0 0 0 0 0 0 1364 1331 0 0 1367 1330 1341 1360 1436 1413 0 0 0 0 0 0 0 0 0 0 0 0 0 0 0 0 0 0 0 0 0 0 0 0 0 0 0 0 0 0 0 0 0 0 0 0 0 0 0 0 0 0 0 0 0 0 0 0 0 0 0 0 0 0 0 0 0 0 0 0 0 0 0 0 0 0 0 0 0 0 0 0 0 1780 1748 0 0 0 0 0 0 0 0 0 0 0 0
0 0 0 0 0 0 0 0 0 0 0 0 0 0 0 0 0 0 0 0 0 0 0 1389 1378 1306 1276 1295 1351 1348 1343 1390 1451 0 0 0 0 0 0 0 0 0 0 0 0 0 0 0 0 0 0 0 0 0 0 0 0 0 0 0 0 0 0 0 0 0 0 0 0 0 0 0 0 0 0 0 0 0 0 0 0 0 0 0 0 0 0 0 0 0 0 0 0 0 0 0 0 0 0 0 0 0 0 0 0 0 1755 1745 1719 0 0 0 0 0 0 0 0 0 0 0
0 0 0 0 0 0 0 0 0 0 0 0 0 0 0 0 0 0 0 0 0 0 0 1386 1376 1364 1318 1312 1328 1368 1353 1398 1432 0 0 0 0 0 0 0 0 0 0 0 0 0 0 0 0 0 0 0 0 0 0 0 0 0 0 0 0 0 0 0 0 0 0 0 0 0 0 0 0 0 0 0 0 0 0 0 0 0 0 0 0 0 0 0 0 0 0 0 0 0 0 0 0 0 0 0 0 0 0 0 0 1761 1706 1719 1705 0 0 0 0 0 0 0 0 0 0 0
0 0 0 0 0 0 0 0 0 0 0 0 0 0 0 0 0 0 0 0 0 0 0 1340 1365 1376 1364 1330 1307 1323 1343 1414 1400 0 0 0 0 0 0 0 0 0 0 0 0 0 0 0 0 0 0 0 0 0 0 0 0 0 0 0 0 0 0 0 0 0 0 0 0 0 0 0 0 0 0 0 0 0 0 0 0 0 0 0 0 0 0 0 0 0 0 0 0 0 0 0 0 0 0 0 0 0 0 0 0 1718 1731 0 0 0 0 0 0 0 0 0 0 0 0 0
0 0 0 0 0 0 0 0 0 0 0 0 0 0 0 0 0 0 0 0 0 0 0 1333 1355 1392 1377 1379 1362 1313 1342 1429 1422 0 0 0 0 0 0 0 0 0 0 0 0 0 0 0 0 0 0 0 0 0 0 0 0 0 0 0 0 0 0 0 0 0 0 0 0 0 0 0 0 0 0 0 0 0 0 0 0 0 0 0 0 0 0 0 0 0 0 0 0 0 0 0 0 0 0 0 0 0 0 0 0 1794 0 1715 1647 0 0 0 0 0 0 0 0 0 0 0
1254 1262 1270 1272 1266 1321 1330 0 0 0 0 0 0 0 0 0 0 0 0 0 0 0 0 0 1371 1390 1376 1370 1386 1366 1364 1429 1408 0 0 0 0 0 0 0 0 0 0 0 0 0 0 0 0 0 0 0 0 0 0 0 0 0 0 0 0 0 0 0 0 0 0 0 0 0 0 0 0 0 0 0 0 0 0 0 0 0 0 0 0 0 0 0 0 0 0 0 0 0 0 0 0 0 0 0 0 0 0 0 1781 1770 1703 1686 1777 1737 0 0 0 0 0 0 0 0 0 0
1223 1235 1241 1265 1260 1291 1302 1332 1314 1322 1371 0 0 0 0 0 0 0 0 0 0 0 0 1377 1357 1365 1347 1373 1370 1341 1358 1425 1411 0 0 0 0 0 0 0 0 0 0 0 0 0 0 0 0 0 0 0 0 0 0 0 0 0 0 0 0 0 0 0 0 0 0 0 0 0 0 0 0 0 0 0 0 0 0 0 0 0 0 0 0 0 0 0 0 0 0 0 0 0 0 0 0 0 0 0 0 0 0 1771 1743 1704 1694 1714 1767 1710 0 1677 0 0 0 0 0 0 0 0
1291 1288 1287 1270 1272 1302 1308 1314 1315 1345 1333 1381 1388 1390 1423 1420 1488 0 0 0 0 0 0 0 0 1397 0 0 1385 0 0 1451 1437 0 0 0 0 0 0 0 0 0 0 0 0 0 0 0 0 0 0 0 0 0 0 0 0 0 0 0 0 0 0 0 0 0 0 0 0 0 0 0 0 0 0 0 0 0 0 0 0 0 0 0 0 0 0 0 0 0 0 0 0 0 0 0 0 0 0 0 0 0 1824 1761 1787 1699 1719 1693 1713 1727 1705 1668 0 0 0 0 0 0 0 0
0 0 0 0 1312 1306 1308 1324 1329 1345 1349 1353 1364 1373 1389 1407 1415 1434 1457 1469 1479 0 0 0 0 0 0 0 0 0 0 1453 1420 1460 0 0 0 0 0 0 0 0 0 0 0 0 0 0 0 0 0 0 0 0 0 0 0 0 0 0 0 0 0 0 0 0 0 0 0 0 0 0 0 0 0 0 0 0 0 0 0 0 0 0 0 0 0 0 0 0 0 0 0 0 0 0 0 0 0 0 0 0 1844 1758 1755 1750 1710 1733 1688 1703 0 0 0 0 0 0 0 0 0 0
0 0 0 0 0 0 0 0 0 1308 1305 1366 1352 1361 1372 1395 1403 1414 1430 1439 1489 1519 0 0 0 0 0 0 0 0 0 1425 1473 1458 0 0 0 0 0 0 0 0 0 0 0 0 0 0 0 0 0 0 0 0 0 0 0 0 0 0 0 0 0 0 0 0 0 0 0 0 0 0 0 0 0 0 0 0 0 0 0 0 0 0 0 0 0 0 0 0 0 0 0 0 0 0 0 0 0 0 0 0 0 1737 1692 1636 1619 1611 1616 1571 1576 1612 1577 1589 1614 0 0 0 0 0
0 0 0 0 0 0 0 0 0 0 0 0 0 0 0 1409 1421 1424 1444 1424 1434 1496 0 0 0 0 0 0 0 0 0 0 1489 0 0 0 0 0 0 0 0 0 0 0 0 0 0 0 0 0 0 0 0 0 0 0 0 0 0 0 0 0 0 0 0 0 0 0 0 0 0 0 0 0 0 0 0 0 0 0 0 0 0 0 0 0 0 0 0 0 0 0 0 0 0 0 0 0 0 0 0 1755 1669 1637 1627 1601 1622 1609 1586 1605 1602 1647 1605 1609 1595 0 0 0 0 0
0 0 0 0 0 0 0 0 0 0 0 0 0 0 0 0 0 0 0 0 0 1482 0 0 0 0 0 0 0 0 0 0 0 0 0 0 0 0 0 0 0 0 0 0 0 0 0 0 0 0 0 0 0 0 0 0 0 0 0 0 0 0 0 0 0 0 0 0 0 0 0 0 0 0 0 0 0 0 0 0 0 0 0 0 0 0 0 0 0 0 0 0 0 0 0 0 0 0 0 0 0 1580 1594 1617 1585 1581 1598 1594 1598 1579 1604 1549 1533 1562 0 0 0 0 0 0
0 0 0 0 0 0 0 0 0 0 0 0 0 0 0 0 0 0 0 0 0 0 0 0 0 0 0 0 0 0 0 0 0 0 0 0 0 0 0 0 0 0 0 0 0 0 0 0 0 0 0 0 0 0 0 0 0 0 0 0 0 0 0 0 0 0 0 0 0 0 0 0 0 0 0 0 0 0 0 0 0 0 0 0 0 0 0 0 0 0 0 0 0 0 0 0 0 0 0 0 0 0 1546 1566 1597 1598 1575 1560 1600 1618 1606 1557 0 0 0 0 0 0 0 0
0 0 0 0 0 0 0 0 0 0 0 0 0 0 0 0 0 0 0 0 0 0 0 0 0 0 0 0 0 0 0 0 0 0 0 0 0 0 0 0 0 0 0 0 0 0 0 0 0 0 0 0 0 0 0 0 0 0 0 0 0 0 0 0 0 0 0 0 0 0 0 0 0 0 0 0 0 0 0 0 0 0 0 0 0 0 0 0 0 0 0 0 0 0 0 0 0 0 0 0 0 0 0 0 0 0 0 1587 0 0 0 0 0 0 0 0 0 0 0 0
0 0 0 0 0 0 0 0 0 0 0 0 0 0 0 0 0 0 0 0 0 0 0 0 0 0 0 0 0 0 0 0 0 0 0 0 0 0 0 0 0 0 0 0 0 0 0 0 0 0 0 0 0 0 0 0 0 0 0 0 0 0 0 0 0 0 0 0 0 0 0 0 0 0 0 0 0 0 0 0 0 0 0 0 0 0 0 0 0 0 0 0 0 0 0 0 0 0 0 0 0 0 0 0 0 0 0 0 0 0 0 0 0 0 0 0 0 0 0 0
575 570 0 0 0 0 0 0 0 0 0 0 0 0 0 0 0 0 0 0 0 0 0 0 0 1852 1916 0 0 0 0 0 0 0 0 0 0 0 0 0 0 0 0 0 0 0 0 2904 2904 2907 2885 2892 2896 2893 2909 2885 2933 2898 2875 2925 2910 2883 2926 2881 2880 2852 0 0 0 0 0 0 0 0 0 0 0 0 0 0 0 0 0 0 0 0 0 0 0 0 0 0 0 0 0 0 1663 0 0 0 0 0 0 0 0 0 0 0 0 0 0 0 0 0 0 0 0 0 0 0
570 593 595 576 628 673 0 0 0 0 0 0 0 0 0 0 0 0 0 0 0 0 0 0 0 0 0 1952 1998 0 0 0 0 0 0 0 0 0 0 0 0 0 0 0 0 0 0 2864 2886 2936 2924 2882 2900 2856 2909 2853 2870 2861 2915 2896 2896 2900 2846 2882 2885 2929 0 0 0 0 0 0 0 0 0 0 0 0 0 0 0 0 0 0 0 0 0 0 0 0 0 0 0 0 0 0 0 0 0 0 0 0 0 0 0 0 0 0 0 0 0 0 0 0 0 0 0 0 0 0
590 580 574 601 626 637 637 650 679 0 0 0 0 0 0 0 0 0 0 0 0 0 0 0 0 0 0 0 0 0 0 0 0 0 0 0 0 0 0 0 0 0 0 0 0 0 0 2934 2908 2926 2907 2935 2920 2918 2903 2902 2909 2905 2899 2897 2917 2909 2879 2894 2899 0 0 0 0 0 0 0 0 0 0 0 0 0 0 0 0 0 0 0 0 0 0 0 0 0 0 0 0 0 0 0 0 0 0 0 0 0 0 0 0 0 0 0 0 0 0 0 0 0 0 0 0 0 0 0
578 594 590 607 638 638 640 642 664 663 669 712 0 0 0 0 0 0 0 0 0 0 0 0 0 0 0 0 0 0 0 0 0 0 0 0 0 0 0 0 0 0 0 0 0 0 0 2926 2897 2933 2873 2895 2928 2885 2884 2925 2909 2915 2862 2896 2904 2878 2861 2880 2861 2871 0 0 0 0 0 0 0 0 0 0 0 0 0 0 0 0 0 0 0 0 0 0 0 0 0 0 0 0 0 0 0 0 0 0 0 0 0 0 0 0 0 0 0 0 0 0 0 0 0 0 0 0 0 0
575 608 575 607 621 616 621 645 676 676 671 700 698 696 723 0 0 0 0 0 0 0 0 0 0 0 0 0 0 0 0 0 0 0 0 0 0 0 0 0 0 0 0 0 0 0 0 2920 2925 2954 2891 2907 2904 2938 2890 2932 2914 2917 2894 2912 2937 2899 2911 2945 2952 2919 0 0 0 0 0 0 0 0 0 0 0 0 0 0 0 0 0 0 0 0 0 0 0 0 0 0 0 0 0 0 0 0 0 0 0 0 0 0 0 0 0 0 0 0 0 0 0 0 0 0 0 0 0 0
727 747 798 761 690 651 652 679 657 658 677 693 715 702 723 759 759 793 0 0 0 0 0 0 0 0 0 0 0 0 0 0 0 0 0 0 0 0 0 0 0 0 0 0 0 0 0 2890 2874 2913 2935 2951 2925 2938 2919 2928 2937 2903 2950 2932 2928 2939 2892 2906 2929 2896 0 0 0 0 0 0 0 0 0 0 0 0 0 0 0 0 0 0 0 0 0 0 0 0 0 0 0 0 0 0 0 0 0 0 0 0 0 0 0 0 0 0 0 0 0 0 0 0 0 0 0 0 0 0
780 803 793 807 823 831 823 807 820 800 735 744 695 720 738 754 755 784 822 796 858 0 0 0 0 0 0 0 0 0 0 0 0 0 0 0 0 0 0 0 0 0 0 0 0 0 0 2909 2863 2908 2924 2913 2903 2950 2936 2923 2898 2897 2911 2913 2905 2883 2884 2871 2913 2873 0 0 0 0 0 0 0 0 0 0 0 0 0 0 0 0 0 0 0 0 0 0 0 0 0 0 0 0 0 0 0 0 0 0 0 0 0 0 0 0 0 0 0 0 0 0 0 0 0 0 0 0 0 0
765 779 819 823 824 861 849 878 892 919 900 908 912 881 818 792 756 787 799 800 825 826 854 828 0 0 0 0 0 0 0 0 0 0 0 0 0 0 0 0 0 0 0 0 0 0 0 2909 2976 2940 2918 2926 2945 2966 2928 2951 2910 2945 2893 2951 2918 2943 2885 2887 2898 2935 0 0 0 0 0 0 0 0 0 0 0 0 0 0 0 0 0 0 0 0 0 0 0 0 0 0 0 0 0 0 0 0 0 0 0 0 0 0 0 0 0 0 0 0 0 0 0 0 0 0 0 0 0 0
724 0 839 839 867 866 888 903 908 934 939 950 956 961 950 960 946 939 915 880 850 856 906 888 935 946 0 0 0 0 0 0 0 0 0 0 0 0 0 0 0 0 0 0 0 0 0 2925 2912 2849 2867 2871 2916 2893 2882 2938 2877 2874 2799 2904 2878 2857 2868 2882 2867 2844 0 0 0 0 0 0 0 0 0 0 0 0 0 0 0 0 0 0 0 0 0 0 0 0 0 0 0 0 0 0 0 0 0 0 0 0 0 0 0 0 0 0 0 0 0 0 0 0 0 0 0 0 0 0
665 932 965 929 922 958 921 945 916 958 934 951 946 954 955 955 959 951 949 955 934 941 905 903 934 964 990 990 1017 0 0 0 0 0 0 0 0 0 0 0 0 0 0 0 0 0 0 2926 2900 2912 2939 2912 2908 2920 2912 2890 2920 2844 2913 2878 2871 2904 2880 2877 2851 2854 0 0 0 0 0 0 0 0 0 0 0 0 0 0 0 0 0 0 0 0 0 0 0 0 0 0 0 0 0 0 0 0 0 0 0 0 0 0 0 0 0 0 0 0 0 0 0 0 0 0 0 0 0 0
610 734 0 0 0 0 0 0 0 0 989 1006 987 958 967 960 966 962 940 955 925 958 956 936 970 955 973 1002 1000 1054 1081 0 0 0 0 0 0 0 0 0 0 0 0 0 0 0 0 2931 2928 2885 2882 2903 2955 2914 2866 2857 2888 2912 2885 2882 2887 2914 2893 2888 2892 2870 0 0 0 0 0 0 0 0 0 0 0 0 0 0 0 0 0 0 0 0 0 0 0 0 0 0 0 0 0 0 0 0 0 0 0 0 0 0 0 0 0 0 0 0 0 0 0 0 0 0 0 0 0 0
612 634 585 0 1145 1141 1167 1167 1188 1154 1150 1147 1170 1157 1156 1157 1129 1047 0 0 1022 1087 1060 983 1009 1030 1130 1143 1137 1108 1101 0 0 0 0 0 0 0 0 0 0 0 0 0 0 0 0 2920 2881 2878 2877 2926 2924 2916 2894 2844 2902 2871 2870 2890 2931 2874 2924 2883 2879 0 0 0 0 0 0 0 0 0 0 0 0 0 0 0 0 0 0 0 0 0 0 0 0 0 0 0 0 0 0 0 0 0 0 0 0 0 0 0 0 0 0 0 0 0 0 0 0 0 0 0 0 0 0 0
554 582 566 598 0 0 0 0 0 0 0 0 0 0 0 0 1384 1007 0 0 1086 1175 1104 0 0 1103 1133 1134 1125 1117 1116 0 0 0 0 0 0 0 0 0 0 0 0 0 0 0 0 2863 2906 2958 2922 2915 2845 2983 2924 2886 2869 2908 2897 2888 2901 2930 2881 2943 2873 0 0 0 0 0 0 0 0 0 0 0 0 0 0 0 0 0 0 0 0 0 0 0 0 0 0 0 0 0 0 0 0 0 0 0 0 0 0 0 0 0 0 0 0 0 0 0 0 0 0 0 0 0 0 0
580 580 603 641 595 0 0 0 0 0 0 0 0 0 0 0 0 977 953 0 0 0 0 0 0 0 0 0 0 0 0 0 0 0 0 0 0 0 0 0 0 0 0 0 0 0 0 2948 2946 2976 2900 2950 2887 2927 2910 2901 2967 2912 2888 2867 2893 2884 2897 2935 2945 0 0 0 0 0 0 0 0 0 0 0 0 0 0 0 0 0 0 0 0 0 0 0 0 0 0 0 0 0 0 0 0 0 0 0 0 0 0 0 0 0 0 0 0 0 0 0 0 0 0 0 0 0 0 0
564 617 612 593 629 590 0 0 0 0 0 0 0 0 0 0 0 957 0 0 0 0 0 0 0 0 0 0 0 0 0 0 0 0 0 0 0 0 0 0 0 0 0 0 0 0 0 2886 2921 2897 2928 2882 2872 2947 2956 2906 2884 2881 2884 2934 2874 2891 2894 2861 2867 0 0 0 0 0 0 0 0 0 0 0 0 0 0 0 0 0 0 0 0 0 0 0 0 0 0 0 0 0 0 0 0 0 0 0 0 0 0 0 0 0 0 0 0 0 0 0 0 0 0 0 0 0 0 0
581 602 583 594 592 602 0 0 0 0 0 0 0 0 0 0 0 0 0 0 0 0 953 0 0 0 0 0 0 0 0 0 0 0 0 0 0 0 0 0 0 0 0 0 0 0 0 2937 2978 2929 2903 2956 2950 2899 2886 2906 2938 2920 2961 2921 2902 2894 2915 2890 2887 0 0 0 0 0 0 0 0 0 0 0 0 0 0 0 0 0 0 0 0 0 0 0 0 0 0 0 0 0 0 0 0 0 0 0 0 0 0 0 0 0 0 0 0 0 0 0 0 0 0 0 0 0 0 0
582 604 586 579 611 614 0 0 0 0 0 0 0 0 0 0 0 0 0 0 0 0 0 0 0 0 0 0 0 0 0 0 0 0 0 0 0 0 0 0 0 0 0 0 0 0 0 2864 2906 2894 2859 2880 2878 2849 2897 2870 2875 2843 2916 2907 2915 2898 2857 2880 2860 2870 0 0 0 0 0 0 0 0 0 0 0 0 0 0 0 0 0 0 0 0 0 0 0 0 0 0 0 0 0 0 0 0 0 0 0 0 0 0 0 0 0 0 0 0 0 0 0 0 0 0 0 0 0 0
602 584 610 637 593 582 647 0 0 0 0 0 0 0 0 0 0 0 0 0 0 0 0 0 0 0 0 0 0 0 0 0 0 0 0 0 0 0 0 0 0 0 0 0 0 0 0 2843 2900 2866 2931 2882 2901 2863 2915 2885 2887 2866 2930 2863 2871 2901 2865 2889 2903 2877 0 0 0 0 0 0 0 0 0 0 0 0 0 0 0 0 0 0 0 0 0 0 0 0 0 0 0 0 0 0 0 0 0 0 0 0 0 0 0 0 0 0 0 0 0 0 0 0 0 0 0 0 0 0
583 589 608 589 601 570 604 0 0 0 0 0 0 0 0 0 2301 0 0 0 0 0 975 951 0 0 0 0 0 0 0 0 0 0 0 0 0 0 0 0 0 0 0 0 0 0 0 2898 2912 2964 2945 2906 2893 2901 2878 2878 2890 2869 2897 2898 2924 2899 2880 2895 2875 2841 0 0 0 0 0 0 0 0 0 0 0 0 0 0 0 0 0 0 0 0 0 0 0 0 0 0 0 0 0 0 0 0 0 0 0 0 0 0 0 0 0 0 0 0 0 0 0 0 0 0 0 0 0 0
608 582 599 597 578 607 626 0 0 0 0 0 0 0 0 0 0 0 0 0 0 0 0 0 0 0 0 0 0 0 0 0 0 0 0 0 0 0 0 0 0 0 0 0 0 0 0 2874 2892 2904 2900 2895 2903 2870 2929 2933 2889 2894 2902 2883 2887 2911 2885 2866 2875 2901 0 0 0 0 0 0 0 0 0 0 0 0 0 0 0 0 0 0 0 0 0 0 0 0 0 0 0 0 0 0 0 0 0 0 0 0 0 0 0 0 0 0 0 0 0 0 0 0 0 0 0 0 0 0
581 588 592 620 589 589 0 0 0 0 0 0 0 0 0 0 0 0 0 0 0 0 0 0 0 0 0 0 0 0 0 0 0 0 0 0 0 0 0 0 0 0 0 0 0 0 0 0 0 0 0 0 0 0 0 0 0 0 0 0 0 2980 3061 2888 2939 0 0 0 0 0 0 0 0 0 0 0 0 0 0 0 0 0 0 0 0 0 0 0 0 0 0 0 0 0 0 0 0 0 0 0 0 0 0 0 0 0 0 0 0 0 0 0 0 0 0 0 0 0 0 0
586 574 607 601 597 597 0 0 0 0 0 0 0 0 0 0 0 0 0 0 0 0 0 0 0 0 0 0 0 0 0 0 0 0 0 0 0 0 0 0 0 0 0 0 0 0 0 0 0 0 0 0 0 0 0 0 0 0 0 0 0 0 0 0 0 0 0 0 0 0 0 0 0 0 0 0 0 0 0 0 0 0 0 0 0 0 0 0 0 0 0 0 0 0 0 0 0 0 0 0 0 0 0 0 0 0 0 0 0 0 0 0 0 0 0 0 0 0 0 0
633 610 602 578 628 0 0 0 0 0 0 0 0 0 0 0 0 0 0 0 0 0 0 0 0 0 0 0 0 0 0 0 0 0 0 0 0 0 0 0 0 0 0 0 0 0 0 0 0 0 0 0 0 0 0 0 0 0 0 0 0 0 0 0 0 0 0 0 0 0 0 0 0 0 0 0 0 0 0 0 0 0 0 0 0 0 0 0 0 0 0 0 0 0 0 0 0 0 0 0 0 0 0 0 0 0 0 0 0 0 0 0 0 0 0 0 0 0 0 0
591 583 619 605 592 0 0 0 0 0 0 0 0 0 0 0 0 0 0 0 0 0 0 0 0 0 0 0 0 0 0 0 0 0 0 0 0 0 0 0 0 0 0 0 0 0 0 0 0 0 0 0 0 0 0 0 0 0 0 0 0 0 0 0 0 0 0 0 0 0 0 0 0 0 0 0 0 0 0 0 0 0 0 0 0 0 0 0 0 0 0 0 0 0 0 0 0 0 0 0 0 0 0 0 0 0 0 0 0 0 0 0 0 0 0 0 0 0 0 0
634 604 595 595 0 0 0 0 0 0 0 0 0 0 0 0 0 0 0 0 0 0 0 0 0 0 839 0 901 895 892 0 891 881 855 898 0 861 0 916 0 0 0 0 0 0 0 0 0 0 0 0 0 0 0 0 0 0 0 0 0 0 0 0 0 0 0 0 0 0 0 0 0 0 0 0 0 0 0 0 0 0 0 0 0 0 0 0 0 0 0 0 0 0 0 0 0 0 0 0 0 0 0 0 0 0 0 0 0 0 0 0 0 0 0 0 0 0 0 0
561 582 623 0 0 0 0 692 716 706 652 684 688 704 724 752 715 685 677 723 675 728 733 713 670 735 710 670 701 699 750 743 680 754 708 738 750 760 737 741 759 748 749 800 775 768 790 725 785 763 755 789 811 784 805 774 758 795 791 803 797 802 767 749 769 748 813 803 759 792 788 811 804 0 808 0 0 0 0 0 0 0 0 0 0 0 0 0 0 0 0 0 0 0 0 0 0 0 0 0 0 0 0 0 0 0 0 0 0 0 0 0 0 0 0 0 0 0 0 0
531 541 594 539 558 561 592 577 578 552 594 599 561 561 584 561 587 584 594 590 590 574 601 567 555 587 577 591 620 576 565 572 606 582 609 588 624 591 609 625 598 604 573 610 597 629 600 597 625 639 628 638 654 613 657 650 632 608 659 622 669 628 661 666 608 652 619 640 618 649 650 626 649 618 646 648 630 633 631 664 655 638 682 640 696 710 601 666 680 667 694 644 701 688 684 0 651 698 659 680 752 693 0 0 0 0 0 0 0 0 0 0 0 0 0 0 0 0 0 0
475 497 514 492 506 480 506 509 480 503 518 502 511 486 522 482 509 488 510 511 507 505 517 513 512 508 499 510 521 514 516 532 519 490 516 507 502 514 526 523 506 532 530 510 549 528 515 531 542 538 514 544 519 519 545 554 526 534 537 523 555 560 556 525 518 555 564 546 554 550 551 532 549 555 557 508 527 554 572 579 575 573 555 593 553 560 555 609 582 562 562 576 585 560 610 592 601 607 659 584 580 613 561 644 0 630 0 553 620 580 0 0 0 0 0 0 0 0 0 0
401 438 432 443 446 428 425 445 458 436 434 457 452 425 438 429 432 450 432 436 463 458 452 435 429 449 452 447 452 449 461 463 452 447 450 463 469 447 464 462 469 458 474 463 483 470 461 468 477 464 480 482 472 469 494 479 465 461 467 486 479 495 459 469 473 488 477 480 499 477 465 478 478 485 481 477 477 476 477 478 481 485 490 496 487 494 502 488 508 498 523 497 490 490 477 495 469 505 496 483 483 496 503 486 533 481 467 482 537 495 480 478 0 0 0 0 0 0 0 0
369 361 385 379 388 409 387 401 393 384 399 388 385 395 395 401 398 397 400 394 402 390 410 404 411 411 414 408 392 408 400 424 410 410 408 409 407 411 422 411 410 411 421 413 414 402 406 414 427 422 412 422 427 424 415 418 428 426 419 424 409 421 417 420 411 423 411 419 429 427 426 416 429 427 417 421 433 436 413 419 425 441 427 413 415 424 428 419 430 421 421 440 427 421 431 439 423 438 422 431 429 423 433 421 431 422 454 435 421 425 421 422 421 377 0 0 0 0 0 0
345 342 361 344 345 365 351 370 345 355 354 345 359 351 356 360 357 357 345 362 359 360 362 366 362 358 360 366 366 364 364 372 372 374 368 363 374 368 360 374 365 380 362 374 362 382 370 382 384 380 375 382 377 374 377 384 366 376 375 383 385 372 371 378 384 375 394 393 390 386 384 383 393 397 377 386 380 384 384 396 388 385 397 384 373 393 393 378 382 394 393 387 392 391 395 390 400 384 381 396 385 379 407 383 383 380 386 397 387 382 390 393 385 375 406 416 0 0 0 0
318 335 321 335 313 319 309 327 329 333 331 316 325 335 340 346 330 347 324 334 319 328 328 334 335 323 334 329 339 351 324 334 342 350 342 346 343 337 335 340 336 338 340 344 343 343 342 341 363 349 338 346 349 344 339 342 341 337 335 343 352 353 341 337 345 348 343 340 335 340 345 353 347 351 343 353 341 350 347 345 346 358 344 349 342 360 337 343 354 349 351 354 359 350 347 344 350 356 360 354 357 346 358 371 359 351 353 364 366 362 365 346 372 373 365 339 300 0 0 0
298 299 291 287 299 306 302 300 296 305 308 293 285 300 304 293 304 292 308 300 300 312 299 295 293 301 294 289 310 318 300 293 295 308 307 306 303 312 307 307 314 308 303 307 303 312 307 315 313 315 306 312 313 311 316 316 301 306 311 319 311 309 314 310 318 313 313 311 324 303 311 314 322 317 309 319 318 316 312 323 326 320 309 311 322 323 327 329 326 325 313 314 314 318 318 325 317 332 312 326 327 327 324 314 329 330 311 317 315 334 328 313 329 308 314 299 310 311 336 0
274 271 277 270 279 281 280 283 286 289 274 278 283 291 278 287 281 292 281 287 285 273 280 277 278 276 283 278 286 280 276 276 281 277 279 276 282 288 281 287 281 290 280 280 284 282 294 293 287 289 293 294 288 288 287 298 289 286 285 288 287 280 290 299 293 294 281 285 292 296 293 294 284 291 281 278 287 283 282 290 297 288 293 293 298 293 299 285 295 298 289 295 295 295 304 309 293 293 299 303 292 300 291 292 291 296 306 306 286 282 310 325 309 293 279 317 295 296 312 307
248 249 253 243 253 251 243 252 253 256 255 246 255 260 253 252 259 256 247 253 253 258 260 253 256 254 251 260 252 256 245 257 258 258 253 250 257 262 260 265 257 259 266 268 259 271 259 264 263 269 263 267 268 261 264 265 266 265 262 267 266 264 271 268 266 267 270 267 264 264 263 265 270 266 263 265 272 263 263 261 254 262 259 273 261 266 260 260 263 257 260 267 271 266 263 266 271 258 271 279 267 261 268 271 268 277 271 261 261 257 253 283 252 261 274 259 273 260 282 238
238 231 241 238 241 234 241 234 232 235 235 234 251 248 244 242 237 242 245 238 236 238 243 241 241 241 237 248 243 250 237 246 244 243 244 242 246 240 245 254 246 252 246 246 241 245 253 251 244 246 251 256 249 249 249 249 250 249 250 254 256 254 249 250 251 252 250 251 247 250 252 249 246 245 246 254 251 253 251 247 249 242 255 249 254 259 246 251 247 242 254 254 245 259 253 254 247 254 252 250 249 244 261 244 245 247 257 247 254 258 247 257 262 250 260 249 229 274 282 254
215 215 216 214 220 226 223 218 218 212 222 219 229 229 219 223 222 225 228 227 224 222 220 226 227 219 224 234 232 231 227 230 228 220 228 227 234 219 234 234 232 240 231 224 232 235 228 236 235 225 232 226 232 227 223 230 230 229 237 232 231 231 231 230 241 228 230 231 233 232 231 238 229 234 227 237 225 228 226 233 234 237 232 236 239 225 240 232 228 226 229 234 231 233 238 231 235 237 234 240 242 235 235 237 234 232 242 236 241 244 229 227 234 243 233 227 237 255 213 220
201 204 219 214 211 199 207 206 207 209 208 211 209 221 207 209 211 211 211 215 213 212 212 211 211 214 212 210 210 212 217 218 210 214 195 212 211 214 193 214 200 214 211 213 218 218 215 202 202 217 200 217 216 217 218 218 224 215 221 207 217 217 215 221 221 222 221 218 220 218 218 217 222 216 214 215 214 212 215 214 220 222 219 227 218 224 220 219 218 212 217 220 215 217 220 213 220 220 225 214 217 215 219 223 222 226 225 224 220 224 227 212 223 209 215 237 200 217 194 226
189 194 196 202 200 202 198 201 201 198 197 201 183 204 201 201 192 208 189 206 204 191 191 190 184 187 184 191 188 210 182 192 193 188 197 190 188 196 190 186 189 189 199 189 197 192 196 198 200 199 192 190 194 198 190 196 192 195 193 215 199 194 197 193 198 199 193 198 193 196 198 192 199 194 195 193 194 193 192 197 192 194 213 199 199 198 199 185 196 187 209 192 211 209 195 183 189 194 213 191 212 208 207 211 216 211 207 204 207 206 211 209 200 221 206 199 205 179 222 206
178 173 193 188 191 173 182 181 180 179 180 175 181 177 174 187 180 185 178 176 188 186 185 188 179 192 189 181 182 183 192 187 191 192 191 194 185 192 191 193 196 191 198 198 186 197 195 192 193 200 195 193 193 195 194 196 195 197 199 200 194 199 195 200 197 197 197 194 190 196 196 195 196 199 196 195 197 195 196 188 196 196 195 193 194 190 187 194 183 184 193 180 190 190 184 179 189 180 188 181 188 186 177 191 187 183 184 199 202 189 197 181 177 200 177 197 183 175 194 186
175 170 171 177 171 175 173 181 181 183 182 183 184 179 177 177 183 187 182 181 185 184 188 183 181 182 184 186 187 188 183 181 187 187 183 182 179 181 184 178 186 181 184 187 190 187 186 188 185 189 191 192 188 182 186 195 186 192 184 190 188 186 187 187 186 190 191 191 189 188 192 186 187 189 191 188 186 185 185 194 188 190 185 187 187 189 190 184 191 189 177 189 185 181 187 186 185 189 185 186 187 182 186 178 178 180 184 185 178 178 175 175 198 201 176 172 179 170 166 174
171 164 158 175 167 168 163 176 169 172 173 169 171 176 178 176 172 176 180 181 175 172 172 167 169 169 176 173 172 175 174 178 170 174 173 178 172 172 178 176 172 176 182 178 182 182 183 179 179 184 181 178 179 178 180 181 185 179 182 177 176 181 180 182 179 180 181 184 179 182 178 179 175 182 180 175 181 179 185 178 180 181 182 175 177 176 177 179 179 183 179 172 181 174 178 178 184 175 180 180 183 181 185 178 181 173 176 176 172 175 175 170 173 177 170 168 175 175 170 173
159 163 166 159 160 167 161 156 165 167 162 166 163 168 165 170 166 166 173 165 169 168 174 160 163 165 170 171 168 171 167 166 169 168 163 165 171 170 173 168 163 167 170 169 172 173 163 168 179 168 168 168 170 167 176 171 170 171 175 170 172 170 173 170 173 176 168 167 169 169 172 174 166 172 170 170 171 174 171 168 167 173 169 169 169 172 174 169 172 168 168 168 170 161 165 175 165 170 167 170 166 180 162 173 180 178 179 169 167 164 169 170 176 171 163 177 172 163 170 173
152 155 164 163 162 163 165 156 157 158 163 162 159 161 160 169 168 164 163 163 156 156 172 166 163 160 164 156 162 164 164 169 159 163 158 159 156 159 159 158 162 168 163 164 164 169 161 158 163 169 159 165 165 161 169 165 164 164 164 167 165 159 161 161 166 164 160 163 166 169 162 161 168 162 162 166 165 164 167 167 161 159 164 165 164 163 167 163 164 166 168 162 162 158 160 163 161 160 168 167 170 168 160 166 160 156 163 165 160 159 163 170 169 171 173 165 167 171 166 169
147 148 151 147 154 149 148 152 156 153 144 144 149 158 152 148 154 155 156 161 151 154 149 153 155 154 148 160 153 161 153 157 153 154 150 153 154 155 152 160 153 154 158 153 159 151 163 155 155 156 159 156 158 155 152 155 157 156 160 160 161 157 156 157 159 157 160 154 159 150 156 157 157 161 158 159 161 159 159 153 157 155 153 153 156 151 157 158 153 159 157 159 156 156 159 151 157 157 153 162 153 156 155 153 160 156 150 152 156 158 153 159 151 162 155 151 155 158 160 134
141 145 148 141 149 146 142 142 148 146 146 145 147 146 151 140 146 151 136 147 146 148 150 149 149 155 143 148 151 146 143 146 149 146 145 145 148 153 149 151 151 149 148 147 143 146 142 152 145 152 149 157 147 152 149 148 151 152 154 156 155 150 154 154 148 150 146 151 154 151 149 153 148 148 154 152 158 156 150 152 148 151 151 146 151 148 151 153 153 151 150 152 155 151 157 153 152 149 155 154 152 154 158 155 154 144 145 147 155 146 155 147 152 152 152 142 141 143 151 133
137 133 134 135 136 137 134 141 140 141 137 139 143 142 141 134 143 138 139 145 143 145 145 151 142 146 150 144 145 139 138 138 148 139 145 143 145 142 143 146 147 143 147 146 144 145 143 142 145 145 146 147 144 140 145 141 148 150 146 147 143 139 142 146 146 144 147 147 145 147 148 149 145 146 145 150 151 148 147 148 143 142 144 140 138 141 148 148 148 146 146 149 147 145 148 145 142 141 147 149 142 143 143 140 138 146 140 147 142 147 146 138 143 144 146 154 142 142 150 138
127 134 131 132 135 139 139 141 135 138 135 0 132 132 135 138 138 138 139 136 145 141 141 137 145 142 146 139 138 141 127 138 130 142 139 137 131 126 139 139 129 144 142 141 140 139 129 138 126 125 131 139 134 139 144 142 144 143 142 132 133 129 132 144 141 139 141 143 140 142 129 130 141 141 139 143 146 138 143 141 140 138 140 130 140 143 138 139 142 141 128 142 144 143 136 140 141 141 140 141 138 143 141 140 141 140 136 141 138 136 137 133 133 127 134 131 138 133 119 109
132 127 125 133 135 135 142 134 134 139 132 134 136 139 134 131 125 139 134 132 138 139 141 137 140 135 140 138 136 124 134 128 137 124 126 126 126 127 128 126 138 139 129 138 0 139 128 127 128 122 125 140 131 133 0 141 0 129 129 139 130 131 145 133 126 125 141 128 143 129 126 122 130 139 128 129 133 128 128 129 126 141 121 128 137 125 136 123 128 139 125 139 138 136 133 125 138 138 141 138 138 118 137 137 137 136 137 132 131 133 137 128 130 139 141 137 123 156 147 138
114 101 125 104 125 119 138 128 115 111 124 117 113 130 124 131 131 122 121 121 121 127 126 122 123 135 135 137 0 136 126 120 118 120 120 118 125 128 125 120 128 127 123 126 139 0 127 123 125 118 122 119 126 129 126 129 128 127 129 119 125 118 128 127 124 128 127 130 123 127 129 124 123 128 116 120 119 129 121 122 130 125 123 127 117 129 120 122 126 129 121 124 133 134 122 117 135 141 135 127 129 121 124 122 112 121 119 126 119 128 128 137 138 139 118 137 131 129 140 137
111 115 121 108 110 114 129 115 117 117 118 114 116 118 119 118 110 121 119 116 119 122 127 119 119 124 129 125 123 123 130 0 122 122 117 115 117 119 0 122 128 124 0 0 0 0 120 123 119 123 123 123 124 122 125 123 125 123 121 120 126 120 113 126 123 120 131 122 116 119 120 120 125 118 116 116 115 127 138 124 120 116 126 124 117 121 118 115 129 122 115 117 117 118 122 118 134 121 119 121 118 120 124 118 106 118 117 115 115 130 109 132 126 124 121 134 140 99 140 126
108 101 112 117 112 109 111 124 115 110 120 115 111 113 109 112 119 112 113 121 110 110 113 119 119 113 120 116 114 120 124 0 119 117 115 111 112 0 114 116 120 0 0 120 122 0 121 115 109 113 114 111 118 118 123 119 116 120 113 116 120 121 123 118 119 120 118 121 119 113 116 118 115 115 116 111 116 112 119 117 113 117 115 117 115 112 114 117 111 116 112 119 116 114 108 121 125 117 110 116 112 114 115 113 113 117 114 119 108 121 114 127 132 117 110 121 130 104 85 118
99 98 108 104 98 101 117 108 102 108 106 102 106 109 119 114 108 110 105 103 108 109 109 105 111 109 117 115 112 115 116 116 106 113 112 111 108 112 110 113 112 112 109 107 108 114 115 0 112 0 113 110 116 113 0 0 107 109 113 110 125 118 104 109 105 109 109 108 112 110 111 105 107 103 110 108 105 104 106 116 108 108 105 105 108 108 109 108 107 110 105 108 99 108 105 112 116 106 112 105 110 106 114 103 105 110 106 109 106 120 107 118 107 108 96 112 105 87 92 77
96 93 107 107 102 101 108 109 108 103 102 106 104 109 110 121 110 112 110 96 108 95 94 97 111 104 107 109 103 118 108 104 109 102 111 113 115 0 105 107 109 107 109 99 105 106 105 106 112 0 109 110 108 112 109 112 101 105 112 110 105 108 114 0 117 103 105 110 109 111 98 100 106 112 103 102 98 99 101 107 109 101 105 110 98 104 102 103 101 103 107 107 101 101 93 109 98 105 106 106 100 106 106 110 104 97 103 115 93 102 103 97 104 105 113 109 101 112 82 108
93 90 108 108 96 94 97 94 92 91 101 99 98 99 104 102 96 104 102 103 101 95 91 97 103 98 104 100 99 105 106 104 109 97 103 97 103 105 103 107 105 101 94 99 100 102 104 98 103 99 103 105 104 103 97 106 96 104 104 102 106 107 105 0 108 107 0 111 105 102 101 100 95 104 101 106 93 106 0 99 0 101 98 100 95 107 95 98 93 102 102 102 96 99 96 97 94 99 100 100 94 100 99 101 99 100 93 93 92 89 104 92 88 105 96 98 85 102 99 118
83 88 83 92 92 93 96 93 92 95 98 96 98 101 99 99 98 94 110 97 94 95 93 88 91 90 102 99 98 97 103 99 104 100 98 103 102 103 98 97 102 98 97 93 94 96 102 101 104 101 105 100 103 99 90 94 97 104 102 100 104 96 105 102 109 102 107 104 107 99 101 108 100 97 95 95 99 97 99 98 0 101 91 93 100 101 98 105 94 102 100 98 93 99 93 99 94 92 85 105 98 93 99 86 93 99 96 86 95 102 86 85 96 82 93 100 106 87 96 99
90 97 89 97 90 96 89 91 87 89 92 89 95 90 92 86 93 95 98 109 102 90 80 94 91 90 100 94 91 99 96 97 104 100 96 103 99 91 93 104 94 92 92 94 100 92 95 95 89 98 99 95 85 92 95 101 92 97 99 97 93 92 102 0 98 95 93 95 95 94 99 100 100 101 85 103 98 96 95 104 97 94 85 103 94 97 92 87 90 95 93 91 93 83 91 85 89 86 101 90 90 99 96 91 99 97 96 79 91 92 82 86 89 82 86 78 82 99 92 80
87 79 75 82 75 86 84 89 83 79 81 86 93 90 88 91 89 92 92 90 83 93 93 90 87 94 97 89 87 98 88 87 98 91 89 92 84 91 89 90 82 83 97 84 89 95 91 89 91 87 93 92 92 96 92 90 95 91 93 87 89 92 88 92 89 91 95 89 90 88 97 93 97 97 96 94 88 90 95 95 95 88 90 91 88 84 93 94 89 89 91 92 93 90 89 89 83 92 89 93 92 84 91 90 87 78 87 85 83 85 77 81 82 85 81 80 99 84 88 109
92 79 85 80 90 89 89 95 86 89 84 83 85 89 92 89 92 89 92 93 82 92 93 84 93 88 94 90 88 85 91 88 97 90 100 84 95 94 89 97 89 95 93 94 94 100 93 90 91 92 96 97 95 91 95 97 98 98 87 92 89 86 97 91 88 91 86 90 87 90 88 86 98 94 95 91 92 94 83 90 91 88 95 91 96 89 95 92 94 90 97 98 99 87 92 91 85 83 89 99 92 88 82 99 91 99 93 84 79 86 91 83 84 86 104 85 80 113 0 0
76 88 83 82 92 88 87 87 84 0 84 84 81 87 88 79 88 88 86 85 93 91 87 95 89 90 91 85 86 88 88 86 89 94 94 92 93 92 94 95 86 86 96 84 94 89 89 96 87 97 89 93 95 87 86 85 93 94 94 87 92 82 95 92 97 98 96 86 94 96 95 93 96 91 91 90 86 87 86 95 85 89 87 93 89 94 94 93 95 93 89 95 99 86 87 84 91 92 93 88 80 92 82 83 90 84 91 90 89 79 90 80 80 83 93 82 97 66 80 0
80 82 76 86 80 89 94 88 85 79 84 80 89 87 87 90 83 87 89 89 88 87 89 84 87 84 91 86 90 86 85 89 90 87 84 88 93 84 94 88 94 86 94 97 96 81 93 96 92 90 97 97 95 85 92 88 94 95 94 91 90 93 90 90 87 92 87 89 87 95 86 94 92 96 85 80 92 93 90 89 87 88 90 91 87 86 87 83 86 88 92 90 83 86 81 83 92 84 87 89 78 78 85 82 85 79 88 82 73 78 79 82 87 89 75 79 78 53 0 0
79 74 72 75 83 81 91 87 78 89 87 78 85 84 88 84 85 90 87 84 90 90 87 81 84 83 81 84 86 92 85 86 88 90 85 83 87 87 84 87 88 81 81 92 95 89 93 88 88 90 91 85 87 81 89 92 87 95 88 91 94 90 86 87 91 93 85 83 86 95 91 90 92 84 90 84 89 90 94 84 91 90 86 82 91 94 89 87 90 82 89 90 80 87 82 82 89 87 90 78 78 89 83 91 80 86 80 84 89 78 86 85 80 87 66 0 0 0 0 0
80 64 61 62 79 80 84 84 83 71 85 77 80 81 79 79 76 77 77 86 84 77 82 75 79 74 81 84 74 76 87 74 82 81 88 79 80 81 80 78 87 81 83 69 77 82 81 86 85 80 80 75 77 85 72 78 85 85 86 76 86 78 79 80 82 76 73 83 80 83 79 83 80 75 81 82 79 82 87 83 74 81 79 75 74 79 75 80 77 84 87 70 79 76 80 78 74 90 70 79 66 81 78 60 71 71 74 77 67 75 84 78 65 58 84 95 0 0 0 0
72 70 74 79 65 78 86 82 80 76 78 86 70 76 71 80 86 83 75 76 72 78 72 77 78 80 80 70 83 79 80 80 86 81 77 73 74 72 82 80 90 79 82 87 83 83 79 76 84 80 81 75 73 77 82 82 77 78 78 67 80 77 82 84 80 69 80 72 83 67 78 80 86 78 87 84 77 85 85 86 79 75 74 80 68 79 76 70 81 94 68 77 67 72 82 74 84 74 71 71 83 72 72 63 70 76 72 83 71 87 81 74 59 88 75 0 0 0 0 0
