0 0 0 0 0 0 0 0 0 0 0 0 0 0 0 0 0 0 0 0 0 0 0 0 0 0 0 0 0 0 0 0 0 0 0 0 0 0 0 0 0 0 0 0 0 0 0 0 0 0 0 0 0 0 0 0 0 0 0 0 0 0 0 0 0 0 0 0 0 0 0 0 0 0 0 0 0 0 0 0 0 0 0 0 0 0 0 0 0 0 0 0 0 0 0 0 0 0 0 0 0 0 0 0 0 0 0 0 0 0 0 0 0 0 0 0 0 0 0 0
0 0 0 0 0 0 0 0 0 0 0 0 0 0 0 0 0 0 0 0 0 0 0 0 0 0 0 0 0 0 0 0 0 0 0 0 0 0 0 0 0 0 0 0 0 0 0 0 0 0 0 0 0 0 0 0 0 0 0 0 0 0 0 0 0 0 0 0 0 0 0 0 0 0 0 0 0 0 0 0 0 0 0 0 0 0 0 0 0 0 0 0 0 0 0 0 0 0 0 0 0 0 0 0 0 0 0 0 0 0 0 0 0 0 0 0 0 0 0 0
0 0 0 0 0 0 0 0 0 0 0 0 0 0 0 0 0 1262 0 0 0 0 1243 0 0 0 0 0 0 0 0 0 0 0 0 0 0 0 0 0 0 0 0 0 0 0 0 0 0 0 0 0 0 0 0 0 0 0 0 0 0 0 0 0 0 0 0 0 0 0 0 0 0 0 0 0 0 0 0 0 0 0 0 0 0 0 0 0 0 0 0 0 0 0 0 0 0 0 0 0 0 0 0 0 0 0 0 0 0 0 0 0 0 0 0 0 0 0 0 0
0 0 0 0 0 0 0 0 0 0 0 1173 1161 1204 1172 0 1315 1319 0 0 0 0 1267 0 0 0 0 0 0 0 0 0 0 0 0 0 0 0 0 0 0 0 0 0 0 0 0 0 0 0 0 0 0 0 0 0 0 0 0 0 0 0 0 0 0 0 0 0 0 0 0 0 0 0 0 0 0 0 0 0 0 0 0 0 0 0 0 0 0 0 0 0 0 0 0 0 0 0 0 0 0 0 0 0 0 0 0 0 0 0 0 0 0 0 0 0 0 0 0 0
0 0 0 0 0 0 0 0 1152 1112 0 1112 1112 1175 1147 0 1268 1334 0 0 1310 1262 1259 0 0 0 0 0 0 0 0 0 0 0 0 0 0 0 0 0 0 0 0 0 0 0 0 0 0 0 0 0 0 0 0 0 0 0 0 0 0 0 0 0 0 0 0 0 0 0 0 0 0 0 0 0 0 0 0 0 0 0 0 0 0 0 0 0 0 0 0 0 0 0 0 0 0 0 0 0 0 0 0 0 0 0 0 0 0 0 0 0 0 0 0 0 0 0 0 0
0 0 0 0 0 0 0 1131 1146 1176 0 0 1171 1176 1212 1231 1295 1339 1327 0 1293 1308 1307 1297 0 0 0 0 0 0 0 0 0 0 0 0 0 0 0 0 0 0 0 0 0 0 0 0 0 0 0 0 0 0 0 0 0 0 0 0 0 0 0 0 0 0 0 0 0 0 0 0 0 0 0 0 0 0 0 0 0 0 0 0 0 0 0 0 0 0 0 0 0 0 0 0 0 0 0 0 0 0 0 0 0 0 0 0 0 0 0 0 0 0 0 0 0 0 0 0
0 0 0 0 0 0 0 0 0 0 0 0 1213 1234 1243 1271 1313 1312 1278 1304 1292 1266 1275 1252 1312 0 0 0 0 0 0 1411 0 0 0 0 0 0 0 0 0 0 0 0 0 0 0 0 0 0 0 0 0 0 0 0 0 0 0 0 0 0 0 0 0 0 0 0 0 0 0 0 0 0 0 0 0 0 0 0 0 0 0 0 0 0 0 0 0 0 0 0 0 0 0 0 0 0 0 0 0 0 0 0 0 0 0 0 0 0 0 0 0 0 0 0 0 0 0 0
0 0 0 0 0 0 0 0 0 0 0 0 1242 1265 1276 1253 1269 1277 1300 1232 1246 1291 1240 1280 0 1323 1326 1284 1319 1321 0 1373 0 0 0 0 0 0 0 0 0 0 0 0 0 0 0 0 0 0 0 0 0 0 0 0 0 0 0 0 0 0 0 0 0 0 0 0 0 0 0 0 0 0 0 0 0 0 0 0 0 0 0 0 0 0 0 0 0 0 0 0 0 0 0 0 0 0 0 0 0 0 0 0 0 0 0 0 0 0 0 0 0 0 0 0 0 0 0 0
0 0 0 0 0 0 0 0 0 0 0 0 1255 1253 1248 1274 1276 1276 1290 1256 1248 1266 1255 1276 0 0 1333 1343 1324 1317 1348 1406 0 0 0 0 0 0 0 0 0 0 0 0 0 0 0 0 0 0 0 0 0 0 0 0 0 0 0 0 0 0 0 0 0 0 0 0 0 0 0 0 0 0 0 0 0 0 0 0 0 0 0 0 0 0 0 0 0 0 0 0 0 0 0 0 0 0 0 0 0 0 0 0 0 0 0 0 0 0 0 0 0 0 0 0 0 0 0 0
0 0 0 0 0 0 0 0 0 0 0 0 0 1243 1248 1265 1274 1268 1265 1242 1274 1260 1244 1245 1242 0 0 1334 1319 1320 1349 1398 0 0 0 0 0 0 0 0 0 0 0 0 0 0 0 0 0 0 0 0 0 0 0 0 0 0 0 0 0 0 0 0 0 0 0 0 0 0 0 0 0 0 0 0 0 0 0 0 0 0 0 0 0 0 0 0 0 0 0 0 0 0 0 0 0 0 0 0 0 0 0 0 0 0 0 0 0 0 0 0 0 0 0 0 0 0 0 0
0 0 0 0 0 0 0 0 0 0 0 0 0 0 0 0 0 0 0 0 0 1259 1270 1259 1293 0 0 1317 1351 1335 1340 1368 1440 0 0 0 0 0 0 0 0 0 0 0 0 0 0 0 0 0 0 0 0 0 0 0 0 0 0 0 0 0 0 0 0 0 0 0 0 0 0 0 0 0 0 0 0 0 0 0 0 0 0 0 0 0 0 0 0 0 0 0 0 0 0 0 0 0 0 0 0 0 0 0 0 0 0 0 0 0 0 0 0 0 0 0 0 0 0 0
0 0 0 0 0 0 0 0 0 0 0 0 0 0 0 0 0 0 0 0 0 0 0 1368 1330 0 0 0 1370 1352 1371 1431 1418 0 0 0 0 0 0 0 0 0 0 0 0 0 0 0 0 0 0 0 0 0 0 0 0 0 0 0 0 0 0 0 0 0 0 0 0 0 0 0 0 0 0 0 0 0 0 0 0 0 0 0 0 0 0 0 0 0 0 0 0 0 0 0 0 0 0 0 0 0 0 0 0 0 0 0 0 0 0 0 0 0 0 0 0 0 0 0
0 0 0 0 0 0 0 0 0 0 0 0 0 0 0 0 0 0 0 0 0 0 0 1438 1394 1314 1301 0 1349 1346 1372 1375 1444 0 0 0 0 0 0 0 0 0 0 0 0 0 0 0 0 0 0 0 0 0 0 0 0 0 0 0 0 0 0 0 0 0 0 0 0 0 0 0 0 0 0 0 0 0 0 0 0 0 0 0 0 0 0 0 0 0 0 0 0 0 0 0 0 0 0 0 0 0 0 0 0 0 0 0 0 0 0 0 0 0 0 0 0 0 0 0
0 0 0 0 0 0 0 0 0 0 0 0 0 0 0 0 0 0 0 0 0 0 0 1378 1394 1382 1334 1304 1345 1355 1400 1431 1435 0 0 0 0 0 0 0 0 0 0 0 0 0 0 0 0 0 0 0 0 0 0 0 0 0 0 0 0 0 0 0 0 0 0 0 0 0 0 0 0 0 0 0 0 0 0 0 0 0 0 0 0 0 0 0 0 0 0 0 0 0 0 0 0 0 0 0 0 0 0 0 0 0 0 0 0 0 0 0 0 0 0 0 0 0 0 0
0 0 0 0 0 0 0 0 0 0 0 0 0 0 0 0 0 0 0 0 0 0 0 1408 1380 1392 1390 1361 1334 1349 1337 1413 1417 0 0 0 0 0 0 0 0 0 0 0 0 0 0 0 0 0 0 0 0 0 0 0 0 0 0 0 0 0 0 0 0 0 0 0 0 0 0 0 0 0 0 0 0 0 0 0 0 0 0 0 0 0 0 0 0 0 0 0 0 0 0 0 0 0 0 0 0 0 0 0 0 0 0 0 0 0 0 0 0 0 0 0 0 0 0 0
0 0 0 0 0 0 0 0 0 0 0 0 0 0 0 0 0 0 0 0 0 0 0 1317 1341 1346 1378 1376 1346 1305 1342 1419 1407 0 0 0 0 0 0 0 0 0 0 0 0 0 0 0 0 0 0 0 0 0 0 0 0 0 0 0 0 0 0 0 0 0 0 0 0 0 0 0 0 0 0 0 0 0 0 0 0 0 0 0 0 0 0 0 0 0 0 0 0 0 0 0 0 0 0 0 0 0 0 0 0 0 0 0 0 0 0 0 0 0 0 0 0 0 0 0
1245 1244 1257 1276 1283 1289 1328 0 0 0 0 0 0 0 0 0 0 0 0 0 0 0 0 0 1362 1372 1365 1365 1376 1368 1367 1394 1427 0 0 0 0 0 0 0 0 0 0 0 0 0 0 0 0 0 0 0 0 0 0 0 0 0 0 0 0 0 0 0 0 0 0 0 0 0 0 0 0 0 0 0 0 0 0 0 0 0 0 0 0 0 0 0 0 0 0 0 0 0 0 0 0 0 0 0 0 0 0 0 0 0 0 0 0 0 0 0 0 0 0 0 0 0 0 0
1244 1253 1240 1287 1275 1297 1298 1288 1307 1349 1322 0 0 0 0 0 0 0 0 0 0 0 0 1370 1351 1356 1371 1373 1363 1359 1382 1398 1407 0 0 0 0 0 0 0 0 0 0 0 0 0 0 0 0 0 0 0 0 0 0 0 0 0 0 0 0 0 0 0 0 0 0 0 0 0 0 0 0 0 0 0 0 0 0 0 0 0 0 0 0 0 0 0 0 0 0 0 0 0 0 0 0 0 0 0 0 0 0 0 0 0 0 0 0 0 0 0 0 0 0 0 0 0 0 0
1249 1278 1274 1259 1287 1277 1291 1304 1312 1335 1325 1343 1358 1363 1375 1370 1406 0 0 0 0 0 0 0 0 1389 0 0 1364 0 0 1428 1406 0 0 0 0 0 0 0 0 0 0 0 0 0 0 0 0 0 0 0 0 0 0 0 0 0 0 0 0 0 0 0 0 0 0 0 0 0 0 0 0 0 0 0 0 0 0 0 0 0 0 0 0 0 0 0 0 0 0 0 0 0 0 0 0 0 0 0 0 0 0 0 0 0 0 0 0 0 0 0 0 0 0 0 0 0 0 0
0 0 0 0 1314 1291 1308 1316 1320 1324 1336 1349 1372 1371 1373 1401 1434 1461 1463 1473 1485 0 0 0 0 0 0 0 0 0 0 1431 1424 1426 0 0 0 0 0 0 0 0 0 0 0 0 0 0 0 0 0 0 0 0 0 0 0 0 0 0 0 0 0 0 0 0 0 0 0 0 0 0 0 0 0 0 0 0 0 0 0 0 0 0 0 0 0 0 0 0 0 0 0 0 0 0 0 0 0 0 0 0 0 0 0 0 0 0 0 0 0 0 0 0 0 0 0 0 0 0
0 0 0 0 0 0 0 0 0 1339 1326 1353 1363 1376 1393 1373 1410 1427 1442 1479 1472 1483 0 0 0 0 0 0 0 0 0 1460 1486 1496 0 0 0 0 0 0 0 0 0 0 0 0 0 0 0 0 0 0 0 0 0 0 0 0 0 0 0 0 0 0 0 0 0 0 0 0 0 0 0 0 0 0 0 0 0 0 0 0 0 0 0 0 0 0 0 0 0 0 0 0 0 0 0 0 0 0 0 0 0 0 0 0 0 0 0 0 0 0 0 0 0 0 0 0 0 0
0 0 0 0 0 0 0 0 0 0 0 0 0 0 0 1404 1401 1443 1434 1443 1435 1470 0 0 0 0 0 0 0 0 0 0 1510 0 0 0 0 0 0 0 0 0 0 0 0 0 0 0 0 0 0 0 0 0 0 0 0 0 0 0 0 0 0 0 0 0 0 0 0 0 0 0 0 0 0 0 0 0 0 0 0 0 0 0 0 0 0 0 0 0 0 0 0 0 0 0 0 0 0 0 0 0 0 0 0 0 0 1749 1716 0 0 0 0 0 0 0 0 0 0 0
0 0 0 0 0 0 0 0 0 0 0 0 0 0 0 0 0 0 0 0 0 1512 0 0 0 0 0 0 0 0 0 0 0 0 0 0 0 0 0 0 0 0 0 0 0 0 0 0 0 0 0 0 0 0 0 0 0 0 0 0 0 0 0 0 0 0 0 0 0 0 0 0 0 0 0 0 0 0 0 0 0 0 0 0 0 0 0 0 0 0 0 0 0 0 0 0 0 0 0 0 0 0 0 0 1774 1803 0 0 0 0 0 0 1585 1599 0 0 0 0 0 0
0 0 0 0 0 0 0 0 0 0 0 0 0 0 0 0 0 0 0 0 0 0 0 0 0 0 0 0 0 0 0 0 0 0 0 0 0 0 0 0 0 0 0 0 0 0 0 0 0 0 0 0 0 0 0 0 0 0 0 0 0 0 0 0 0 0 0 0 0 0 0 0 0 0 0 0 0 0 0 0 0 0 0 0 0 0 0 0 0 0 0 0 0 0 0 0 0 0 0 0 0 0 0 0 0 0 1581 1585 1567 1547 1526 1578 1523 1499 1485 0 0 0 0 0
0 0 0 0 0 0 0 0 0 0 0 0 0 0 0 0 0 0 0 0 0 0 0 0 0 0 0 0 0 0 0 0 0 0 0 0 0 0 0 0 0 0 0 0 0 0 0 0 0 0 0 0 0 0 0 0 0 0 0 0 0 0 0 0 0 0 0 0 0 0 0 0 0 0 0 0 0 0 0 0 0 0 0 0 0 0 0 0 0 0 0 0 0 0 0 0 0 0 0 0 1671 1637 1647 1622 1568 1589 1623 1653 1559 1557 1588 1501 1514 1500 1538 0 0 0 0 0
0 0 0 0 0 0 0 0 0 0 0 0 0 0 0 0 0 0 0 0 0 0 0 0 0 0 0 0 0 0 0 0 0 0 0 0 0 0 0 0 0 0 0 0 0 0 0 0 0 0 0 0 0 0 0 0 0 0 0 0 0 0 0 0 0 0 0 0 0 0 0 0 0 0 0 0 0 0 0 0 0 0 0 0 0 0 0 0 0 0 0 0 0 0 0 0 1734 1638 1721 1704 1690 1641 1645 1612 1618 1599 1626 1568 1594 1560 0 0 0 0 0 0 0 0 0 0
555 575 0 0 0 0 0 0 0 0 0 0 0 0 0 0 0 0 0 0 0 0 0 0 0 1876 1886 0 0 0 0 0 0 0 0 0 0 0 0 0 0 0 0 0 0 0 0 2931 2918 2906 2965 2934 2931 2909 2960 2908 2906 2876 2888 2940 2913 2899 2857 2895 2893 2941 0 0 0 0 0 0 0 0 0 0 0 0 0 0 0 0 0 0 0 0 0 0 0 0 1849 1785 1743 1796 1745 1737 1729 1727 1697 1764 1659 1672 1676 1622 0 0 0 0 0 0 0 0 0 0 0 0 0 0 0 0
573 615 609 589 627 658 0 0 0 0 0 0 0 0 0 0 0 0 0 0 0 0 0 0 0 0 0 1922 1955 0 0 0 0 0 0 0 0 0 0 0 0 0 0 0 0 0 0 2964 2897 2896 2924 2885 2907 2846 2891 2902 2923 2931 2860 2926 2919 2858 2899 2919 2866 2919 0 0 0 0 0 0 0 0 0 0 0 0 0 0 0 0 0 0 0 0 0 0 0 0 1861 1799 1802 1784 1807 1783 0 0 0 0 0 0 0 0 0 0 0 0 0 0 0 0 0 0 0 0 0 0 0 0
575 587 588 595 614 629 630 670 653 0 0 0 0 0 0 0 0 0 0 0 0 0 0 0 0 0 0 0 0 0 0 0 0 0 0 0 0 0 0 0 0 0 0 0 0 0 0 2903 2934 2874 2892 2987 2904 2905 2906 2966 2928 2944 2950 2896 2899 2918 2900 2933 2893 2890 0 0 0 0 0 0 0 0 0 0 0 0 0 0 0 0 0 0 0 0 0 0 0 0 0 0 0 0 0 0 0 0 0 0 0 0 0 0 0 0 0 0 0 0 0 0 0 0 0 0 0 0 0 0
571 593 597 614 631 635 635 645 680 681 685 684 0 0 0 0 0 0 0 0 0 0 0 0 0 0 0 0 0 0 0 0 0 0 0 0 0 0 0 0 0 0 0 0 0 0 0 2861 2956 2877 2870 2940 2906 2916 2925 2951 2872 2858 2967 2892 2925 2957 2920 2921 2874 0 0 0 0 0 0 0 0 0 0 0 0 0 0 0 0 0 0 0 0 0 0 0 0 0 0 0 0 0 0 0 0 0 0 0 0 0 0 0 0 0 0 0 0 0 0 0 0 0 0 0 0 0 0 0
613 601 587 617 655 635 646 637 677 681 686 705 702 729 792 0 0 0 0 0 0 0 0 0 0 0 0 0 0 0 0 0 0 0 0 0 0 0 0 0 0 0 0 0 0 0 0 2948 2865 2915 2891 2891 2859 2914 2930 2905 2895 2895 2883 2906 2861 2867 2882 2888 2894 2874 0 0 0 0 0 0 0 0 0 0 0 0 0 0 0 0 0 0 0 0 0 0 0 0 0 0 0 0 0 0 0 0 0 0 0 0 0 0 0 0 0 0 0 0 0 0 0 0 0 0 0 0 0 0
730 741 761 726 715 649 661 651 639 653 667 691 691 710 723 731 713 764 0 0 0 0 0 0 0 0 0 0 0 0 0 0 0 0 0 0 0 0 0 0 0 0 0 0 0 0 0 2955 2905 2929 2912 2951 2925 2927 2874 2894 2925 2877 2967 2877 2935 2913 2913 2925 2884 0 0 0 0 0 0 0 0 0 0 0 0 0 0 0 0 0 0 0 0 0 0 0 0 0 0 0 0 0 0 0 0 0 0 0 0 0 0 0 0 0 0 0 0 0 0 0 0 0 0 0 0 0 0 0
768 798 799 855 830 839 817 837 817 793 757 740 707 748 755 765 781 796 789 818 836 0 0 0 0 0 0 0 0 0 0 0 0 0 0 0 0 0 0 0 0 0 0 0 0 0 0 2936 2891 2904 2879 2884 2909 2881 2821 2901 2825 2878 2881 2940 2896 2921 2888 2909 2880 2905 0 0 0 0 0 0 0 0 0 0 0 0 0 0 0 0 0 0 0 0 0 0 0 0 0 0 0 0 0 0 0 0 0 0 0 0 0 0 0 0 0 0 0 0 0 0 0 0 0 0 0 0 0 0
759 787 793 819 834 837 870 869 882 897 890 922 923 879 842 800 776 784 798 797 803 841 809 861 0 0 0 0 0 0 0 0 0 0 0 0 0 0 0 0 0 0 0 0 0 0 0 2930 2967 2948 2917 2880 2892 2896 2930 2911 2924 2946 2893 2895 2912 2877 2924 2942 2902 2861 0 0 0 0 0 0 0 0 0 0 0 0 0 0 0 0 0 0 0 0 0 0 0 0 0 0 0 0 0 0 0 0 0 0 0 0 0 0 0 0 0 0 0 0 0 0 0 0 0 0 0 0 0 0
640 0 855 804 829 855 874 870 906 905 941 937 958 952 942 936 944 903 895 865 832 832 859 874 909 924 0 0 0 0 0 0 0 0 0 0 0 0 0 0 0 0 0 0 0 0 0 2937 2950 2928 2908 2923 2900 2920 2896 2881 2922 2879 2849 2923 2918 2881 2936 2899 2908 2934 0 0 0 0 0 0 0 0 0 0 0 0 0 0 0 0 0 0 0 0 0 0 0 0 0 0 0 0 0 0 0 0 0 0 0 0 0 0 0 0 0 0 0 0 0 0 0 0 0 0 0 0 0 0
691 931 950 950 965 954 0 954 937 924 941 964 965 946 952 944 958 962 954 950 928 934 912 924 939 934 952 980 1006 0 0 0 0 0 0 0 0 0 0 0 0 0 0 0 0 0 0 2898 2902 2853 2911 2848 2881 2868 2878 2850 2913 2915 2846 2938 2852 2846 2889 2851 2875 2872 0 0 0 0 0 0 0 0 0 0 0 0 0 0 0 0 0 0 0 0 0 0 0 0 0 0 0 0 0 0 0 0 0 0 0 0 0 0 0 0 0 0 0 0 0 0 0 0 0 0 0 0 0 0
587 705 0 0 0 0 0 0 0 0 958 1021 1002 987 959 968 970 944 945 943 968 960 943 959 981 946 1018 1018 1006 1045 1091 0 0 0 0 0 0 0 0 0 0 0 0 0 0 0 0 2962 2924 2876 2923 2948 2918 2947 2942 2942 2896 2955 2860 2933 2897 2933 2915 2867 2913 2922 0 0 0 0 0 0 0 0 0 0 0 0 0 0 0 0 0 0 0 0 0 0 0 0 0 0 0 0 0 0 0 0 0 0 0 0 0 0 0 0 0 0 0 0 0 0 0 0 0 0 0 0 0 0
593 637 630 0 1168 1156 1160 1167 1162 1151 1149 1145 1171 1164 1160 1166 1150 1055 0 0 1026 1103 1065 1018 1034 1045 1129 1126 1126 1120 1114 0 0 0 0 0 0 0 0 0 0 0 0 0 0 0 0 2868 2886 2900 2918 2925 2947 2912 2915 2882 2877 2903 2866 2895 2889 2889 2908 2874 2913 2877 0 0 0 0 0 0 0 0 0 0 0 0 0 0 0 0 0 0 0 0 0 0 0 0 0 0 0 0 0 0 0 0 0 0 0 0 0 0 0 0 0 0 0 0 0 0 0 0 0 0 0 0 0 0
593 604 593 617 0 0 0 0 0 0 0 0 0 0 0 0 1386 1028 961 0 0 1163 1141 0 0 1147 1141 1147 1140 1131 1128 0 0 0 0 0 0 0 0 0 0 0 0 0 0 0 0 2877 2910 2906 2933 2909 2904 2888 2926 2935 2896 2897 2949 2860 2856 2921 2887 2931 2900 2889 0 0 0 0 0 0 0 0 0 0 0 0 0 0 0 0 0 0 0 0 0 0 0 0 0 0 0 0 0 0 0 0 0 0 0 0 0 0 0 0 0 0 0 0 0 0 0 0 0 0 0 0 0 0
603 602 595 643 607 0 0 0 0 0 0 0 0 0 0 0 0 973 981 0 0 0 0 0 0 0 0 0 0 0 0 0 0 0 0 0 0 0 0 0 0 0 0 0 0 0 0 2966 2950 2872 2897 2963 2961 2895 2876 2884 2869 2927 2902 2912 2906 2888 2908 2873 2867 0 0 0 0 0 0 0 0 0 0 0 0 0 0 0 0 0 0 0 0 0 0 0 0 0 0 0 0 0 0 0 0 0 0 0 0 0 0 0 0 0 0 0 0 0 0 0 0 0 0 0 0 0 0 0
564 634 597 617 608 602 0 0 0 0 0 0 0 0 0 0 0 0 0 0 0 0 981 0 0 0 0 0 0 0 0 0 0 0 0 0 0 0 0 0 0 0 0 0 0 0 0 2915 2915 2927 2938 2942 2909 2867 2894 2892 2897 2910 2886 2900 2957 2873 2893 2872 2833 0 0 0 0 0 0 0 0 0 0 0 0 0 0 0 0 0 0 0 0 0 0 0 0 0 0 0 0 0 0 0 0 0 0 0 0 0 0 0 0 0 0 0 0 0 0 0 0 0 0 0 0 0 0 0
590 589 609 611 592 579 0 0 0 0 0 0 0 0 0 0 0 0 0 0 0 0 966 0 0 0 0 0 0 0 0 0 0 0 0 0 0 0 0 0 0 0 0 0 0 0 0 2928 2944 2914 2901 2905 2880 2906 2907 2904 2905 2929 2922 2888 2892 2905 2886 2935 2876 0 0 0 0 0 0 0 0 0 0 0 0 0 0 0 0 0 0 0 0 0 0 0 0 0 0 0 0 0 0 0 0 0 0 0 0 0 0 0 0 0 0 0 0 0 0 0 0 0 0 0 0 0 0 0
597 587 563 614 597 610 0 0 0 0 0 0 0 0 0 0 0 0 0 0 0 0 980 0 0 0 0 0 0 0 0 0 0 0 0 0 0 0 0 0 0 0 0 0 0 0 0 2925 2873 2899 2850 2850 2904 2938 2958 2880 2924 2913 2904 2937 2909 2857 2893 2912 2858 2882 0 0 0 0 0 0 0 0 0 0 0 0 0 0 0 0 0 0 0 0 0 0 0 0 0 0 0 0 0 0 0 0 0 0 0 0 0 0 0 0 0 0 0 0 0 0 0 0 0 0 0 0 0 0
572 613 596 599 609 605 590 0 0 0 0 0 0 0 0 0 0 0 0 0 0 0 0 0 0 0 0 0 0 0 0 0 0 0 0 0 0 0 0 0 0 0 0 0 0 0 2898 2953 2889 2932 2903 2873 2854 2871 2879 2917 2923 2935 2881 2883 2890 2850 2853 2879 2856 2845 0 0 0 0 0 0 0 0 0 0 0 0 0 0 0 0 0 0 0 0 0 0 0 0 0 0 0 0 0 0 0 0 0 0 0 0 0 0 0 0 0 0 0 0 0 0 0 0 0 0 0 0 0 0
599 587 610 609 610 582 613 0 0 0 0 0 0 0 0 0 2278 0 0 0 0 0 0 962 0 0 0 0 0 0 0 0 0 0 0 0 0 0 0 0 0 0 0 0 0 0 0 2913 2908 2920 2914 2888 2914 2902 2912 2896 2917 2929 2876 2919 2901 2895 2854 2869 2868 2871 0 0 0 0 0 0 0 0 0 0 0 0 0 0 0 0 0 0 0 0 0 0 0 0 0 0 0 0 0 0 0 0 0 0 0 0 0 0 0 0 0 0 0 0 0 0 0 0 0 0 0 0 0 0
611 599 619 618 614 597 591 0 0 0 0 0 0 0 0 0 0 0 0 0 0 0 0 0 0 0 0 0 0 0 0 0 0 0 0 0 0 0 0 0 0 0 0 0 0 0 0 2874 2927 2957 2906 2861 2886 2896 2909 2913 2886 2900 2894 2892 2859 2923 2870 2892 2900 2861 0 0 0 0 0 0 0 0 0 0 0 0 0 0 0 0 0 0 0 0 0 0 0 0 0 0 0 0 0 0 0 0 0 0 0 0 0 0 0 0 0 0 0 0 0 0 0 0 0 0 0 0 0 0
584 583 590 597 642 587 0 0 0 0 0 0 0 0 0 0 0 0 0 0 0 0 0 0 0 0 0 0 0 0 0 0 0 0 0 0 0 0 0 0 0 0 0 0 0 0 0 0 0 0 0 0 0 0 0 0 0 0 0 0 0 2905 3010 2912 2954 0 0 0 0 0 0 0 0 0 0 0 0 0 0 0 0 0 0 0 0 0 0 0 0 0 0 0 0 0 0 0 0 0 0 0 0 0 0 0 0 0 0 0 0 0 0 0 0 0 0 0 0 0 0 0
595 583 606 600 602 568 0 0 0 0 0 0 0 0 0 0 0 0 0 0 0 0 0 0 0 0 0 0 0 0 0 0 0 0 0 0 0 0 0 0 0 0 0 0 0 0 0 0 0 0 0 0 0 0 0 0 0 0 0 0 0 0 0 0 0 0 0 0 0 0 0 0 0 0 0 0 0 0 0 0 0 0 0 0 0 0 0 0 0 0 0 0 0 0 0 0 0 0 0 0 0 0 0 0 0 0 0 0 0 0 0 0 0 0 0 0 0 0 0 0
593 607 562 620 619 611 0 0 0 0 0 0 0 0 0 0 0 0 0 0 0 0 0 0 0 0 0 0 0 0 0 0 0 0 0 0 0 0 0 0 0 0 0 0 0 0 0 0 0 0 0 0 0 0 0 0 0 0 0 0 0 0 0 0 0 0 0 0 0 0 0 0 0 0 0 0 0 0 0 0 0 0 0 0 0 0 0 0 0 0 0 0 0 0 0 0 0 0 0 0 0 0 0 0 0 0 0 0 0 0 0 0 0 0 0 0 0 0 0 0
583 592 608 583 622 0 0 0 0 0 0 0 0 0 0 0 0 0 0 0 0 0 0 0 0 0 0 0 0 0 0 0 0 0 0 0 0 0 0 0 0 0 0 0 0 0 0 0 0 0 0 0 0 0 0 0 0 0 0 0 0 0 0 0 0 0 0 0 0 0 0 0 0 0 0 0 0 0 0 0 0 0 0 0 0 0 0 0 0 0 0 0 0 0 0 0 0 0 0 0 0 0 0 0 0 0 0 0 0 0 0 0 0 0 0 0 0 0 0 0
567 578 601 607 0 0 0 0 0 0 0 0 0 0 0 0 0 0 0 0 0 0 0 0 0 0 862 860 887 878 897 860 899 899 898 888 0 908 878 887 891 933 907 919 0 0 0 0 0 0 0 0 0 0 0 0 0 0 0 0 0 0 0 0 0 0 0 0 0 0 0 0 0 0 0 0 0 0 0 0 0 0 0 0 0 0 0 0 0 0 0 0 0 0 0 0 0 0 0 0 0 0 0 0 0 0 0 0 0 0 0 0 0 0 0 0 0 0 0 0
617 569 0 0 0 0 0 686 683 747 710 692 736 700 720 685 745 758 738 741 730 722 712 739 701 721 733 710 756 700 687 767 761 755 762 761 767 775 757 769 733 800 774 764 769 735 824 814 808 789 810 804 804 803 791 783 805 789 738 797 758 789 813 822 805 819 833 823 803 785 846 786 0 0 0 0 0 0 0 0 0 0 0 0 0 0 0 0 0 0 0 0 0 0 0 0 0 0 0 0 0 0 0 0 0 0 0 0 0 0 0 0 0 0 0 0 0 0 0 0
528 583 532 568 604 563 582 589 567 588 596 599 562 585 574 567 607 588 581 581 623 591 569 583 549 571 591 601 590 589 588 601 603 602 599 603 597 611 588 603 571 626 618 645 605 592 590 593 611 605 631 619 628 630 623 637 655 643 626 669 674 653 633 647 646 629 675 665 641 635 662 658 681 649 673 632 656 642 690 682 662 635 684 709 665 683 633 695 685 674 732 658 709 672 0 668 651 716 702 654 695 0 0 0 0 0 0 0 0 0 0 0 0 0 0 0 0 0 0 0
528 502 480 487 503 509 489 507 500 501 504 484 502 503 499 513 498 523 516 517 497 513 500 514 501 510 490 507 514 524 518 536 530 516 535 499 532 513 522 526 502 494 531 518 545 518 530 534 532 539 545 535 543 553 537 552 543 554 537 555 529 550 541 538 548 564 536 566 545 548 533 534 543 562 547 532 557 534 573 557 547 542 548 563 596 583 574 577 572 551 579 582 552 590 605 577 590 617 592 590 619 580 573 644 0 639 0 594 617 587 0 0 0 0 0 0 0 0 0 0
451 438 417 427 415 401 431 441 447 455 450 432 443 444 441 435 443 466 439 432 459 448 449 449 456 447 443 445 450 440 438 456 478 468 450 461 460 475 448 465 460 450 462 459 469 467 461 470 465 464 464 472 479 446 462 461 464 488 462 469 477 479 472 465 465 466 477 474 488 488 471 461 475 478 474 483 483 488 495 501 494 498 475 469 486 464 486 490 482 516 486 480 465 471 497 486 472 471 490 524 484 537 460 484 471 510 499 503 490 508 456 533 0 0 0 0 0 0 0 0
394 393 379 400 396 392 397 409 382 402 416 389 399 412 402 406 406 405 414 406 407 410 413 413 411 407 408 415 389 416 411 411 420 410 415 410 416 410 412 408 414 418 428 415 419 421 412 425 424 425 429 428 433 421 425 424 414 437 435 414 406 434 434 426 426 426 416 440 425 439 433 443 431 427 434 427 429 428 434 441 431 415 443 444 450 445 440 439 458 428 428 439 432 451 450 423 437 441 444 454 430 440 467 441 429 445 439 428 417 453 428 417 459 419 0 0 0 0 0 0
368 371 356 342 355 353 353 361 369 356 377 359 370 368 370 371 382 368 366 362 360 359 360 382 370 366 370 361 361 355 379 372 361 372 376 370 380 378 360 376 374 379 371 375 372 380 373 363 383 369 375 382 387 372 373 384 372 385 374 403 381 383 390 393 385 389 379 395 398 381 399 389 403 389 393 403 400 386 396 385 390 400 387 399 380 392 382 389 391 395 405 395 384 403 401 383 398 400 403 409 397 398 408 401 405 388 399 393 400 387 399 387 407 405 376 395 0 0 0 0
315 324 320 316 335 329 318 334 327 337 316 328 331 362 353 327 343 325 334 350 353 345 340 351 349 323 347 348 334 361 328 336 362 355 340 347 340 335 340 334 337 351 333 338 336 336 343 340 334 355 365 333 339 346 346 335 345 341 349 353 347 346 336 357 351 336 352 357 351 345 347 345 347 359 365 343 340 357 347 349 351 352 348 352 345 348 349 348 346 343 345 365 354 349 363 352 358 348 371 345 346 362 362 372 341 354 352 345 371 369 367 363 350 355 378 355 361 0 0 0
283 290 304 284 300 300 307 301 298 306 310 303 299 303 306 294 302 288 309 303 293 316 314 303 296 302 299 300 295 314 284 308 300 310 303 309 300 305 303 304 309 313 312 301 305 306 296 308 301 306 301 313 322 309 308 308 317 309 319 320 310 309 313 315 303 320 303 302 317 313 314 312 311 309 307 304 308 306 321 312 319 321 312 319 313 320 317 327 324 326 319 315 327 325 313 332 326 322 313 326 329 328 334 319 322 320 305 324 320 306 306 319 313 313 326 330 293 335 327 0
282 280 276 278 276 275 273 279 278 294 269 283 287 295 280 278 277 277 283 282 285 274 273 278 282 277 280 283 285 280 279 283 281 283 286 278 281 280 281 287 274 279 281 276 291 283 284 286 285 290 285 288 292 286 283 283 284 288 284 281 291 285 281 287 292 291 283 289 298 288 285 299 293 288 291 289 291 288 279 292 290 295 288 296 291 298 292 296 302 288 284 289 305 298 311 306 293 292 301 296 302 301 278 307 287 319 287 312 302 302 314 300 329 305 298 342 274 307 312 282
253 252 252 258 256 257 246 248 250 253 252 246 257 247 261 254 254 261 251 247 259 261 263 248 256 252 248 266 251 248 261 265 260 264 260 265 257 265 260 263 264 259 261 259 264 259 266 259 267 264 263 271 267 266 267 256 268 261 264 272 268 263 267 260 269 265 266 266 265 257 269 267 271 268 264 266 266 268 259 265 269 261 264 263 270 266 264 263 264 271 263 263 271 273 273 259 275 273 271 270 277 262 280 271 287 281 273 274 273 282 265 276 287 279 286 244 260 279 313 247
234 231 235 235 230 237 236 236 241 234 229 238 246 243 242 236 240 238 246 249 239 245 241 246 244 238 241 233 245 247 240 249 243 244 244 245 236 249 247 244 242 243 244 242 249 249 248 252 243 252 244 243 243 243 255 247 244 247 246 249 254 251 251 251 245 251 253 254 250 245 251 244 237 252 247 252 248 250 253 251 247 250 256 252 251 254 251 254 254 254 245 258 247 243 247 254 250 254 249 256 257 246 259 255 257 248 254 252 248 244 248 262 264 268 248 240 239 249 253 234
216 215 222 213 213 226 227 212 222 211 223 215 224 234 223 223 219 225 230 225 234 222 222 228 233 226 226 223 234 221 232 233 233 230 240 235 224 231 235 235 229 225 224 227 240 237 229 230 232 231 235 231 235 228 227 229 236 227 232 228 233 234 235 236 235 235 234 234 239 233 230 234 236 238 227 237 227 232 227 231 237 228 229 231 239 231 237 237 234 229 235 234 235 233 234 230 231 231 243 242 241 243 234 229 236 235 231 236 237 229 239 238 243 237 230 231 240 210 224 220
207 206 219 218 216 205 215 205 210 212 210 216 211 219 206 209 207 209 212 216 216 207 211 215 191 214 215 214 216 213 214 216 213 216 213 214 216 201 196 219 202 222 219 219 221 203 219 200 204 221 217 205 222 200 223 203 220 218 221 220 217 220 217 222 224 202 226 222 219 219 222 221 219 216 221 225 224 220 218 223 216 220 223 231 223 223 221 217 222 216 221 222 218 225 225 221 222 215 221 234 221 211 223 235 218 223 224 224 225 239 225 225 225 214 211 215 206 208 227 213
198 200 199 200 204 204 206 199 186 197 200 202 188 208 190 203 190 193 192 191 185 206 196 189 184 193 186 193 188 192 195 197 191 185 201 190 191 197 197 198 187 197 196 200 194 191 191 189 193 199 196 195 197 215 194 200 199 195 199 194 196 194 197 200 193 198 194 194 199 194 195 202 191 197 200 191 200 193 194 195 188 196 197 200 215 219 213 189 196 220 212 209 209 209 192 182 190 196 217 198 214 217 209 196 209 207 209 211 206 200 204 212 211 218 214 203 178 179 199 182
177 176 192 193 178 178 181 185 181 180 187 185 175 187 184 177 186 187 189 189 178 187 182 185 193 191 190 193 187 184 193 189 189 191 195 190 194 190 193 194 193 191 199 198 199 196 194 198 194 197 194 196 190 196 197 201 200 196 200 196 193 199 199 197 198 197 196 194 199 195 196 190 191 198 192 195 195 197 190 194 193 195 187 195 187 190 192 187 189 184 194 188 182 192 191 180 183 183 186 184 204 189 176 182 185 183 191 181 192 180 189 202 188 181 182 176 198 172 196 189
170 178 174 169 176 182 178 175 178 181 181 185 180 179 184 181 184 180 183 182 187 187 189 189 182 186 181 185 185 186 188 183 185 184 180 182 188 185 186 184 185 179 185 186 191 185 185 189 187 191 186 188 187 189 187 193 195 187 193 190 186 189 188 189 188 191 186 188 191 189 194 190 187 191 188 186 189 187 186 189 190 191 191 184 189 185 186 189 187 190 186 190 193 185 187 185 185 187 185 181 181 178 181 183 184 184 183 179 178 184 175 173 183 178 174 176 195 177 175 174
173 164 161 165 172 159 170 173 164 170 171 171 170 169 180 174 173 179 179 183 173 176 176 170 174 172 174 170 170 182 175 174 172 169 174 179 181 177 178 174 177 174 178 179 179 180 180 182 181 184 182 179 177 182 177 183 185 182 182 182 176 178 184 178 177 178 183 183 177 178 178 180 177 180 181 176 179 181 181 179 176 182 181 180 179 175 178 179 178 183 173 181 172 178 176 175 175 175 180 184 176 180 184 183 177 179 173 176 180 177 177 182 179 170 178 168 175 168 177 170
162 166 166 162 160 169 156 155 163 161 167 166 164 168 168 169 166 171 168 172 167 165 168 167 166 158 165 171 163 169 174 168 165 165 167 162 172 165 170 166 163 166 170 166 172 171 166 168 169 169 176 173 171 170 178 170 170 178 172 169 170 171 177 171 172 173 173 168 166 169 169 171 170 175 176 167 176 175 175 169 167 170 169 169 164 174 175 173 174 172 167 173 165 169 168 169 171 168 171 177 171 175 171 180 176 168 168 165 166 164 173 177 166 175 173 179 174 171 161 169
156 158 162 162 161 161 164 153 158 154 160 159 163 161 161 160 163 158 163 164 159 161 168 162 158 162 163 158 161 163 161 167 164 162 159 161 162 160 158 158 161 168 166 164 163 169 162 161 160 164 160 167 170 166 170 163 165 165 165 170 165 162 166 163 165 167 166 168 161 161 161 160 166 167 160 167 168 164 161 167 160 161 166 164 166 164 166 162 163 165 168 157 165 160 161 162 158 162 171 167 166 167 160 168 160 162 165 164 158 162 152 179 154 167 172 155 160 166 167 165
145 151 154 151 152 149 147 151 152 154 150 149 151 149 148 154 147 159 152 162 157 154 149 155 154 150 153 157 154 159 155 153 154 154 154 156 149 152 148 161 155 157 159 154 156 158 163 154 156 154 159 159 164 156 158 156 157 163 157 162 162 160 160 159 162 153 154 156 158 155 154 157 160 161 158 166 163 162 161 156 154 161 154 154 152 156 159 158 159 155 157 158 157 154 159 154 151 152 154 155 154 155 157 152 158 152 153 151 154 158 150 154 152 160 152 153 149 161 147 147
137 141 148 145 145 143 143 148 155 146 148 145 145 147 149 143 148 148 140 147 151 152 151 150 153 146 150 153 151 151 152 150 147 152 147 150 145 149 148 151 151 153 149 154 148 147 144 149 153 150 156 149 149 153 153 148 154 154 153 154 156 150 153 151 149 149 152 153 152 154 147 153 149 149 153 154 159 157 156 151 153 155 149 144 150 153 151 154 152 149 152 151 154 152 160 148 151 152 148 157 151 156 158 156 151 151 149 149 147 150 153 153 161 154 155 151 156 154 156 141
133 139 134 140 137 138 142 140 142 139 142 143 143 141 137 139 144 143 145 147 142 140 142 145 139 143 151 144 143 141 139 142 141 143 139 131 131 151 142 146 148 145 141 143 146 149 142 138 143 141 144 144 144 141 147 149 144 151 145 145 147 147 144 147 145 145 147 150 144 148 146 146 144 147 146 147 148 154 151 147 143 143 147 141 144 145 147 146 150 145 149 147 143 148 147 147 141 145 150 150 144 150 150 144 142 144 142 146 141 145 141 146 138 146 157 146 140 137 143 141
132 135 130 130 133 137 136 138 141 138 138 0 131 137 132 137 139 138 137 138 145 140 142 138 138 144 145 142 137 130 141 139 142 130 132 141 130 130 138 139 128 145 143 141 130 141 131 139 129 127 129 142 133 131 135 143 145 142 133 134 134 130 132 145 133 142 144 142 146 137 127 132 130 131 142 143 146 144 140 141 143 141 131 127 143 142 146 142 140 142 137 142 143 142 143 143 140 139 144 140 138 134 133 140 136 137 135 144 139 131 135 130 113 135 145 140 139 136 151 133
135 129 124 130 135 135 142 131 135 136 137 134 139 139 138 137 129 135 135 136 140 143 141 137 139 136 140 137 136 125 136 138 126 127 127 125 125 128 126 128 143 128 139 129 0 141 126 130 128 122 126 132 142 143 0 142 0 130 131 129 130 140 132 132 128 132 132 128 133 131 134 126 131 138 128 128 130 126 130 125 143 131 138 139 129 127 130 129 139 144 134 139 137 137 137 128 140 141 142 136 137 134 135 142 143 135 134 133 137 145 137 132 132 138 139 145 135 146 151 149
115 108 124 110 128 127 139 121 117 112 123 111 119 125 122 118 121 123 121 122 121 136 128 124 126 139 137 136 0 137 128 124 122 125 114 116 127 124 127 119 137 126 127 129 0 0 128 130 128 122 122 120 124 125 123 128 133 129 130 121 123 122 126 128 120 125 125 127 124 127 123 123 122 124 117 121 121 132 127 127 123 123 136 128 123 127 125 125 127 128 123 129 125 138 119 117 125 140 136 126 122 120 120 122 117 118 116 116 121 117 128 140 141 111 129 131 115 126 138 125
109 118 123 115 112 113 121 116 130 113 117 119 115 125 120 117 110 123 122 123 124 122 128 120 121 118 127 125 126 122 128 0 123 119 117 112 121 120 0 120 126 126 0 0 0 0 124 122 118 125 124 127 125 121 123 127 119 121 121 121 125 120 115 118 127 128 126 124 121 116 121 118 121 121 122 114 118 127 127 125 117 116 123 122 115 119 121 122 130 122 117 119 120 124 120 122 126 124 115 121 134 116 123 120 109 120 115 116 115 130 110 134 130 138 107 128 128 106 125 109
107 99 114 114 111 111 118 115 111 114 119 113 110 110 114 116 117 115 116 122 115 113 115 119 112 111 116 116 112 126 120 0 118 118 110 108 111 0 112 117 121 0 0 122 120 0 119 118 115 115 117 121 120 117 120 116 121 121 116 117 118 120 120 119 115 119 120 117 114 114 116 116 111 116 110 118 115 113 114 117 113 119 116 118 114 112 120 119 115 114 120 117 120 113 107 115 121 117 111 114 117 118 118 110 116 112 129 116 107 117 116 126 117 114 120 117 127 113 99 120
102 102 111 99 98 101 110 111 100 107 107 106 107 109 120 117 111 114 108 101 109 106 110 103 110 109 112 116 115 117 116 114 111 115 112 111 106 113 111 114 117 113 109 106 109 112 116 0 112 0 111 108 119 113 0 0 106 111 115 113 119 115 105 110 105 113 106 109 114 109 113 111 106 105 112 108 109 103 104 108 110 109 105 110 108 110 110 109 105 116 110 114 97 111 108 112 108 116 106 106 107 107 112 103 105 109 107 105 105 111 108 113 100 109 95 100 94 91 103 102
104 100 111 107 103 100 108 111 108 103 108 114 112 106 113 113 113 113 113 98 105 92 112 111 112 108 105 111 105 116 109 110 106 109 111 112 114 0 105 106 110 107 108 97 104 113 105 109 114 0 110 109 107 113 108 112 108 104 114 111 111 111 112 0 118 107 104 115 113 108 107 103 106 111 104 101 102 102 104 109 105 101 107 106 107 103 102 108 103 107 109 110 103 101 97 107 101 105 111 106 103 114 107 112 107 101 104 107 94 109 112 108 109 105 117 106 96 119 104 126
83 93 105 108 96 94 97 98 92 92 104 99 102 96 103 109 95 100 103 100 103 103 94 95 101 103 102 100 100 106 106 108 104 96 102 100 101 107 102 106 105 103 95 97 99 103 103 98 105 99 101 102 104 106 96 107 99 100 103 100 104 106 103 0 110 107 0 111 105 104 101 102 99 106 105 106 98 103 0 100 0 99 96 100 99 101 94 97 97 103 101 100 99 94 92 89 98 95 97 97 101 102 101 96 94 102 89 94 93 92 101 95 99 117 101 90 93 94 84 127
94 93 84 93 91 95 95 93 94 96 94 101 100 94 102 94 90 93 102 94 100 97 89 91 95 90 106 102 100 99 107 98 108 101 101 103 105 96 97 99 101 102 101 96 94 100 106 99 100 105 108 95 93 99 93 92 96 104 101 101 104 100 105 99 109 103 100 109 105 97 97 101 102 99 95 99 102 100 99 101 0 103 93 91 93 98 96 104 97 102 99 99 98 100 91 98 97 97 87 103 101 93 95 88 96 98 99 94 95 105 92 88 93 83 95 107 104 77 81 84
85 92 91 98 90 94 88 89 88 97 93 93 92 95 90 87 99 87 106 108 99 94 94 88 96 90 99 94 92 99 99 95 102 96 96 104 96 96 99 100 91 93 91 89 99 90 100 97 92 100 99 92 100 92 91 102 89 91 103 94 97 94 95 0 98 101 91 96 97 97 99 100 94 98 86 107 100 97 103 101 96 91 91 108 96 94 91 92 88 96 94 92 95 81 88 86 96 87 102 90 96 95 102 101 101 93 90 84 96 89 92 86 97 85 92 92 126 94 88 71
81 87 80 89 87 81 85 90 80 89 81 88 98 88 85 89 89 90 84 92 88 89 89 92 88 87 101 95 95 94 96 87 97 90 86 93 97 90 91 91 97 96 95 86 89 96 94 90 91 97 92 92 90 93 95 99 95 94 96 87 99 98 96 90 94 88 92 86 93 95 98 94 97 90 97 94 91 86 95 93 90 92 89 95 93 95 88 95 96 95 94 94 92 91 90 89 93 93 91 86 88 83 90 79 87 82 91 80 91 89 82 79 80 84 85 89 82 79 83 81
97 84 84 82 90 89 85 99 84 90 90 89 88 92 87 91 84 89 92 86 91 94 94 86 94 92 94 92 89 84 85 90 97 91 101 96 91 91 89 103 91 96 89 95 94 97 92 94 88 91 96 98 97 98 94 92 93 93 99 94 89 92 94 95 89 95 90 98 94 95 99 87 96 93 95 89 94 95 96 96 96 89 96 90 93 91 92 93 96 95 95 96 102 88 92 92 91 82 92 103 91 87 83 99 84 96 92 87 87 87 84 90 90 80 87 92 85 94 0 0
78 88 84 85 87 82 82 90 85 0 82 90 85 88 83 88 88 90 83 87 88 85 87 94 89 95 89 85 86 91 90 94 90 96 93 91 95 93 94 96 97 93 94 85 85 88 94 98 87 85 90 95 95 89 96 85 89 94 89 86 95 99 89 94 89 96 97 89 94 94 97 97 96 91 94 91 97 91 95 94 85 97 85 93 97 91 93 96 101 94 89 93 102 88 87 85 94 92 90 89 93 88 88 90 84 89 89 88 86 82 88 88 80 89 92 81 100 87 100 0
79 77 80 87 87 85 99 90 83 77 82 86 89 86 89 85 82 83 82 89 89 89 90 85 88 86 91 81 89 91 82 88 92 88 89 89 93 89 89 89 88 90 93 91 97 81 95 92 90 92 97 87 93 87 95 94 91 95 91 96 89 96 93 89 84 94 84 87 89 93 88 95 92 92 94 88 88 91 91 87 88 84 89 90 88 91 88 88 87 93 92 89 89 86 88 81 88 86 88 84 74 77 91 90 83 81 88 85 72 85 84 86 70 85 81 65 81 29 0 0
81 72 77 79 82 85 88 96 82 83 83 89 86 91 88 90 84 88 90 87 86 92 81 86 81 83 87 88 86 91 86 85 93 90 89 85 86 87 84 93 91 82 84 95 97 88 90 94 93 95 91 91 84 80 89 91 95 95 92 92 94 92 87 96 88 95 91 88 88 95 92 88 91 93 91 88 90 92 96 82 95 92 90 87 95 90 89 88 94 90 89 91 80 89 88 86 87 89 89 88 80 88 77 88 87 89 85 95 89 76 86 82 87 71 90 84 0 0 77 75
76 69 60 67 74 80 82 84 80 74 80 76 84 89 83 79 74 79 78 76 88 75 82 78 76 74 84 85 79 78 87 74 76 85 92 76 82 76 86 76 88 81 83 73 73 78 82 90 85 83 81 77 79 81 88 81 82 86 85 75 89 77 79 81 78 83 75 80 84 79 84 81 81 82 84 76 83 81 87 85 76 81 73 79 77 84 82 78 77 83 88 70 82 77 76 76 80 90 69 79 66 74 74 55 64 78 80 74 66 87 80 65 68 80 101 79 0 0 0 0
67 66 81 76 71 81 84 87 83 79 77 84 74 74 73 83 83 82 75 76 73 81 75 78 81 74 75 72 84 79 81 81 75 83 82 70 84 72 83 76 90 79 82 80 86 92 80 78 88 82 83 72 76 77 82 84 79 81 77 74 89 75 85 81 83 82 77 75 85 69 75 81 89 77 82 84 82 85 87 84 78 80 78 78 68 80 74 69 77 90 67 80 73 76 81 75 87 76 74 74 81 75 72 69 68 72 79 73 72 83 75 54 58 79 66 0 0 0 0 0
