0 0 0 0 0 0 0 0 0 0 0 0 0 0 0 0 0 0 0 0 0 0 0 0 0 0 0 0 0 0 0 0 0 0 0 0 0 0 0 0 0 0 0 0 0 0 0 0 0 0 0 0 0 0 0 0 0 0 0 0 0 0 0 0 0 0 0 0 0 0 0 0 0 0 0 0 0 0 0 0 0 0 0 0 0 0 0 0 0 0 0 0 0 0 0 0 0 0 0 0 0 0 0 0 0 0 0 0 0 0 0 0 0 0 0 0 0 0 0 0
0 0 0 0 0 0 0 0 0 0 0 0 0 0 0 0 0 0 0 0 0 0 0 0 0 0 0 0 0 0 0 0 0 0 0 0 0 0 0 0 0 0 0 0 0 0 0 0 0 0 0 0 0 0 0 0 0 0 0 0 0 0 0 0 0 0 0 0 0 0 0 0 0 0 0 0 0 0 0 0 0 0 0 0 0 0 0 0 0 0 0 0 0 0 0 0 0 0 0 0 0 0 0 0 0 0 0 0 0 0 0 0 0 0 0 0 0 0 0 0
0 0 0 0 0 0 0 0 0 0 0 0 0 0 0 0 0 1306 0 0 0 0 0 0 0 0 0 0 0 0 0 0 0 0 0 0 0 0 0 0 0 0 0 0 0 0 0 0 0 0 0 0 0 0 0 0 0 0 0 0 0 0 0 0 0 0 0 0 0 0 0 0 0 0 0 0 0 0 0 0 0 0 0 0 0 0 0 0 0 0 0 0 0 0 0 0 0 0 0 0 0 0 0 0 0 0 0 0 0 0 0 0 0 0 0 0 0 0 0 0
0 0 0 0 0 0 0 0 0 0 0 1139 1153 1136 0 0 1302 1300 0 0 0 1247 1260 0 0 0 0 0 0 0 0 0 0 0 0 0 0 0 0 0 0 0 0 0 0 0 0 0 0 0 0 0 0 0 0 0 0 0 0 0 0 0 0 0 0 0 0 0 0 0 0 0 0 0 0 0 0 0 0 0 0 0 0 0 0 0 0 0 0 0 0 0 0 0 0 0 0 0 0 0 0 0 0 0 0 0 0 0 0 0 0 0 0 0 0 0 0 0 0 0
0 0 0 0 0 0 0 1094 1100 1129 1128 1108 1143 1182 1154 1219 1258 1310 1223 1280 1288 1253 1259 0 0 0 0 0 0 0 0 0 0 0 0 0 0 0 0 0 0 0 0 0 0 0 0 0 0 0 0 0 0 0 0 0 0 0 0 0 0 0 0 0 0 0 0 0 0 0 0 0 0 0 0 0 0 0 0 0 0 0 0 0 0 0 0 0 0 0 0 0 0 0 0 0 0 0 0 0 0 0 0 0 0 0 0 0 0 0 0 0 0 0 0 0 0 0 0 0
0 0 0 0 0 0 0 1146 1124 1169 0 0 1189 1163 1198 1225 1272 1274 1252 1276 1244 1262 1291 1282 0 0 0 0 0 0 0 0 0 0 0 0 0 0 0 0 0 0 0 0 0 0 0 0 0 0 0 0 0 0 0 0 0 0 0 0 0 0 0 0 0 0 0 0 0 0 0 0 0 0 0 0 0 0 0 0 0 0 0 0 0 0 0 0 0 0 0 0 0 0 0 0 0 0 0 0 0 0 0 0 0 0 0 0 0 0 0 0 0 0 0 0 0 0 0 0
0 0 0 0 0 0 0 0 0 0 0 0 1219 1224 1241 1272 1270 1286 1254 1252 1278 1229 1266 1284 1301 0 0 0 1395 0 0 1422 0 0 0 0 0 0 0 0 0 0 0 0 0 0 0 0 0 0 0 0 0 0 0 0 0 0 0 0 0 0 0 0 0 0 0 0 0 0 0 0 0 0 0 0 0 0 0 0 0 0 0 0 0 0 0 0 0 0 0 0 0 0 0 0 0 0 0 0 0 0 0 0 0 0 0 0 0 0 0 0 0 0 0 0 0 0 0 0
0 0 0 0 0 0 0 0 0 0 0 0 1237 1237 1264 1259 1277 1271 1278 1288 1260 1260 1277 1283 0 1280 1319 1342 1335 1370 0 1384 0 0 0 0 0 0 0 0 0 0 0 0 0 0 0 0 0 0 0 0 0 0 0 0 0 0 0 0 0 0 0 0 0 0 0 0 0 0 0 0 0 0 0 0 0 0 0 0 0 0 0 0 0 0 0 0 0 0 0 0 0 0 0 0 0 0 0 0 0 0 0 0 0 0 0 0 0 0 0 0 0 0 0 0 0 0 0 0
0 0 0 0 0 0 0 0 0 0 0 0 1258 1271 1246 1265 1282 1238 1270 1278 1243 1251 1252 1255 0 0 1386 1386 1354 1347 1359 1404 0 0 0 0 0 0 0 0 0 0 0 0 0 0 0 0 0 0 0 0 0 0 0 0 0 0 0 0 0 0 0 0 0 0 0 0 0 0 0 0 0 0 0 0 0 0 0 0 0 0 0 0 0 0 0 0 0 0 0 0 0 0 0 0 0 0 0 0 0 0 0 0 0 0 0 0 0 0 0 0 0 0 0 0 0 0 0 0
0 0 0 0 0 0 0 0 0 0 0 0 0 0 1314 1274 1321 1284 1269 1279 1284 1284 1249 1265 1274 0 0 1362 1359 1356 1375 1404 1462 0 0 0 0 0 0 0 0 0 0 0 0 0 0 0 0 0 0 0 0 0 0 0 0 0 0 0 0 0 0 0 0 0 0 0 0 0 0 0 0 0 0 0 0 0 0 0 0 0 0 0 0 0 0 0 0 0 0 0 0 0 0 0 0 0 0 0 0 0 0 0 0 0 0 0 0 0 0 0 0 0 0 0 0 0 0 0
0 0 0 0 0 0 0 0 0 0 0 0 0 0 0 0 0 0 0 0 0 1277 1267 1247 1290 0 0 1336 1365 1329 1411 1404 1417 0 0 0 0 0 0 0 0 0 0 0 0 0 0 0 0 0 0 0 0 0 0 0 0 0 0 0 0 0 0 0 0 0 0 0 0 0 0 0 0 0 0 0 0 0 0 0 0 0 0 0 0 0 0 0 0 0 0 0 0 0 0 0 0 0 0 0 0 0 0 0 0 0 0 0 0 0 0 0 0 0 0 0 0 0 0 0
0 0 0 0 0 0 0 0 0 0 0 0 0 0 0 0 0 0 0 0 0 0 0 1338 1309 0 0 0 1378 1345 1382 1417 1409 0 0 0 0 0 0 0 0 0 0 0 0 0 0 0 0 0 0 0 0 0 0 0 0 0 0 0 0 0 0 0 0 0 0 0 0 0 0 0 0 0 0 0 0 0 0 0 0 0 0 0 0 0 0 0 0 0 0 0 0 0 0 0 0 0 0 0 0 0 0 0 0 0 0 1755 0 0 0 0 0 0 0 0 0 0 0 0
0 0 0 0 0 0 0 0 0 0 0 0 0 0 0 0 0 0 0 0 0 0 0 1401 1378 1318 1301 0 1343 1342 1369 1406 1401 0 0 0 0 0 0 0 0 0 0 0 0 0 0 0 0 0 0 0 0 0 0 0 0 0 0 0 0 0 0 0 0 0 0 0 0 0 0 0 0 0 0 0 0 0 0 0 0 0 0 0 0 0 0 0 0 0 0 0 0 0 0 0 0 0 0 0 0 0 0 0 0 0 1741 1690 1699 0 0 0 0 0 0 0 0 0 0 0
0 0 0 0 0 0 0 0 0 0 0 0 0 0 0 0 0 0 0 0 0 0 0 1357 1384 1373 1317 1300 1303 1326 1370 1393 1408 0 0 0 0 0 0 0 0 0 0 0 0 0 0 0 0 0 0 0 0 0 0 0 0 0 0 0 0 0 0 0 0 0 0 0 0 0 0 0 0 0 0 0 0 0 0 0 0 0 0 0 0 0 0 0 0 0 0 0 0 0 0 0 0 0 0 0 0 0 0 0 0 1718 1792 0 1718 0 0 0 0 0 0 0 0 0 0 0
0 0 0 0 0 0 0 0 0 0 0 0 0 0 0 0 0 0 0 0 0 0 0 1379 1378 1395 1361 1343 1330 1338 1382 1428 1413 0 0 0 0 0 0 0 0 0 0 0 0 0 0 0 0 0 0 0 0 0 0 0 0 0 0 0 0 0 0 0 0 0 0 0 0 0 0 0 0 0 0 0 0 0 0 0 0 0 0 0 0 0 0 0 0 0 0 0 0 0 0 0 0 0 0 0 0 0 0 0 0 1701 1772 0 0 1707 0 0 0 0 0 0 0 0 0 0
0 0 0 0 0 0 0 0 0 0 0 0 0 0 0 0 0 0 0 0 0 0 0 1350 1378 1362 1390 1389 1357 1324 1361 1407 1425 0 0 0 0 0 0 0 0 0 0 0 0 0 0 0 0 0 0 0 0 0 0 0 0 0 0 0 0 0 0 0 0 0 0 0 0 0 0 0 0 0 0 0 0 0 0 0 0 0 0 0 0 0 0 0 0 0 0 0 0 0 0 0 0 0 0 0 0 0 0 0 0 0 0 1703 0 0 0 0 0 0 0 0 0 0 0 0
1274 1269 1282 1276 1271 1290 1295 0 0 0 0 0 0 0 0 0 0 0 0 0 0 0 0 0 1355 1359 1371 1358 1370 1351 1369 1423 1415 0 0 0 0 0 0 0 0 0 0 0 0 0 0 0 0 0 0 0 0 0 0 0 0 0 0 0 0 0 0 0 0 0 0 0 0 0 0 0 0 0 0 0 0 0 0 0 0 0 0 0 0 0 0 0 0 0 0 0 0 0 0 0 0 0 0 0 0 0 0 0 1793 1725 1717 1693 1680 1684 0 0 1621 0 0 0 0 0 0 0
1237 1260 1268 1268 1272 1301 1285 1311 1296 1329 1360 0 0 0 0 0 0 0 0 0 0 0 0 1375 1361 1364 1375 1370 1371 1368 1409 1435 1445 0 0 0 0 0 0 0 0 0 0 0 0 0 0 0 0 0 0 0 0 0 0 0 0 0 0 0 0 0 0 0 0 0 0 0 0 0 0 0 0 0 0 0 0 0 0 0 0 0 0 0 0 0 0 0 0 0 0 0 0 0 0 0 0 0 0 0 0 0 0 1830 1734 1751 1744 1696 1702 1707 0 1709 0 0 0 0 0 0 0 0
1245 1274 1255 1283 1288 1296 1294 1321 1326 1323 1360 1360 1355 1394 1385 1400 0 0 0 0 0 0 0 0 0 1374 0 0 1397 0 0 1433 1423 0 0 0 0 0 0 0 0 0 0 0 0 0 0 0 0 0 0 0 0 0 0 0 0 0 0 0 0 0 0 0 0 0 0 0 0 0 0 0 0 0 0 0 0 0 0 0 0 0 0 0 0 0 0 0 0 0 0 0 0 0 0 0 0 0 0 0 0 0 0 1775 1793 1774 1719 1731 1744 1688 1644 1699 0 0 0 0 0 0 0 0
0 0 0 0 1244 1292 1307 1301 1322 1321 1331 1372 1358 1381 1385 1433 1404 1408 1456 1438 0 0 0 0 0 0 0 0 0 0 0 1419 1443 1422 0 0 0 0 0 0 0 0 0 0 0 0 0 0 0 0 0 0 0 0 0 0 0 0 0 0 0 0 0 0 0 0 0 0 0 0 0 0 0 0 0 0 0 0 0 0 0 0 0 0 0 0 0 0 0 0 0 0 0 0 0 0 0 0 0 0 0 0 1845 1795 1713 1746 1743 1718 1668 1679 0 0 0 0 0 0 0 0 0 0
0 0 0 0 0 0 0 0 0 1318 1322 1344 1375 1368 1376 1406 1398 1428 1415 1426 1440 1535 0 0 0 0 0 0 0 0 0 1434 1461 1480 0 0 0 0 0 0 0 0 0 0 0 0 0 0 0 0 0 0 0 0 0 0 0 0 0 0 0 0 0 0 0 0 0 0 0 0 0 0 0 0 0 0 0 0 0 0 0 0 0 0 0 0 0 0 0 0 0 0 0 0 0 0 0 0 0 0 0 0 0 1760 1697 1652 1608 1577 1603 1569 1615 1635 1573 1588 0 0 0 0 0 0
0 0 0 0 0 0 0 0 0 0 0 0 0 0 0 1390 1415 1409 1418 1436 1461 1478 0 0 0 0 0 0 0 0 0 0 1465 0 0 0 0 0 0 0 0 0 0 0 0 0 0 0 0 0 0 0 0 0 0 0 0 0 0 0 0 0 0 0 0 0 0 0 0 0 0 0 0 0 0 0 0 0 0 0 0 0 0 0 0 0 0 0 0 0 0 0 0 0 0 0 0 0 0 0 0 1723 1628 1590 1575 1598 1585 1559 1581 1546 1589 1594 1596 1562 1556 0 0 0 0 0
0 0 0 0 0 0 0 0 0 0 0 0 0 0 0 0 0 0 0 0 0 1489 0 0 0 0 0 0 0 0 0 0 0 0 0 0 0 0 0 0 0 0 0 0 0 0 0 0 0 0 0 0 0 0 0 0 0 0 0 0 0 0 0 0 0 0 0 0 0 0 0 0 0 0 0 0 0 0 0 0 0 0 0 0 0 0 0 0 0 0 0 0 0 0 0 0 0 0 0 0 0 1584 1650 1591 1609 1571 1604 1588 1592 1565 1590 1608 1617 1574 0 0 0 0 0 0
0 0 0 0 0 0 0 0 0 0 0 0 0 0 0 0 0 0 0 0 0 0 0 0 0 0 0 0 0 0 0 0 0 0 0 0 0 0 0 0 0 0 0 0 0 0 0 0 0 0 0 0 0 0 0 0 0 0 0 0 0 0 0 0 0 0 0 0 0 0 0 0 0 0 0 0 0 0 0 0 0 0 0 0 0 0 0 0 0 0 0 0 0 0 0 0 0 0 0 0 0 0 0 1598 1546 1618 1588 1565 1574 1573 1569 1582 0 0 0 0 0 0 0 0
0 0 0 0 0 0 0 0 0 0 0 0 0 0 0 0 0 0 0 0 0 0 0 0 0 0 0 0 0 0 0 0 0 0 0 0 0 0 0 0 0 0 0 0 0 0 0 0 0 0 0 0 0 0 0 0 0 0 0 0 0 0 0 0 0 0 0 0 0 0 0 0 0 0 0 0 0 0 0 0 0 0 0 0 0 0 0 0 0 0 0 0 0 0 0 0 0 0 0 0 0 0 0 0 0 0 0 1599 0 0 0 0 0 0 0 0 0 0 0 0
0 0 0 0 0 0 0 0 0 0 0 0 0 0 0 0 0 0 0 0 0 0 0 0 0 0 0 0 0 0 0 0 0 0 0 0 0 0 0 0 0 0 0 0 0 0 0 0 0 0 0 0 0 0 0 0 0 0 0 0 0 0 0 0 0 0 0 0 0 0 0 0 0 0 0 0 0 0 0 0 0 0 0 0 0 0 0 0 0 0 0 0 0 0 0 0 0 1652 0 0 0 0 0 0 0 0 0 0 0 0 0 0 0 0 0 0 0 0 0 0
601 583 0 0 0 0 0 0 0 0 0 0 0 0 0 0 0 0 0 0 0 0 0 0 0 1787 1910 0 0 0 0 0 0 0 0 0 0 0 0 0 0 0 0 0 0 0 0 2903 2916 2919 2923 2912 2927 2930 2938 2880 2970 2897 2957 2916 2925 2866 2900 2908 2903 2921 0 0 0 0 0 0 0 0 0 0 0 0 0 0 0 0 0 0 0 0 0 0 0 0 0 0 0 0 0 0 1709 0 0 0 0 0 0 0 0 0 0 0 0 0 0 0 0 0 0 0 0 0 0 0
579 583 587 590 622 658 0 0 0 0 0 0 0 0 0 0 0 0 0 0 0 0 0 0 0 0 0 1888 1946 0 0 0 0 0 0 0 0 0 0 0 0 0 0 0 0 0 0 2904 2918 2920 2944 2942 2887 2949 2893 2939 2916 2967 2878 2878 2905 2919 2932 2936 2879 2865 0 0 0 0 0 0 0 0 0 0 0 0 0 0 0 0 0 0 0 0 0 0 0 0 0 0 0 0 0 0 0 0 0 0 0 0 0 0 0 0 0 0 0 0 0 0 0 0 0 0 0 0 0 0
577 587 596 590 606 624 639 667 679 0 0 0 0 0 0 0 0 0 0 0 0 0 0 0 0 0 0 0 0 0 0 0 0 0 0 0 0 0 0 0 0 0 0 0 0 0 0 2942 2953 2864 2898 2921 2907 2914 2908 2878 2892 2891 2908 2866 2920 2915 2870 2923 2889 0 0 0 0 0 0 0 0 0 0 0 0 0 0 0 0 0 0 0 0 0 0 0 0 0 0 0 0 0 0 0 0 0 0 0 0 0 0 0 0 0 0 0 0 0 0 0 0 0 0 0 0 0 0 0
565 591 592 601 621 633 644 642 643 665 674 631 0 0 0 0 0 0 0 0 0 0 0 0 0 0 0 0 0 0 0 0 0 0 0 0 0 0 0 0 0 0 0 0 0 0 0 2976 2942 2891 3002 2943 2911 2901 2927 2924 2893 2912 2905 2920 2947 2942 2920 2859 2867 0 0 0 0 0 0 0 0 0 0 0 0 0 0 0 0 0 0 0 0 0 0 0 0 0 0 0 0 0 0 0 0 0 0 0 0 0 0 0 0 0 0 0 0 0 0 0 0 0 0 0 0 0 0 0
580 592 584 607 629 624 647 628 674 657 682 693 689 691 734 0 0 0 0 0 0 0 0 0 0 0 0 0 0 0 0 0 0 0 0 0 0 0 0 0 0 0 0 0 0 0 0 2885 2910 2879 2899 2961 2929 2930 2900 2931 2899 2923 2901 2905 2876 2873 2899 2896 2915 0 0 0 0 0 0 0 0 0 0 0 0 0 0 0 0 0 0 0 0 0 0 0 0 0 0 0 0 0 0 0 0 0 0 0 0 0 0 0 0 0 0 0 0 0 0 0 0 0 0 0 0 0 0 0
731 754 790 751 709 652 664 649 646 678 678 704 704 731 728 751 765 816 0 0 0 0 0 0 0 0 0 0 0 0 0 0 0 0 0 0 0 0 0 0 0 0 0 0 0 0 0 2918 2907 2912 2956 2920 2921 2889 2922 2939 2924 2917 2922 2876 2949 2921 2896 2880 2926 2932 0 0 0 0 0 0 0 0 0 0 0 0 0 0 0 0 0 0 0 0 0 0 0 0 0 0 0 0 0 0 0 0 0 0 0 0 0 0 0 0 0 0 0 0 0 0 0 0 0 0 0 0 0 0
781 786 821 816 831 843 822 879 854 784 740 749 711 721 754 715 760 781 783 796 852 0 0 0 0 0 0 0 0 0 0 0 0 0 0 0 0 0 0 0 0 0 0 0 0 0 0 2890 2933 2941 2931 2907 2932 2950 2860 2973 2886 2872 2897 2897 2871 2934 2906 2899 2888 2882 0 0 0 0 0 0 0 0 0 0 0 0 0 0 0 0 0 0 0 0 0 0 0 0 0 0 0 0 0 0 0 0 0 0 0 0 0 0 0 0 0 0 0 0 0 0 0 0 0 0 0 0 0 0
802 804 814 821 860 862 877 873 906 896 936 914 942 886 830 796 789 794 817 807 823 873 883 889 0 0 0 0 0 0 0 0 0 0 0 0 0 0 0 0 0 0 0 0 0 0 0 2895 2935 2904 2928 2890 2936 2929 2898 2882 2908 2893 2920 2913 2861 2888 2930 2910 2895 2897 0 0 0 0 0 0 0 0 0 0 0 0 0 0 0 0 0 0 0 0 0 0 0 0 0 0 0 0 0 0 0 0 0 0 0 0 0 0 0 0 0 0 0 0 0 0 0 0 0 0 0 0 0 0
646 0 857 827 874 865 867 894 909 934 943 951 956 950 942 945 952 938 917 866 861 852 849 908 902 940 0 0 0 0 0 0 0 0 0 0 0 0 0 0 0 0 0 0 0 0 0 2943 2921 2939 2915 2888 2924 2899 2885 2912 2867 2899 2861 2890 2931 2883 2864 2870 2910 2833 0 0 0 0 0 0 0 0 0 0 0 0 0 0 0 0 0 0 0 0 0 0 0 0 0 0 0 0 0 0 0 0 0 0 0 0 0 0 0 0 0 0 0 0 0 0 0 0 0 0 0 0 0 0
666 921 957 944 944 914 922 912 933 917 964 932 946 948 937 944 954 946 950 949 937 938 899 923 927 929 975 1002 1006 0 0 0 0 0 0 0 0 0 0 0 0 0 0 0 0 0 0 2898 2948 2901 2890 2897 2880 2894 2866 2930 2891 2884 2867 2876 2916 2869 2858 2889 2861 2874 0 0 0 0 0 0 0 0 0 0 0 0 0 0 0 0 0 0 0 0 0 0 0 0 0 0 0 0 0 0 0 0 0 0 0 0 0 0 0 0 0 0 0 0 0 0 0 0 0 0 0 0 0 0
612 670 0 0 0 0 0 0 0 0 998 955 976 957 984 965 974 940 943 948 956 959 929 945 972 945 947 1008 999 1041 0 0 0 0 0 0 0 0 0 0 0 0 0 0 0 0 0 2895 2914 2904 2932 2940 2923 2880 2879 2890 2948 2846 2874 2944 2887 2901 2875 2861 2926 2883 0 0 0 0 0 0 0 0 0 0 0 0 0 0 0 0 0 0 0 0 0 0 0 0 0 0 0 0 0 0 0 0 0 0 0 0 0 0 0 0 0 0 0 0 0 0 0 0 0 0 0 0 0 0
575 594 612 0 1116 1129 1175 1144 1162 1170 1149 1162 1149 1146 1154 1140 1121 1043 0 0 1024 1054 1077 1005 1006 1013 1123 1126 1105 1079 1102 0 0 0 0 0 0 0 0 0 0 0 0 0 0 0 0 2933 2966 2924 2903 2876 2869 2882 2942 2885 2874 2895 2859 2846 2920 2851 2908 2862 2902 0 0 0 0 0 0 0 0 0 0 0 0 0 0 0 0 0 0 0 0 0 0 0 0 0 0 0 0 0 0 0 0 0 0 0 0 0 0 0 0 0 0 0 0 0 0 0 0 0 0 0 0 0 0 0
605 608 599 600 0 0 0 0 0 0 0 0 0 0 0 0 1362 1003 963 0 0 1169 1086 0 0 1099 1136 1156 1138 1138 1127 0 0 0 0 0 0 0 0 0 0 0 0 0 0 0 0 2949 2927 2906 2880 2897 2903 2970 2921 2843 2914 2849 2869 2881 2881 2906 2851 2862 2928 2919 0 0 0 0 0 0 0 0 0 0 0 0 0 0 0 0 0 0 0 0 0 0 0 0 0 0 0 0 0 0 0 0 0 0 0 0 0 0 0 0 0 0 0 0 0 0 0 0 0 0 0 0 0 0
597 620 614 615 560 0 0 0 0 0 0 0 0 0 0 0 0 990 977 0 0 0 0 0 0 0 0 0 0 0 0 0 0 0 0 0 0 0 0 0 0 0 0 0 0 0 0 2865 2961 2900 2925 2939 2866 2868 2902 2893 2898 2922 2885 2859 2884 2911 2846 2890 2925 2874 0 0 0 0 0 0 0 0 0 0 0 0 0 0 0 0 0 0 0 0 0 0 0 0 0 0 0 0 0 0 0 0 0 0 0 0 0 0 0 0 0 0 0 0 0 0 0 0 0 0 0 0 0 0
590 597 612 593 604 622 0 0 0 0 0 0 0 0 0 0 0 0 0 0 0 0 0 0 0 0 0 0 0 0 0 0 0 0 0 0 0 0 0 0 0 0 0 0 0 0 0 2888 2911 2883 2910 2945 2889 2920 2921 2911 2884 2895 2891 2930 2878 2899 2922 2884 2952 0 0 0 0 0 0 0 0 0 0 0 0 0 0 0 0 0 0 0 0 0 0 0 0 0 0 0 0 0 0 0 0 0 0 0 0 0 0 0 0 0 0 0 0 0 0 0 0 0 0 0 0 0 0 0
593 620 601 641 603 589 0 0 0 0 0 0 0 0 0 0 0 0 0 0 0 0 970 0 0 0 0 0 0 0 0 0 0 0 0 0 0 0 0 0 0 0 0 0 0 0 0 2947 2946 2876 2891 2868 2914 2906 2915 2876 2865 2851 2897 2874 2882 2888 2894 2869 2884 0 0 0 0 0 0 0 0 0 0 0 0 0 0 0 0 0 0 0 0 0 0 0 0 0 0 0 0 0 0 0 0 0 0 0 0 0 0 0 0 0 0 0 0 0 0 0 0 0 0 0 0 0 0 0
586 598 617 609 610 611 0 0 0 0 0 0 0 0 0 0 0 0 0 0 0 0 981 0 0 0 0 0 0 0 0 0 0 0 0 0 0 0 0 0 0 0 0 0 0 0 0 2869 2894 2918 2924 2902 2872 2871 2894 2915 2848 2920 2875 2920 2876 2896 2903 2879 2887 2848 0 0 0 0 0 0 0 0 0 0 0 0 0 0 0 0 0 0 0 0 0 0 0 0 0 0 0 0 0 0 0 0 0 0 0 0 0 0 0 0 0 0 0 0 0 0 0 0 0 0 0 0 0 0
577 600 585 627 608 570 608 0 0 0 0 0 0 0 0 0 0 0 0 0 0 0 0 0 0 0 0 0 0 0 0 0 0 0 0 0 0 0 0 0 0 0 0 0 0 0 0 2917 2937 2874 2855 2862 2930 2909 2872 2891 2873 2861 2906 2920 2911 2880 2885 2880 2837 0 0 0 0 0 0 0 0 0 0 0 0 0 0 0 0 0 0 0 0 0 0 0 0 0 0 0 0 0 0 0 0 0 0 0 0 0 0 0 0 0 0 0 0 0 0 0 0 0 0 0 0 0 0 0
581 567 591 641 601 621 630 0 0 0 0 0 0 0 0 0 2285 0 0 0 913 0 993 994 0 0 0 0 0 0 0 0 0 0 0 0 0 0 0 0 0 0 0 0 0 0 0 2938 2939 2916 2886 2903 2904 2929 2899 2900 2944 2914 2896 2903 2874 2916 2858 2881 2891 2857 0 0 0 0 0 0 0 0 0 0 0 0 0 0 0 0 0 0 0 0 0 0 0 0 0 0 0 0 0 0 0 0 0 0 0 0 0 0 0 0 0 0 0 0 0 0 0 0 0 0 0 0 0 0
594 591 598 566 601 591 579 0 0 0 0 0 0 0 0 0 0 0 0 0 0 0 0 0 0 0 0 0 0 0 0 0 0 0 0 0 0 0 0 0 0 0 0 0 0 0 0 2910 2888 2867 2943 2895 2907 2912 2885 2896 2882 2912 2896 2912 2897 2910 2905 2906 2877 2916 0 0 0 0 0 0 0 0 0 0 0 0 0 0 0 0 0 0 0 0 0 0 0 0 0 0 0 0 0 0 0 0 0 0 0 0 0 0 0 0 0 0 0 0 0 0 0 0 0 0 0 0 0 0
596 587 598 606 591 598 0 0 0 0 0 0 0 0 0 0 0 0 0 0 0 0 0 0 0 0 0 0 0 0 0 0 0 0 0 0 0 0 0 0 0 0 0 0 0 0 0 0 0 0 0 0 0 0 0 0 0 0 0 0 0 0 3018 2886 2882 0 0 0 0 0 0 0 0 0 0 0 0 0 0 0 0 0 0 0 0 0 0 0 0 0 0 0 0 0 0 0 0 0 0 0 0 0 0 0 0 0 0 0 0 0 0 0 0 0 0 0 0 0 0 0
577 596 585 594 581 603 0 0 0 0 0 0 0 0 0 0 0 0 0 0 0 0 0 0 0 0 0 0 0 0 0 0 0 0 0 0 0 0 0 0 0 0 0 0 0 0 0 0 0 0 0 0 0 0 0 0 0 0 0 0 0 0 0 0 0 0 0 0 0 0 0 0 0 0 0 0 0 0 0 0 0 0 0 0 0 0 0 0 0 0 0 0 0 0 0 0 0 0 0 0 0 0 0 0 0 0 0 0 0 0 0 0 0 0 0 0 0 0 0 0
587 579 616 591 607 0 0 0 0 0 0 0 0 0 0 0 0 0 0 0 0 0 0 0 0 0 0 0 0 0 0 0 0 0 0 0 0 0 0 0 0 0 0 0 0 0 0 0 0 0 0 0 0 0 0 0 0 0 0 0 0 0 0 0 0 0 0 0 0 0 0 0 0 0 0 0 0 0 0 0 0 0 0 0 0 0 0 0 0 0 0 0 0 0 0 0 0 0 0 0 0 0 0 0 0 0 0 0 0 0 0 0 0 0 0 0 0 0 0 0
570 608 596 593 601 0 0 0 0 0 0 0 0 0 0 0 0 0 0 0 0 0 0 0 0 0 0 0 0 0 0 0 0 0 0 0 0 0 0 0 0 0 0 0 0 0 0 0 0 0 0 0 0 0 0 0 0 0 0 0 0 0 0 0 0 0 0 0 0 0 0 0 0 0 0 0 0 0 0 0 0 0 0 0 0 0 0 0 0 0 0 0 0 0 0 0 0 0 0 0 0 0 0 0 0 0 0 0 0 0 0 0 0 0 0 0 0 0 0 0
586 579 551 616 0 0 0 0 0 0 0 0 0 0 0 0 0 0 0 0 0 0 0 0 0 0 825 882 862 912 902 865 912 888 882 895 0 922 913 894 0 0 947 0 0 0 0 0 0 0 0 0 0 0 0 0 0 0 0 0 0 0 0 0 0 0 0 0 0 0 0 0 0 0 0 0 0 0 0 0 0 0 0 0 0 0 0 0 0 0 0 0 0 0 0 0 0 0 0 0 0 0 0 0 0 0 0 0 0 0 0 0 0 0 0 0 0 0 0 0
592 583 0 0 0 0 693 671 717 700 726 686 741 718 671 686 716 679 708 702 752 695 691 672 687 685 712 693 725 699 720 751 744 703 701 693 752 768 756 773 721 749 804 763 777 753 759 782 755 781 763 755 781 747 760 759 774 765 769 814 775 815 792 785 762 844 779 836 777 792 798 803 816 0 0 819 0 0 0 0 0 0 0 0 0 0 0 0 0 0 0 0 0 0 0 0 0 0 0 0 0 0 0 0 0 0 0 0 0 0 0 0 0 0 0 0 0 0 0 0
527 550 549 544 573 599 561 528 560 550 566 562 594 567 572 583 576 584 572 575 562 597 590 612 589 575 576 598 595 555 592 585 609 602 575 579 623 619 601 600 633 624 598 586 617 610 576 629 612 610 621 632 627 631 632 647 634 644 624 642 600 626 658 644 652 637 660 626 631 633 627 660 675 666 657 665 634 677 642 619 664 669 665 646 652 653 663 695 654 747 710 719 647 723 658 0 714 682 694 707 677 685 0 0 0 0 0 0 0 0 0 0 0 0 0 0 0 0 0 0
524 493 504 485 496 483 500 486 502 510 513 494 498 502 514 509 488 500 510 522 511 486 501 521 524 514 509 522 486 517 488 495 517 533 545 508 525 532 528 512 516 536 518 530 537 537 503 533 537 550 541 532 535 516 517 547 537 539 538 508 536 535 538 551 521 532 524 555 554 546 537 563 549 540 551 551 544 585 551 573 545 553 561 564 543 563 576 548 598 559 595 592 574 560 601 579 572 566 576 588 602 591 595 586 0 613 0 620 565 608 648 0 0 0 0 0 0 0 0 0
437 398 425 424 430 418 400 437 429 435 435 458 458 432 430 461 444 438 449 444 455 462 442 465 451 459 449 434 455 470 451 446 450 449 450 470 473 470 468 462 470 464 456 463 469 476 483 483 455 462 462 480 470 459 480 467 479 454 460 483 485 486 471 484 480 485 487 472 490 487 474 480 485 475 513 490 468 479 518 488 478 480 486 479 470 503 511 497 525 480 501 492 498 490 493 480 483 498 514 487 486 506 492 543 522 463 490 542 520 471 476 491 0 0 0 0 0 0 0 0
401 394 394 404 394 390 405 413 395 387 392 390 400 402 400 414 397 396 414 398 408 403 416 402 419 419 406 413 415 405 410 421 413 425 433 419 418 416 419 415 416 414 424 422 411 417 430 420 428 421 422 438 434 422 420 414 411 430 436 428 434 428 435 422 436 424 422 432 433 432 430 423 426 428 442 418 438 431 440 445 430 448 442 446 432 441 441 434 435 436 446 435 424 450 439 445 433 436 435 445 445 425 415 444 444 467 425 470 432 448 453 444 461 461 0 0 0 0 0 0
352 366 347 368 347 364 351 350 347 369 364 340 368 353 351 363 360 383 358 358 369 372 367 374 370 374 366 371 368 364 377 378 376 373 377 361 390 381 376 382 381 378 366 368 362 378 395 363 392 394 370 387 380 382 379 378 376 374 366 402 392 395 385 381 383 381 398 390 386 395 393 388 392 398 388 400 399 406 401 390 399 392 397 406 393 389 402 394 397 404 383 394 392 402 391 404 401 389 419 391 391 405 388 401 406 389 404 409 411 403 407 388 398 423 390 421 0 0 0 0
311 303 320 323 312 321 332 336 328 343 342 357 316 349 323 330 345 347 343 340 344 348 328 337 337 346 331 361 345 364 337 347 343 345 341 351 343 328 339 344 342 344 337 345 343 327 336 343 334 349 350 331 342 347 340 342 349 338 345 348 336 350 351 358 345 344 349 353 344 354 353 351 344 349 352 341 352 353 350 338 347 346 344 346 330 346 348 341 349 358 355 364 363 348 359 355 345 349 351 359 350 354 362 366 346 345 355 363 356 376 362 381 371 343 355 398 338 0 0 0
300 316 296 291 300 301 300 300 307 303 303 298 309 302 293 305 311 295 299 297 296 307 306 313 291 311 323 306 303 321 293 301 299 309 302 307 308 320 311 313 309 320 313 308 313 298 326 333 318 308 311 309 315 313 316 316 314 318 310 312 315 317 319 313 309 312 325 315 311 320 317 329 320 310 314 307 321 306 318 328 321 323 324 311 320 314 319 318 321 321 322 320 323 320 316 341 334 337 339 339 317 326 344 343 317 341 334 337 323 333 320 340 340 339 336 346 305 331 315 0
289 271 265 280 277 290 283 277 270 282 277 277 274 287 279 286 279 276 283 292 272 278 279 284 283 281 284 287 284 277 281 284 287 280 285 283 282 287 279 288 279 285 290 282 286 287 282 295 285 282 284 286 288 289 278 292 286 291 277 287 292 280 287 283 301 292 286 291 291 285 285 287 294 292 293 291 291 285 287 288 287 291 290 298 298 290 297 297 287 301 288 287 287 302 302 307 289 291 298 295 290 311 308 310 298 291 296 288 306 273 299 295 306 299 292 290 285 328 293 337
253 244 259 255 254 249 254 250 257 256 251 252 251 258 262 257 266 261 263 253 270 256 261 250 262 257 254 255 250 257 258 264 257 265 256 261 258 260 267 265 262 268 263 263 258 263 265 261 266 266 266 268 262 274 262 260 266 264 263 269 265 265 267 269 275 270 266 272 266 267 268 273 267 276 270 263 268 272 265 268 263 261 266 268 267 278 268 266 265 265 258 265 269 264 263 267 271 269 283 281 274 285 280 273 271 278 277 283 280 284 273 273 277 250 263 259 297 282 291 263
237 234 234 238 235 233 238 237 235 226 232 241 242 248 246 244 242 241 249 243 244 244 244 242 240 242 241 245 240 246 247 254 249 240 248 252 240 248 246 246 251 256 237 247 250 254 245 253 246 254 244 243 248 251 245 245 247 245 249 253 252 249 252 256 251 254 253 250 250 260 249 259 248 248 243 251 255 250 252 247 246 244 250 250 248 251 256 247 256 249 256 247 251 242 257 259 248 245 251 260 262 248 253 249 256 250 260 245 259 252 264 246 269 263 265 251 266 286 246 251
217 215 221 212 215 224 226 212 221 213 219 223 223 224 219 222 221 221 229 226 225 222 225 231 229 229 226 233 228 228 230 235 221 230 227 231 231 228 229 234 226 235 231 232 233 228 229 236 234 235 234 234 236 236 225 232 230 228 238 232 232 241 237 228 238 235 233 238 231 231 234 234 232 231 229 228 232 239 232 229 225 233 234 232 234 231 229 237 228 232 233 236 232 233 229 234 233 232 244 237 242 238 238 233 236 231 235 242 240 239 230 241 240 243 219 229 231 240 225 217
209 209 222 212 214 207 207 214 209 210 210 210 215 221 210 212 210 212 213 216 216 212 219 210 211 212 214 215 217 214 218 216 214 208 218 215 219 221 217 215 225 225 216 216 221 225 221 205 216 217 218 201 224 219 206 217 203 203 222 225 227 218 221 223 203 222 223 204 220 218 220 223 223 219 225 222 221 222 217 223 220 225 225 229 222 230 223 222 217 224 220 218 224 229 226 221 225 210 226 226 216 215 221 225 215 217 230 224 225 235 223 222 228 224 215 215 217 235 237 207
193 197 197 203 207 205 206 188 184 197 185 183 200 193 202 188 192 191 196 189 187 190 197 193 186 187 191 192 194 197 189 193 192 191 195 199 189 187 193 186 190 198 197 198 196 192 198 192 198 200 193 201 191 198 201 195 195 193 198 198 194 193 198 198 194 199 197 202 203 201 194 200 200 190 194 197 199 202 194 191 188 194 197 198 217 195 194 192 214 216 211 195 192 210 208 193 194 193 210 213 207 210 207 192 215 213 210 210 208 212 207 201 206 215 220 202 205 201 202 207
173 174 190 178 178 181 181 184 178 181 187 181 184 177 180 179 187 185 189 181 183 184 183 188 180 183 190 192 187 184 193 188 191 188 193 193 191 188 192 183 195 193 195 189 195 194 194 200 192 198 192 198 194 191 198 197 197 199 194 201 195 199 197 201 194 193 199 193 190 194 198 199 199 200 198 190 198 195 189 198 193 193 197 197 197 194 188 188 194 184 191 194 183 193 191 188 189 188 185 183 190 183 183 187 190 179 201 180 191 203 187 181 182 181 186 199 203 175 204 197
175 168 177 169 175 178 176 181 177 176 182 180 184 182 181 184 183 183 184 186 185 188 184 189 180 184 182 189 189 187 188 189 187 182 192 187 184 185 184 186 183 185 193 193 184 189 185 193 189 188 191 191 185 186 188 194 191 194 186 191 186 184 189 194 190 191 191 189 192 188 192 191 192 194 188 189 190 190 193 190 193 193 187 191 191 195 185 190 192 192 181 190 191 184 191 184 184 183 187 180 181 176 183 177 182 184 180 176 180 177 181 181 200 179 172 172 182 179 174 184
171 169 159 163 172 170 169 176 169 170 170 167 166 168 177 176 172 172 181 181 175 171 171 172 171 169 171 172 176 180 175 183 178 175 172 175 178 176 177 177 175 173 178 180 174 179 178 176 177 183 179 181 182 180 178 183 182 176 178 182 173 178 184 182 178 184 181 184 178 181 180 181 178 179 181 174 180 179 183 181 181 177 172 182 176 180 180 179 178 180 178 182 173 172 178 183 180 180 178 181 174 182 181 178 180 174 174 179 173 178 175 171 181 173 172 175 175 176 171 167
164 161 168 166 161 169 161 161 161 167 164 165 163 167 165 169 172 167 169 169 171 168 172 171 172 162 167 168 172 173 174 168 169 168 166 171 169 170 170 162 163 167 172 173 168 176 167 168 171 171 171 170 171 173 177 169 170 172 174 175 173 168 170 169 175 178 173 174 168 172 169 172 174 173 174 177 175 175 170 165 169 171 170 167 169 175 177 166 172 176 170 171 170 171 165 165 176 169 169 181 168 179 176 176 175 176 177 162 173 165 173 168 179 176 170 175 166 173 169 144
157 160 165 166 162 165 163 158 157 153 158 160 160 159 158 166 162 162 165 165 160 166 163 164 162 162 163 160 159 165 164 169 161 163 159 157 160 162 160 159 162 166 165 164 166 165 162 162 159 164 160 166 167 165 167 166 159 169 163 166 161 162 161 162 166 164 167 162 165 160 161 162 172 166 162 170 170 165 166 166 162 159 167 166 161 163 165 164 164 167 168 164 164 165 161 162 161 163 169 169 167 166 161 165 160 164 168 160 163 158 157 172 168 157 177 154 165 152 169 164
146 146 157 148 146 149 147 149 151 157 148 151 146 153 148 148 148 155 157 157 158 157 153 156 152 153 152 159 159 158 155 157 153 152 153 156 151 154 151 155 154 151 158 160 156 156 156 157 156 162 158 156 154 159 158 156 156 154 160 158 161 152 159 159 161 161 160 152 161 153 157 160 154 164 157 162 160 160 155 152 160 160 156 152 158 158 157 159 155 158 157 156 154 156 159 156 155 153 153 157 153 155 156 156 157 152 156 150 153 165 153 154 156 151 153 153 149 159 144 146
140 145 146 142 144 146 141 147 151 147 150 147 149 142 142 146 145 154 146 151 151 150 157 152 150 146 149 150 152 146 150 148 150 148 147 145 149 154 150 154 148 153 151 151 150 143 148 150 154 150 151 150 147 149 153 147 150 151 155 154 155 153 153 152 148 148 153 153 152 153 146 157 150 154 156 153 157 159 152 155 150 152 152 147 146 151 156 151 154 149 151 154 156 153 154 152 146 152 153 156 149 154 154 157 148 146 145 149 148 152 155 154 154 157 159 142 142 154 145 135
139 135 140 138 140 139 136 138 140 137 140 141 140 141 140 137 146 139 143 148 144 145 143 145 137 143 147 142 143 143 136 139 131 146 145 142 142 144 147 147 147 148 144 146 143 148 143 140 152 148 141 144 134 148 143 146 151 152 149 147 145 142 141 150 147 144 149 145 147 147 144 151 143 144 145 148 151 152 150 147 143 143 143 141 139 145 147 146 146 144 148 148 145 147 146 148 141 144 149 145 147 149 151 142 141 140 142 148 144 143 151 141 140 151 147 155 145 148 144 155
130 133 132 130 134 145 137 140 135 138 138 0 132 138 133 141 141 141 136 141 144 141 144 138 137 143 145 141 139 129 128 137 133 138 131 130 132 130 129 140 140 143 144 144 130 143 144 131 128 141 129 144 135 142 136 141 144 143 146 131 134 134 129 144 135 131 142 142 144 142 140 128 135 142 143 142 146 140 142 143 148 140 141 130 138 140 143 142 142 139 129 143 144 144 139 141 139 141 142 143 143 145 140 140 139 138 137 141 145 139 136 141 130 131 138 141 132 133 135 144
130 126 129 137 136 134 141 132 135 135 132 133 139 138 136 132 128 137 137 126 137 144 136 137 141 136 139 138 138 124 125 129 137 131 128 127 125 128 128 129 141 140 139 127 0 139 131 129 125 127 128 129 129 133 0 141 0 134 129 130 133 129 142 134 130 129 142 128 142 128 124 129 131 139 130 131 142 132 142 131 123 129 129 140 128 138 129 125 140 140 134 141 140 139 128 127 138 138 140 145 135 133 139 141 135 135 132 134 136 141 141 132 132 141 133 147 133 167 86 139
118 110 126 110 127 118 138 131 126 113 123 117 120 120 123 122 117 131 124 120 123 125 129 135 121 138 139 139 0 136 128 118 116 122 123 122 128 125 124 117 127 125 127 132 140 0 128 123 127 120 123 122 127 126 126 126 133 127 129 122 127 128 129 127 125 130 131 129 123 127 125 129 119 127 116 121 121 130 126 122 130 125 126 124 121 128 124 127 126 128 119 129 126 124 123 120 135 136 133 129 115 119 117 118 117 125 120 117 122 131 128 137 142 147 133 112 116 154 109 120
111 113 122 107 108 119 129 119 118 116 119 128 120 124 121 120 115 121 123 118 127 124 128 122 122 122 131 124 122 128 128 0 122 122 118 116 121 121 0 122 128 125 0 0 0 0 125 126 127 124 126 119 124 121 123 123 121 124 117 119 127 120 114 126 122 126 127 126 118 117 122 122 127 121 125 120 114 131 125 121 121 114 122 122 119 120 125 120 127 120 116 120 121 124 121 120 125 123 123 119 117 118 122 119 110 117 113 121 113 133 114 136 126 139 107 114 142 100 111 117
108 97 111 116 112 108 112 115 114 116 118 118 114 113 114 115 118 113 110 123 114 108 114 115 116 113 120 117 120 121 120 0 115 118 112 111 114 0 114 117 120 0 0 123 124 0 121 121 115 113 116 117 119 121 121 119 118 117 120 118 123 121 122 117 119 117 123 120 120 116 116 115 109 115 117 116 119 112 117 118 114 121 116 118 115 112 116 116 115 120 117 116 119 113 105 120 124 119 112 119 118 122 114 108 110 111 127 122 126 117 125 114 119 113 115 111 113 111 106 133
98 105 106 102 97 105 114 113 101 112 111 107 108 109 121 114 111 109 104 107 116 110 114 105 110 109 114 120 118 115 114 116 114 111 114 112 108 114 0 114 114 111 109 109 108 114 120 0 114 0 111 111 120 115 0 0 107 110 119 112 123 114 108 112 108 112 104 106 119 112 117 101 105 106 107 106 108 107 106 115 108 103 109 111 109 105 107 107 105 117 109 113 101 113 111 112 116 110 112 102 107 110 114 104 107 106 103 110 117 120 101 119 105 106 99 115 99 100 108 120
105 106 104 109 103 104 110 109 112 103 108 112 111 108 118 114 108 118 107 106 109 97 104 106 113 108 112 114 109 112 110 110 105 105 116 112 109 0 110 107 110 105 110 100 108 105 105 109 113 0 113 113 109 114 110 110 106 113 112 110 106 111 114 0 115 109 106 109 109 107 104 100 106 112 100 101 98 100 103 111 111 103 110 115 105 103 103 111 106 101 101 109 100 98 97 109 108 104 109 105 97 109 111 111 105 104 107 102 100 116 110 104 119 114 126 105 98 128 151 123
92 95 109 109 96 94 100 93 95 95 101 101 99 102 101 102 100 102 112 105 105 102 93 101 105 105 106 101 98 106 106 101 105 99 105 101 105 103 105 105 108 103 102 100 96 101 106 96 105 101 105 106 104 105 100 103 100 104 103 102 104 106 103 0 110 106 0 109 101 103 104 100 101 104 103 108 97 103 0 100 0 102 97 98 95 98 96 101 97 102 102 102 98 98 93 99 93 100 107 95 96 102 97 105 101 98 101 100 121 93 106 91 92 111 104 98 102 112 86 128
91 97 79 90 92 92 95 90 93 90 98 98 100 100 102 97 97 97 104 93 96 96 91 97 99 97 101 96 100 100 107 102 103 101 101 97 99 100 99 100 100 100 101 95 96 99 102 101 103 103 107 100 98 100 98 107 102 106 101 100 105 101 105 101 108 105 105 107 105 101 101 106 98 102 95 95 101 102 100 97 0 102 95 89 99 96 101 107 92 95 99 97 96 101 95 109 95 96 94 105 93 92 102 84 96 103 92 90 101 98 84 99 113 90 88 109 98 81 100 117
91 95 92 96 87 94 91 88 85 91 93 92 102 92 92 82 90 94 108 103 103 92 93 92 91 92 100 92 90 103 100 100 104 99 96 106 98 98 94 103 92 93 91 94 99 94 101 100 93 98 99 96 86 92 95 101 90 93 93 98 99 101 103 0 100 100 96 99 98 96 101 101 101 100 88 104 100 98 100 101 99 97 90 105 96 101 93 91 94 94 95 93 99 80 88 92 95 85 104 87 96 96 100 95 102 97 106 78 86 84 92 91 97 106 103 87 108 110 93 81
86 81 79 79 88 87 88 87 82 90 82 88 97 87 86 92 88 83 81 80 90 88 88 90 91 87 96 88 94 94 93 88 100 91 93 91 87 93 93 91 85 84 97 87 91 91 90 99 91 88 90 93 94 99 98 98 95 97 98 97 88 93 86 92 95 95 99 87 92 98 87 94 95 90 86 97 91 88 87 93 98 91 92 92 89 82 88 96 95 95 91 95 93 92 91 92 94 89 87 84 89 85 90 92 91 79 89 88 84 85 82 83 85 82 85 80 79 68 84 81
92 80 84 81 88 91 82 100 87 88 90 85 87 88 90 87 86 92 93 88 82 90 92 88 90 91 92 88 89 89 94 90 94 87 100 84 91 95 96 99 90 90 97 93 94 93 94 94 90 99 99 99 96 91 95 92 93 89 88 93 90 86 97 93 92 93 90 91 90 92 91 86 98 92 95 98 94 97 82 87 97 89 96 94 86 96 86 96 95 90 97 98 102 91 93 92 89 82 94 99 92 89 92 92 92 99 86 78 85 87 90 90 81 91 100 90 88 108 0 0
80 88 84 82 88 90 91 92 85 0 84 91 91 93 83 81 91 87 92 91 91 94 92 94 94 91 90 85 87 88 86 92 94 94 92 95 96 92 95 96 86 91 94 85 96 98 95 96 91 88 90 93 96 92 92 98 89 96 99 96 96 96 93 95 98 96 86 91 99 96 93 95 95 93 94 90 85 92 91 84 90 94 90 89 93 87 94 95 102 92 88 97 99 88 88 88 91 91 93 86 91 88 88 87 89 85 84 90 84 80 88 83 86 82 76 81 94 79 93 0
80 81 78 84 84 85 93 87 86 80 80 82 90 89 89 86 84 88 85 93 86 91 93 85 85 87 89 85 92 88 91 83 91 88 86 89 91 90 87 93 92 89 93 96 88 84 91 95 93 92 96 95 90 83 97 92 89 90 93 92 87 91 92 92 86 95 88 85 87 92 82 88 93 89 98 81 89 93 90 90 81 89 84 88 89 85 89 92 92 82 93 83 86 86 85 82 90 87 92 88 77 79 87 82 78 79 85 83 76 90 72 87 77 93 81 73 72 85 0 0
83 75 80 80 82 82 85 97 80 89 89 89 90 82 92 86 83 88 88 90 88 89 83 84 78 83 85 91 90 92 85 84 95 89 93 88 90 86 88 91 87 92 89 95 94 86 90 98 91 97 89 84 92 89 88 91 90 97 86 94 93 90 84 94 88 84 85 85 92 86 90 86 91 91 94 88 87 91 97 84 90 91 84 82 93 91 90 85 94 83 86 93 84 86 88 93 92 93 92 89 80 90 81 85 85 88 79 88 86 78 85 80 81 86 94 80 0 0 0 0
83 71 65 62 75 80 84 81 84 76 81 79 79 81 84 80 84 79 78 79 89 79 86 77 73 73 84 82 88 76 90 76 85 87 89 79 83 83 84 79 92 85 81 73 81 82 83 84 86 82 90 82 71 86 76 87 80 86 87 79 88 78 84 79 84 86 78 79 81 80 85 84 83 82 77 81 83 84 84 87 73 87 74 75 76 83 82 77 81 81 86 68 84 77 81 78 78 88 66 77 73 76 79 66 73 71 84 80 68 85 85 82 77 84 86 96 0 0 0 0
69 68 81 81 70 83 84 89 81 76 80 88 72 75 80 83 84 85 76 80 79 81 71 81 89 85 73 77 81 81 85 82 79 86 84 78 74 73 85 82 88 79 84 88 83 88 85 79 86 84 83 74 76 78 83 87 87 78 82 79 82 75 85 84 73 75 83 76 93 70 79 80 84 81 87 81 79 84 85 87 82 74 79 79 71 75 82 66 82 90 69 82 71 75 82 80 89 84 72 69 90 74 66 71 70 72 80 81 83 81 77 88 64 85 87 0 0 0 0 0
