0 0 0 0 0 0 0 0 0 0 0 0 0 0 0 0 0 0 0 0 0 0 0 0 0 0 0 0 0 0 0 0 0 0 0 0 0 0 0 0 0 0 0 0 0 0 0 0 0 0 0 0 0 0 0 0 0 0 0 0 0 0 0 0 0 0 0 0 0 0 0 0 0 0 0 0 0 0 0 0 0 0 0 0 0 0 0 0 0 0 0 0 0 0 0 0 0 0 0 0 0 0 0 0 0 0 0 0 0 0 0 0 0 0 0 0 0 0 0 0
0 0 0 0 0 0 0 0 0 0 0 0 0 0 0 0 0 0 0 0 0 0 0 0 0 0 0 0 0 0 0 0 0 0 0 0 0 0 0 0 0 0 0 0 0 0 0 0 0 0 0 0 0 0 0 0 0 0 0 0 0 0 0 0 0 0 0 0 0 0 0 0 0 0 0 0 0 0 0 0 0 0 0 0 0 0 0 0 0 0 0 0 0 0 0 0 0 0 0 0 0 0 0 0 0 0 0 0 0 0 0 0 0 0 0 0 0 0 0 0
0 0 0 0 0 0 0 0 0 0 0 0 0 0 0 0 0 0 0 0 0 0 0 0 0 0 0 0 0 0 0 0 0 0 0 0 0 0 0 0 0 0 0 0 0 0 0 0 0 0 0 0 0 0 0 0 0 0 0 0 0 0 0 0 0 0 0 0 0 0 0 0 0 0 0 0 0 0 0 0 0 0 0 0 0 0 0 0 0 0 0 0 0 0 0 0 0 0 0 0 0 0 0 0 0 0 0 0 0 0 0 0 0 0 0 0 0 0 0 0
0 0 0 0 0 0 0 0 0 0 0 1122 1146 1155 0 0 1311 1294 1277 0 0 0 1269 0 0 0 0 0 0 0 0 0 0 0 0 0 0 0 0 0 0 0 0 0 0 0 0 0 0 0 0 0 0 0 0 0 0 0 0 0 0 0 0 0 0 0 0 0 0 0 0 0 0 0 0 0 0 0 0 0 0 0 0 0 0 0 0 0 0 0 0 0 0 0 0 0 0 0 0 0 0 0 0 0 0 0 0 0 0 0 0 0 0 0 0 0 0 0 0 0
0 0 0 0 0 0 0 0 1136 1171 1135 1142 1153 1163 1180 0 1268 1287 1285 0 1255 1292 1248 0 0 0 0 0 0 0 0 0 0 0 0 0 0 0 0 0 0 0 0 0 0 0 0 0 0 0 0 0 0 0 0 0 0 0 0 0 0 0 0 0 0 0 0 0 0 0 0 0 0 0 0 0 0 0 0 0 0 0 0 0 0 0 0 0 0 0 0 0 0 0 0 0 0 0 0 0 0 0 0 0 0 0 0 0 0 0 0 0 0 0 0 0 0 0 0 0
0 0 0 0 0 0 0 1153 1102 1107 1128 0 1161 1157 1210 1227 1277 1297 1256 1289 1267 1252 1271 1249 0 0 0 0 0 0 0 0 0 0 0 0 0 0 0 0 0 0 0 0 0 0 0 0 0 0 0 0 0 0 0 0 0 0 0 0 0 0 0 0 0 0 0 0 0 0 0 0 0 0 0 0 0 0 0 0 0 0 0 0 0 0 0 0 0 0 0 0 0 0 0 0 0 0 0 0 0 0 0 0 0 0 0 0 0 0 0 0 0 0 0 0 0 0 0 0
0 0 0 0 0 0 0 0 0 0 0 0 1244 1234 1254 1307 1300 1278 1287 1273 1289 1290 1309 1290 1302 0 0 0 0 0 0 1413 0 0 0 0 0 0 0 0 0 0 0 0 0 0 0 0 0 0 0 0 0 0 0 0 0 0 0 0 0 0 0 0 0 0 0 0 0 0 0 0 0 0 0 0 0 0 0 0 0 0 0 0 0 0 0 0 0 0 0 0 0 0 0 0 0 0 0 0 0 0 0 0 0 0 0 0 0 0 0 0 0 0 0 0 0 0 0 0
0 0 0 0 0 0 0 0 0 0 0 0 1253 1262 1261 1283 1300 1302 1272 1280 1283 1278 1238 1300 0 1346 1329 1374 1357 0 0 1406 0 0 0 0 0 0 0 0 0 0 0 0 0 0 0 0 0 0 0 0 0 0 0 0 0 0 0 0 0 0 0 0 0 0 0 0 0 0 0 0 0 0 0 0 0 0 0 0 0 0 0 0 0 0 0 0 0 0 0 0 0 0 0 0 0 0 0 0 0 0 0 0 0 0 0 0 0 0 0 0 0 0 0 0 0 0 0 0
0 0 0 0 0 0 0 0 0 0 0 0 1235 1282 1276 1272 1276 1240 1283 1266 1259 1276 1280 1267 0 0 1291 1318 1341 1355 1328 1406 0 0 0 0 0 0 0 0 0 0 0 0 0 0 0 0 0 0 0 0 0 0 0 0 0 0 0 0 0 0 0 0 0 0 0 0 0 0 0 0 0 0 0 0 0 0 0 0 0 0 0 0 0 0 0 0 0 0 0 0 0 0 0 0 0 0 0 0 0 0 0 0 0 0 0 0 0 0 0 0 0 0 0 0 0 0 0 0
0 0 0 0 0 0 0 0 0 0 0 0 0 1287 1314 1277 1277 1268 1279 1260 1245 1266 1268 1271 1263 0 1336 1376 1375 1335 1361 1403 0 0 0 0 0 0 0 0 0 0 0 0 0 0 0 0 0 0 0 0 0 0 0 0 0 0 0 0 0 0 0 0 0 0 0 0 0 0 0 0 0 0 0 0 0 0 0 0 0 0 0 0 0 0 0 0 0 0 0 0 0 0 0 0 0 0 0 0 0 0 0 0 0 0 0 0 0 0 0 0 0 0 0 0 0 0 0 0
0 0 0 0 0 0 0 0 0 0 0 0 0 0 0 0 0 0 0 0 0 1292 1259 1253 1242 0 0 1328 1339 1329 1341 1400 1366 0 0 0 0 0 0 0 0 0 0 0 0 0 0 0 0 0 0 0 0 0 0 0 0 0 0 0 0 0 0 0 0 0 0 0 0 0 0 0 0 0 0 0 0 0 0 0 0 0 0 0 0 0 0 0 0 0 0 0 0 0 0 0 0 0 0 0 0 0 0 0 0 0 0 0 0 0 0 0 0 0 0 0 0 0 0 0
0 0 0 0 0 0 0 0 0 0 0 0 0 0 0 0 0 0 0 0 0 0 0 1331 1344 0 0 1330 1326 1348 1359 1384 1440 0 0 0 0 0 0 0 0 0 0 0 0 0 0 0 0 0 0 0 0 0 0 0 0 0 0 0 0 0 0 0 0 0 0 0 0 0 0 0 0 0 0 0 0 0 0 0 0 0 0 0 0 0 0 0 0 0 0 0 0 0 0 0 0 0 0 0 0 0 0 0 0 0 0 1692 0 0 0 0 0 0 0 0 0 0 0 0
0 0 0 0 0 0 0 0 0 0 0 0 0 0 0 0 0 0 0 0 0 0 0 1375 1383 1334 1323 1305 1363 1336 1373 1408 1444 0 0 0 0 0 0 0 0 0 0 0 0 0 0 0 0 0 0 0 0 0 0 0 0 0 0 0 0 0 0 0 0 0 0 0 0 0 0 0 0 0 0 0 0 0 0 0 0 0 0 0 0 0 0 0 0 0 0 0 0 0 0 0 0 0 0 0 0 0 0 0 0 0 1732 1688 1784 0 0 0 0 0 0 0 0 0 0 0
0 0 0 0 0 0 0 0 0 0 0 0 0 0 0 0 0 0 0 0 0 0 0 1386 1377 1370 1329 1325 1335 1333 1364 1381 1448 0 0 0 0 0 0 0 0 0 0 0 0 0 0 0 0 0 0 0 0 0 0 0 0 0 0 0 0 0 0 0 0 0 0 0 0 0 0 0 0 0 0 0 0 0 0 0 0 0 0 0 0 0 0 0 0 0 0 0 0 0 0 0 0 0 0 0 0 0 0 0 0 1752 1682 1759 1698 0 0 0 0 0 0 0 0 0 0 0
0 0 0 0 0 0 0 0 0 0 0 0 0 0 1339 0 0 0 0 0 0 0 0 1393 1386 1389 1363 1344 1302 1330 1379 1414 1404 0 0 0 0 0 0 0 0 0 0 0 0 0 0 0 0 0 0 0 0 0 0 0 0 0 0 0 0 0 0 0 0 0 0 0 0 0 0 0 0 0 0 0 0 0 0 0 0 0 0 0 0 0 0 0 0 0 0 0 0 0 0 0 0 0 0 0 0 0 0 0 0 1799 1679 0 1651 0 0 0 0 0 0 0 0 0 0 0
0 0 0 0 0 0 0 0 0 0 0 0 0 0 0 0 0 0 0 0 0 0 0 1385 1364 1368 1387 1381 1372 1324 1356 1407 1415 0 0 0 0 0 0 0 0 0 0 0 0 0 0 0 0 0 0 0 0 0 0 0 0 0 0 0 0 0 0 0 0 0 0 0 0 0 0 0 0 0 0 0 0 0 0 0 0 0 0 0 0 0 0 0 0 0 0 0 0 0 0 0 0 0 0 0 0 0 0 0 0 0 0 1673 1672 0 0 0 0 1669 0 0 0 0 0 0
1250 1260 1242 1293 1287 1320 1376 0 0 0 0 0 0 0 0 0 0 0 0 0 0 0 0 0 1388 1367 1370 1374 1363 1359 1370 1394 1411 0 0 0 0 0 0 0 0 0 0 0 0 0 0 0 0 0 0 0 0 0 0 0 0 0 0 0 0 0 0 0 0 0 0 0 0 0 0 0 0 0 0 0 0 0 0 0 0 0 0 0 0 0 0 0 0 0 0 0 0 0 0 0 0 0 0 0 0 0 0 0 1782 1750 1724 1729 1731 1714 0 0 0 0 0 0 0 0 0 0
1238 1272 1273 1273 1303 1320 1326 1305 1322 1317 1327 1356 0 0 0 0 0 0 0 0 0 0 0 1371 1360 1362 1362 1374 1383 1358 1385 1436 1419 0 0 0 0 0 0 0 0 0 0 0 0 0 0 0 0 0 0 0 0 0 0 0 0 0 0 0 0 0 0 0 0 0 0 0 0 0 0 0 0 0 0 0 0 0 0 0 0 0 0 0 0 0 0 0 0 0 0 0 0 0 0 0 0 0 0 0 0 0 0 1775 1753 1723 1748 1734 1700 1649 1674 1654 0 0 0 0 0 0 0 0
1256 1269 1254 1271 1285 1295 1294 1313 1336 1339 1351 1354 1366 1376 1393 1368 0 0 0 0 0 0 0 0 0 1371 0 0 1380 0 0 1416 1419 0 0 0 0 0 0 0 0 0 0 0 0 0 0 0 0 0 0 0 0 0 0 0 0 0 0 0 0 0 0 0 0 0 0 0 0 0 0 0 0 0 0 0 0 0 0 0 0 0 0 0 0 0 0 0 0 0 0 0 0 0 0 0 0 0 0 0 0 0 1825 1767 1771 1713 1734 1719 1686 1740 1676 1668 0 0 0 0 0 0 0 0
0 0 0 0 1292 1285 1290 1328 1312 1325 1342 1342 1375 1366 1387 1410 1407 1415 1443 1439 1474 0 0 0 0 0 0 0 0 0 0 1441 1420 1437 0 0 0 0 0 0 0 0 0 0 0 0 0 0 0 0 0 0 0 0 0 0 0 0 0 0 0 0 0 0 0 0 0 0 0 0 0 0 0 0 0 0 0 0 0 0 0 0 0 0 0 0 0 0 0 0 0 0 0 0 0 0 0 0 0 0 0 0 1813 1835 1773 1762 1730 1731 1732 1662 0 0 0 0 0 0 0 0 0 0
0 0 0 0 0 0 0 0 0 1321 1344 1335 1369 1373 1390 1386 1394 1409 1420 1430 1446 1451 0 0 0 0 0 0 0 0 0 1416 1475 1480 0 0 0 0 0 0 0 0 0 0 0 0 0 0 0 0 0 0 0 0 0 0 0 0 0 0 0 0 0 0 0 0 0 0 0 0 0 0 0 0 0 0 0 0 0 0 0 0 0 0 0 0 0 0 0 0 0 0 0 0 0 0 0 0 0 0 0 0 0 1771 1741 1643 1621 1651 1567 1622 1539 1612 1623 1533 1568 0 0 0 0 0
0 0 0 0 0 0 0 0 0 0 0 0 0 0 0 1389 1372 1394 1418 1410 1445 1468 0 0 0 0 0 0 0 0 0 0 1477 0 0 0 0 0 0 0 0 0 0 0 0 0 0 0 0 0 0 0 0 0 0 0 0 0 0 0 0 0 0 0 0 0 0 0 0 0 0 0 0 0 0 0 0 0 0 0 0 0 0 0 0 0 0 0 0 0 0 0 0 0 0 0 0 0 0 0 0 1762 1628 1621 1619 1593 1600 1604 1585 1557 1570 1609 1582 1577 1502 0 0 0 0 0
0 0 0 0 0 0 0 0 0 0 0 0 0 0 0 0 0 0 0 0 0 1489 0 0 0 0 0 0 0 0 0 0 0 0 0 0 0 0 0 0 0 0 0 0 0 0 0 0 0 0 0 0 0 0 0 0 0 0 0 0 0 0 0 0 0 0 0 0 0 0 0 0 0 0 0 0 0 0 0 0 0 0 0 0 0 0 0 0 0 0 0 0 0 0 0 0 0 0 0 0 0 1640 1610 1572 1608 1604 1596 1590 1586 1592 1607 1571 1589 1568 0 0 0 0 0 0
0 0 0 0 0 0 0 0 0 0 0 0 0 0 0 0 0 0 0 0 0 0 0 0 0 0 0 0 0 0 0 0 0 0 0 0 0 0 0 0 0 0 0 0 0 0 0 0 0 0 0 0 0 0 0 0 0 0 0 0 0 0 0 0 0 0 0 0 0 0 0 0 0 0 0 0 0 0 0 0 0 0 0 0 0 0 0 0 0 0 0 0 0 0 0 0 0 0 0 0 0 0 0 1585 1587 1597 1616 1593 1606 1555 1599 1588 0 0 0 0 0 0 0 0
0 0 0 0 0 0 0 0 0 0 0 0 0 0 0 0 0 0 0 0 0 0 0 0 0 0 0 0 0 0 0 0 0 0 0 0 0 0 0 0 0 0 0 0 0 0 0 0 0 0 0 0 0 0 0 0 0 0 0 0 0 0 0 0 0 0 0 0 0 0 0 0 0 0 0 0 0 0 0 0 0 0 0 0 0 0 0 0 0 0 0 0 0 0 0 0 0 0 0 0 0 0 0 0 0 0 0 1637 0 0 0 0 0 0 0 0 0 0 0 0
0 0 0 0 0 0 0 0 0 0 0 0 0 0 0 0 0 0 0 0 0 0 0 0 0 0 0 0 0 0 0 0 0 0 0 0 0 0 0 0 0 0 0 0 0 0 0 0 0 0 0 0 0 0 0 0 0 0 0 0 0 0 0 0 0 0 0 0 0 0 0 0 0 0 0 0 0 0 0 0 0 0 0 0 0 0 0 0 0 0 0 0 0 0 0 0 0 0 0 0 0 0 0 0 0 0 0 0 0 0 0 0 0 0 0 0 0 0 0 0
570 613 0 0 0 0 0 0 0 0 0 0 0 0 0 0 0 0 0 0 0 0 0 0 0 1859 1864 0 0 0 0 0 0 0 0 0 0 0 0 0 0 0 0 0 0 0 0 2982 2904 2916 2905 2956 2884 2939 2941 2914 2906 2915 2952 2872 2944 2936 2876 2878 2908 2930 0 0 0 0 0 0 0 0 0 0 0 0 0 0 0 0 0 0 0 0 0 0 0 0 0 0 0 0 0 0 1718 0 0 0 0 0 0 0 0 0 0 0 0 0 0 0 0 0 0 0 0 0 0 0
580 594 606 597 629 659 0 0 0 0 0 0 0 0 0 0 0 0 0 0 0 0 0 0 0 0 0 1908 1929 0 0 0 0 0 0 0 0 0 0 0 0 0 0 0 0 0 0 2903 2914 2925 2914 2936 2923 2898 2906 2885 2941 2889 2887 2903 2929 2899 2912 2874 2846 2916 0 0 0 0 0 0 0 0 0 0 0 0 0 0 0 0 0 0 0 0 0 0 0 0 0 0 0 0 0 0 0 0 0 0 0 0 0 0 0 0 0 0 0 0 0 0 0 0 0 0 0 0 0 0
572 577 591 605 621 638 635 662 688 0 0 0 0 0 0 0 0 0 0 0 0 0 0 0 0 0 0 0 0 0 0 0 0 0 0 0 0 0 0 0 0 0 0 0 0 0 0 2918 2938 2914 2970 2907 2909 2856 2940 2904 2881 2844 2923 2916 2902 2901 2886 2923 2871 0 0 0 0 0 0 0 0 0 0 0 0 0 0 0 0 0 0 0 0 0 0 0 0 0 0 0 0 0 0 0 0 0 0 0 0 0 0 0 0 0 0 0 0 0 0 0 0 0 0 0 0 0 0 0
555 595 593 606 621 626 636 651 641 673 678 707 0 0 0 0 0 0 0 0 0 0 0 0 0 0 0 0 0 0 0 0 0 0 0 0 0 0 0 0 0 0 0 0 0 0 0 2908 2899 2850 2900 2915 2901 2944 2933 2883 2903 2904 2870 2935 2942 2860 2910 2878 2907 0 0 0 0 0 0 0 0 0 0 0 0 0 0 0 0 0 0 0 0 0 0 0 0 0 0 0 0 0 0 0 0 0 0 0 0 0 0 0 0 0 0 0 0 0 0 0 0 0 0 0 0 0 0 0
565 609 588 607 634 657 640 638 657 663 669 704 716 720 734 0 0 0 0 0 0 0 0 0 0 0 0 0 0 0 0 0 0 0 0 0 0 0 0 0 0 0 0 0 0 0 0 2884 2912 2874 2921 2920 2918 2890 2916 2915 2905 2944 2926 2883 2947 2936 2942 2921 2908 0 0 0 0 0 0 0 0 0 0 0 0 0 0 0 0 0 0 0 0 0 0 0 0 0 0 0 0 0 0 0 0 0 0 0 0 0 0 0 0 0 0 0 0 0 0 0 0 0 0 0 0 0 0 0
759 766 765 757 732 691 640 630 652 690 680 699 691 751 735 728 787 806 0 0 0 0 0 0 0 0 0 0 0 0 0 0 0 0 0 0 0 0 0 0 0 0 0 0 0 0 0 2961 2864 2908 2919 2895 2950 2915 2897 2932 2919 2900 2885 2850 2889 2902 2883 2883 2941 2890 0 0 0 0 0 0 0 0 0 0 0 0 0 0 0 0 0 0 0 0 0 0 0 0 0 0 0 0 0 0 0 0 0 0 0 0 0 0 0 0 0 0 0 0 0 0 0 0 0 0 0 0 0 0
802 790 824 810 832 841 866 855 831 781 758 745 704 705 726 719 761 768 825 809 835 0 0 0 0 0 0 0 0 0 0 0 0 0 0 0 0 0 0 0 0 0 0 0 0 0 0 2929 2923 2904 2899 2897 2874 2954 2921 2922 2915 2921 2910 2925 2921 2928 2895 2898 2907 2857 0 0 0 0 0 0 0 0 0 0 0 0 0 0 0 0 0 0 0 0 0 0 0 0 0 0 0 0 0 0 0 0 0 0 0 0 0 0 0 0 0 0 0 0 0 0 0 0 0 0 0 0 0 0
783 787 796 821 838 858 882 876 908 905 916 920 906 907 841 800 794 795 794 810 835 852 889 913 0 0 0 0 0 0 0 0 0 0 0 0 0 0 0 0 0 0 0 0 0 0 0 2938 2918 2938 2930 2862 2921 2879 2930 2916 2934 2908 2863 2888 2904 2897 2906 2870 2901 2910 0 0 0 0 0 0 0 0 0 0 0 0 0 0 0 0 0 0 0 0 0 0 0 0 0 0 0 0 0 0 0 0 0 0 0 0 0 0 0 0 0 0 0 0 0 0 0 0 0 0 0 0 0 0
633 0 844 860 872 858 882 885 916 913 947 940 939 939 943 951 946 942 910 876 844 874 883 894 916 900 0 0 0 0 0 0 0 0 0 0 0 0 0 0 0 0 0 0 0 0 0 2919 2965 2902 2857 2948 2951 2915 2922 2891 2894 2928 2888 2915 2931 2915 2898 2851 2881 2904 0 0 0 0 0 0 0 0 0 0 0 0 0 0 0 0 0 0 0 0 0 0 0 0 0 0 0 0 0 0 0 0 0 0 0 0 0 0 0 0 0 0 0 0 0 0 0 0 0 0 0 0 0 0
635 947 935 921 925 962 0 909 924 929 926 939 944 956 952 946 948 955 951 953 961 937 920 900 887 935 946 992 993 0 0 0 0 0 0 0 0 0 0 0 0 0 0 0 0 0 0 2873 2957 2930 2888 2860 2896 2893 2873 2861 2871 2891 2881 2908 2879 2903 2896 2903 2898 2855 0 0 0 0 0 0 0 0 0 0 0 0 0 0 0 0 0 0 0 0 0 0 0 0 0 0 0 0 0 0 0 0 0 0 0 0 0 0 0 0 0 0 0 0 0 0 0 0 0 0 0 0 0 0
588 661 0 0 0 0 0 0 0 0 971 985 961 937 977 968 957 948 972 954 946 942 956 936 939 916 938 996 1010 1043 0 0 0 0 0 0 0 0 0 0 0 0 0 0 0 0 0 2955 2959 2886 2885 2876 2946 2940 2919 2944 0 2957 2881 2952 2872 2884 2900 2888 2917 2876 0 0 0 0 0 0 0 0 0 0 0 0 0 0 0 0 0 0 0 0 0 0 0 0 0 0 0 0 0 0 0 0 0 0 0 0 0 0 0 0 0 0 0 0 0 0 0 0 0 0 0 0 0 0
604 597 602 0 1096 1154 1143 1157 1127 1150 1150 1158 1153 1139 1134 1155 1125 1046 0 0 1007 1054 1061 973 1013 1044 1113 1134 1125 1100 1064 0 0 0 0 0 0 0 0 0 0 0 0 0 0 0 0 2909 2921 2946 2937 2907 2890 2881 2870 2897 2871 2894 2883 2930 2864 2882 2889 2927 2880 2863 0 0 0 0 0 0 0 0 0 0 0 0 0 0 0 0 0 0 0 0 0 0 0 0 0 0 0 0 0 0 0 0 0 0 0 0 0 0 0 0 0 0 0 0 0 0 0 0 0 0 0 0 0 0
600 594 584 650 0 0 0 0 0 0 0 0 0 0 0 0 1449 1000 0 0 1120 1160 1113 0 0 1123 1132 1152 1160 1166 1119 0 0 0 0 0 0 0 0 0 0 0 0 0 0 0 0 2864 2908 2933 2930 2898 2862 2895 2901 2884 2933 2873 2887 2907 2898 2835 2868 2861 2869 2864 0 0 0 0 0 0 0 0 0 0 0 0 0 0 0 0 0 0 0 0 0 0 0 0 0 0 0 0 0 0 0 0 0 0 0 0 0 0 0 0 0 0 0 0 0 0 0 0 0 0 0 0 0 0
594 581 603 605 579 0 0 0 0 0 0 0 0 0 0 0 0 959 982 0 0 0 0 0 0 0 0 0 0 0 0 0 0 0 0 0 0 0 0 0 0 0 0 0 0 0 0 2884 2892 2942 2915 2884 2893 2931 2932 2909 2928 2887 2932 2898 2911 2856 2880 2889 2879 0 0 0 0 0 0 0 0 0 0 0 0 0 0 0 0 0 0 0 0 0 0 0 0 0 0 0 0 0 0 0 0 0 0 0 0 0 0 0 0 0 0 0 0 0 0 0 0 0 0 0 0 0 0 0
566 580 622 585 605 541 0 0 0 0 0 0 0 0 0 0 0 0 0 0 0 0 0 0 0 0 0 0 0 0 0 0 0 0 0 0 0 0 0 0 0 0 0 0 0 0 0 2962 2923 2960 2947 2876 2903 2942 2905 2989 2881 2886 2870 2926 2873 2896 2881 2924 2879 0 0 0 0 0 0 0 0 0 0 0 0 0 0 0 0 0 0 0 0 0 0 0 0 0 0 0 0 0 0 0 0 0 0 0 0 0 0 0 0 0 0 0 0 0 0 0 0 0 0 0 0 0 0 0
582 598 610 601 606 607 0 0 0 0 0 0 0 0 0 0 0 0 0 0 0 0 948 0 0 0 0 0 0 0 0 0 0 0 0 0 0 0 0 0 0 0 0 0 0 0 0 2920 2914 2932 2928 2965 2907 2919 2884 2932 2929 2878 2952 2859 2870 2932 2909 2876 2907 0 0 0 0 0 0 0 0 0 0 0 0 0 0 0 0 0 0 0 0 0 0 0 0 0 0 0 0 0 0 0 0 0 0 0 0 0 0 0 0 0 0 0 0 0 0 0 0 0 0 0 0 0 0 0
584 634 613 605 627 621 605 0 0 0 0 0 0 0 0 0 0 0 0 0 0 0 943 0 0 0 0 0 0 0 0 0 0 0 0 0 0 0 0 0 0 0 0 0 0 0 0 2949 2933 2897 2924 2901 2855 2950 2922 2900 2992 2893 2904 2932 2880 2898 2852 2924 2904 0 0 0 0 0 0 0 0 0 0 0 0 0 0 0 0 0 0 0 0 0 0 0 0 0 0 0 0 0 0 0 0 0 0 0 0 0 0 0 0 0 0 0 0 0 0 0 0 0 0 0 0 0 0 0
597 577 594 619 625 621 651 0 0 0 0 0 0 0 0 0 0 0 0 0 0 0 0 0 0 0 0 0 0 0 0 0 0 0 0 0 0 0 0 0 0 0 0 0 0 0 0 2887 2942 2875 2891 2904 2868 2880 2884 2910 2849 2945 2900 2899 2885 2872 2889 2890 2867 2880 0 0 0 0 0 0 0 0 0 0 0 0 0 0 0 0 0 0 0 0 0 0 0 0 0 0 0 0 0 0 0 0 0 0 0 0 0 0 0 0 0 0 0 0 0 0 0 0 0 0 0 0 0 0
587 577 605 586 592 636 580 0 0 0 0 0 0 0 0 0 2301 0 0 0 0 0 967 983 0 0 0 0 0 0 0 0 0 0 0 0 0 0 0 0 0 0 0 0 0 0 0 2963 2975 2870 2902 2900 2916 2892 2910 2890 2918 2875 2935 2900 2865 2881 2902 2888 2873 2850 0 0 0 0 0 0 0 0 0 0 0 0 0 0 0 0 0 0 0 0 0 0 0 0 0 0 0 0 0 0 0 0 0 0 0 0 0 0 0 0 0 0 0 0 0 0 0 0 0 0 0 0 0 0
592 604 585 592 624 647 593 0 0 0 0 0 0 0 0 0 0 0 0 0 0 0 0 0 0 0 0 0 0 0 0 0 0 0 0 0 0 0 0 0 0 0 0 0 0 0 0 2885 2894 2866 2933 2960 2896 2875 2855 2896 2924 2878 2916 2875 2877 2894 2897 2878 2879 2894 0 0 0 0 0 0 0 0 0 0 0 0 0 0 0 0 0 0 0 0 0 0 0 0 0 0 0 0 0 0 0 0 0 0 0 0 0 0 0 0 0 0 0 0 0 0 0 0 0 0 0 0 0 0
581 604 593 644 595 588 0 0 0 0 0 0 0 0 0 0 0 0 0 0 0 0 0 0 0 0 0 0 0 0 0 0 0 0 0 0 0 0 0 0 0 0 0 0 0 0 0 0 0 0 0 0 0 0 0 0 0 0 0 0 0 3000 2967 2899 2938 0 0 0 0 0 0 0 0 0 0 0 0 0 0 0 0 0 0 0 0 0 0 0 0 0 0 0 0 0 0 0 0 0 0 0 0 0 0 0 0 0 0 0 0 0 0 0 0 0 0 0 0 0 0 0
589 579 616 608 592 621 0 0 0 0 0 0 0 0 0 0 0 0 0 0 0 0 0 0 0 0 0 0 0 0 0 0 0 0 0 0 0 0 0 0 0 0 0 0 0 0 0 0 0 0 0 0 0 0 0 0 0 0 0 0 0 0 0 0 0 0 0 0 0 0 0 0 0 0 0 0 0 0 0 0 0 0 0 0 0 0 0 0 0 0 0 0 0 0 0 0 0 0 0 0 0 0 0 0 0 0 0 0 0 0 0 0 0 0 0 0 0 0 0 0
598 618 612 603 578 628 0 0 0 0 0 0 0 0 0 0 0 0 0 0 0 0 0 0 0 0 0 0 0 0 0 0 0 0 0 0 0 0 0 0 0 0 0 0 0 0 0 0 0 0 0 0 0 0 0 0 0 0 0 0 0 0 0 0 0 0 0 0 0 0 0 0 0 0 0 0 0 0 0 0 0 0 0 0 0 0 0 0 0 0 0 0 0 0 0 0 0 0 0 0 0 0 0 0 0 0 0 0 0 0 0 0 0 0 0 0 0 0 0 0
565 602 591 569 603 0 0 0 0 0 0 0 0 0 0 0 0 0 0 0 0 0 0 0 0 0 0 0 0 0 0 0 0 0 0 0 0 0 0 0 0 0 0 0 0 0 0 0 0 0 0 0 0 0 0 0 0 0 0 0 0 0 0 0 0 0 0 0 0 0 0 0 0 0 0 0 0 0 0 0 0 0 0 0 0 0 0 0 0 0 0 0 0 0 0 0 0 0 0 0 0 0 0 0 0 0 0 0 0 0 0 0 0 0 0 0 0 0 0 0
594 584 599 638 0 0 0 0 0 0 0 0 0 0 0 0 0 0 0 0 0 0 0 0 0 0 914 882 924 877 888 879 912 926 905 931 0 881 898 901 0 930 0 0 0 0 0 0 0 0 0 0 0 0 0 0 0 0 0 0 0 0 0 0 0 0 0 0 0 0 0 0 0 0 0 0 0 0 0 0 0 0 0 0 0 0 0 0 0 0 0 0 0 0 0 0 0 0 0 0 0 0 0 0 0 0 0 0 0 0 0 0 0 0 0 0 0 0 0 0
570 588 0 0 0 0 0 671 647 688 678 666 697 712 696 698 689 678 685 702 692 729 735 722 709 736 712 733 686 754 694 752 721 740 746 724 752 728 734 742 706 772 728 793 753 787 777 734 763 747 740 776 759 746 744 791 782 780 793 768 797 810 785 785 829 791 797 754 843 794 764 813 799 0 0 0 0 0 791 0 0 0 0 0 0 0 0 0 0 0 0 0 0 0 0 0 0 0 0 0 0 0 0 0 0 0 0 0 0 0 0 0 0 0 0 0 0 0 0 0
546 501 579 571 512 577 567 545 532 543 577 552 568 537 575 588 549 575 584 569 556 576 590 578 590 580 600 587 613 605 571 558 577 634 597 566 590 621 583 581 586 599 600 621 575 608 598 609 625 583 601 605 618 596 607 634 599 630 600 633 630 608 615 636 622 606 620 618 669 640 671 681 644 666 621 623 633 652 647 641 636 615 647 647 657 636 684 675 635 699 648 615 682 715 675 576 638 624 650 744 703 677 0 0 0 0 0 0 0 0 0 0 0 0 0 0 0 0 0 0
503 490 512 489 509 492 478 496 507 500 509 481 491 483 502 518 503 518 509 517 532 509 509 488 504 499 510 521 485 503 496 521 511 519 538 524 528 518 517 494 522 526 545 513 527 544 531 515 532 523 547 527 533 527 541 544 531 526 535 529 549 561 540 533 535 557 548 538 527 550 553 552 525 538 539 543 560 555 568 527 588 565 559 561 548 563 594 562 571 525 554 591 597 561 610 612 547 608 553 587 577 608 607 565 0 569 0 604 559 562 611 0 0 0 0 0 0 0 0 0
437 413 429 428 456 431 438 451 407 423 423 450 445 441 423 430 432 435 434 438 459 465 455 450 443 444 463 448 442 457 453 463 468 450 455 449 451 469 483 454 462 457 466 461 469 472 458 469 475 491 457 475 488 477 481 466 485 457 481 472 469 491 473 481 472 482 483 467 476 489 486 488 489 481 472 466 490 471 474 486 479 487 503 486 508 513 466 503 459 504 511 484 497 488 465 501 481 499 496 511 487 484 499 506 480 510 491 532 486 474 522 491 0 0 0 0 0 0 0 0
374 392 393 391 403 382 397 412 404 387 424 386 397 406 396 391 405 393 406 391 401 402 411 408 396 408 411 411 398 415 404 424 419 413 419 412 416 417 408 408 412 423 419 417 418 412 431 424 419 422 422 419 432 428 424 419 425 432 425 423 419 434 424 416 419 428 418 430 421 423 435 418 430 423 427 426 430 431 430 407 421 418 413 428 429 428 440 416 424 426 430 432 435 427 452 427 431 419 424 424 423 426 451 423 435 456 425 452 447 434 424 444 442 433 0 0 0 0 0 0
353 356 368 363 350 378 353 352 361 378 362 351 352 365 365 364 369 372 368 363 350 366 371 383 362 370 359 381 360 364 359 375 369 361 372 365 393 382 366 366 374 376 369 376 370 372 391 389 380 377 380 372 383 388 380 373 367 387 382 386 373 388 382 370 387 386 382 392 385 389 385 384 392 395 396 384 388 389 394 403 402 384 392 394 392 383 390 392 383 386 403 412 389 399 388 406 396 390 391 396 396 397 400 400 387 405 411 389 406 390 393 402 376 381 430 365 0 0 0 0
320 315 307 322 335 300 329 332 337 323 333 348 327 325 352 338 334 337 337 337 332 323 335 334 338 343 343 337 343 342 336 341 340 351 343 332 351 340 328 341 346 345 339 346 330 336 344 346 357 366 354 344 339 350 351 338 358 334 338 345 340 351 342 353 343 346 341 359 351 349 353 346 346 348 352 351 355 348 338 345 350 360 353 350 344 342 341 357 352 354 340 359 357 358 359 346 349 363 362 360 353 354 354 362 380 345 353 360 371 346 362 354 345 372 347 341 338 0 0 0
288 296 295 283 298 293 312 299 295 279 301 293 298 305 296 298 297 292 297 320 290 305 299 307 288 301 299 300 295 322 288 310 301 312 308 311 310 311 309 316 313 319 310 306 305 305 314 315 312 310 307 305 319 314 320 317 311 310 312 314 315 311 306 322 312 320 313 321 316 313 319 317 316 313 305 309 316 314 320 323 309 315 312 323 314 337 317 328 323 321 311 322 323 332 323 327 316 326 347 335 341 330 340 330 316 329 339 304 308 333 335 309 324 343 350 375 306 333 317 0
279 260 264 273 286 263 274 281 270 277 270 279 284 281 282 286 278 282 285 281 279 282 277 282 274 265 283 278 283 270 275 284 273 283 283 277 283 274 284 281 278 286 286 284 288 279 283 287 286 286 290 286 281 281 276 295 282 285 284 294 281 283 285 289 289 287 290 296 294 288 289 286 290 288 287 293 292 284 279 296 290 294 285 285 294 293 284 299 289 292 293 293 290 294 291 301 282 290 296 295 288 307 308 301 291 304 299 283 292 297 293 284 283 275 317 306 303 293 265 320
255 253 255 246 251 248 254 255 257 251 251 251 255 260 259 254 262 259 259 255 259 262 263 254 260 262 254 262 255 257 260 252 266 259 261 265 262 268 268 265 265 269 262 264 263 266 272 259 262 273 272 266 271 267 273 265 260 267 264 267 267 261 270 266 273 271 274 263 270 269 266 270 268 273 276 267 272 269 267 262 266 264 259 276 265 267 274 269 265 264 263 268 271 272 264 267 265 274 287 281 285 279 274 286 280 271 273 289 273 277 270 260 274 269 288 263 252 270 273 287
232 225 238 237 237 230 244 235 235 226 234 229 245 241 236 241 234 242 253 242 236 247 241 241 235 238 243 244 238 248 238 249 243 243 238 245 239 252 246 254 247 243 241 246 240 251 248 248 242 255 245 248 245 248 245 246 245 242 247 250 258 251 258 250 252 251 247 246 246 249 251 256 247 245 249 252 251 251 253 248 253 243 262 252 253 253 244 246 256 247 249 254 257 243 256 251 249 247 251 246 251 246 254 254 253 257 249 258 250 248 266 235 257 258 249 255 263 246 241 263
220 225 221 214 227 221 227 218 219 216 222 230 227 223 224 221 221 228 231 223 230 224 228 230 228 225 227 229 232 232 225 228 230 223 238 232 224 228 233 237 228 231 227 227 227 236 222 239 239 232 229 225 233 228 229 235 229 232 235 234 228 234 237 232 237 231 237 236 229 235 229 239 235 236 227 229 235 228 230 225 233 225 232 227 238 228 237 233 232 226 228 226 237 230 230 227 243 231 240 241 244 237 244 241 231 227 230 236 238 240 231 243 247 244 245 233 223 219 241 228
207 212 221 214 217 204 201 207 206 210 213 215 210 213 213 208 213 212 215 221 216 210 210 208 211 216 213 218 216 214 220 220 213 215 217 217 197 214 217 215 216 222 220 221 203 214 202 223 220 222 215 217 221 202 207 222 222 219 225 207 216 226 221 225 226 219 223 224 222 222 219 221 219 220 202 222 221 227 224 221 216 219 229 233 220 225 216 219 217 220 225 213 223 220 217 222 221 210 225 228 219 212 224 218 219 221 228 231 227 225 221 228 212 223 244 231 232 220 224 238
196 197 199 204 205 200 205 199 184 179 181 200 183 190 189 183 186 185 196 193 190 192 194 191 187 185 190 193 186 210 191 189 191 186 195 191 198 197 188 191 194 196 199 193 194 191 201 195 193 197 191 201 200 192 191 197 195 194 198 197 196 196 194 194 194 197 198 192 198 196 194 196 199 192 198 193 195 189 192 197 194 199 197 199 200 194 195 190 198 213 209 210 213 190 190 193 207 191 213 209 204 214 209 208 210 207 208 210 208 208 214 210 210 182 213 211 198 197 205 205
177 178 194 197 179 180 179 181 181 183 179 176 176 177 185 184 184 183 185 185 178 186 182 187 190 182 190 182 190 185 193 189 193 190 186 195 195 192 187 192 193 195 193 197 187 199 198 198 195 197 196 198 193 198 196 200 199 199 195 198 198 199 194 200 193 193 200 194 201 199 197 194 197 191 194 189 198 194 190 196 187 188 195 194 190 193 193 193 184 183 184 184 192 183 179 191 191 188 191 183 204 190 182 206 184 184 189 204 193 187 207 181 178 180 203 202 214 187 179 168
177 176 179 170 174 176 174 185 176 181 184 174 184 178 177 183 183 185 180 181 178 185 184 183 185 188 186 185 188 185 183 182 188 184 185 184 184 186 189 188 188 182 193 187 186 189 184 194 185 187 190 190 188 195 190 193 190 190 193 194 191 187 185 194 189 190 189 188 188 192 192 187 190 191 192 185 195 188 192 189 193 194 184 187 188 191 190 189 187 190 183 190 187 187 186 184 187 188 190 180 182 189 183 185 183 179 190 184 181 177 183 182 177 188 175 171 203 185 183 183
173 165 160 165 167 170 166 176 169 168 170 171 173 171 176 173 175 180 182 183 173 172 173 171 171 171 177 175 173 180 180 177 175 170 170 175 173 176 179 180 171 178 179 177 183 176 181 179 182 179 180 181 174 184 178 182 181 178 181 177 175 179 184 181 179 178 178 182 180 180 177 181 178 181 180 177 182 182 180 183 181 182 181 177 178 178 177 183 181 179 178 177 175 180 181 179 179 179 180 180 186 182 182 182 176 175 174 177 178 175 176 177 180 172 174 171 177 175 173 173
166 163 172 166 160 169 158 162 166 165 165 167 162 168 170 171 169 173 176 168 164 164 171 172 171 163 165 169 174 179 171 170 170 167 166 170 171 174 171 173 165 166 175 170 173 172 169 174 174 173 175 172 172 172 176 172 170 173 177 175 174 173 172 169 173 177 170 171 170 171 176 177 175 173 174 177 174 176 176 169 170 169 169 170 166 175 175 169 176 169 169 178 168 170 169 171 172 172 168 179 173 179 168 170 178 171 179 171 169 162 167 166 176 171 166 170 178 168 179 174
157 158 165 164 161 162 161 157 155 160 163 161 158 160 162 168 161 168 166 160 163 167 167 161 163 165 164 161 160 163 163 172 165 162 159 162 160 157 162 165 161 164 168 165 164 167 157 163 163 161 157 168 167 164 166 168 164 168 164 168 162 162 164 163 166 165 163 164 164 166 162 158 166 164 164 170 166 169 170 167 166 160 166 173 167 162 168 165 165 166 169 164 162 165 165 164 160 164 168 172 172 166 162 167 167 165 171 163 165 161 168 165 172 171 173 160 171 172 172 201
149 149 152 142 149 153 145 152 156 157 148 149 149 153 153 154 156 159 157 156 157 149 157 155 157 158 149 160 161 158 160 157 155 159 153 156 149 151 151 156 159 153 162 158 159 157 154 155 154 159 163 161 165 159 158 155 156 154 158 162 158 161 159 165 161 160 158 155 156 156 157 161 155 154 159 162 166 160 160 152 160 155 155 153 154 156 158 157 160 158 157 157 153 156 156 155 157 156 156 157 152 159 157 158 157 151 152 154 157 157 150 156 162 159 156 154 152 163 154 129
140 144 149 141 149 142 143 145 151 145 144 152 147 147 153 151 150 149 145 155 150 149 156 155 152 151 150 148 149 152 152 147 146 148 147 147 148 155 146 152 152 152 147 152 146 156 148 148 153 154 152 156 152 152 153 145 148 157 155 157 148 150 153 153 154 152 147 154 151 152 151 158 148 150 151 152 161 156 156 151 148 155 156 146 152 153 156 153 156 152 150 153 155 149 159 149 153 152 157 158 152 155 156 156 151 147 150 143 152 160 142 161 151 146 161 155 132 159 148 143
133 134 138 136 138 135 136 139 136 136 140 142 143 141 141 135 147 138 141 148 145 145 140 145 139 141 149 144 142 141 146 143 141 145 142 143 140 142 142 148 142 141 148 147 146 148 141 144 143 144 144 143 148 144 144 143 144 147 145 143 148 143 142 146 150 146 147 149 145 137 146 148 147 148 147 147 148 149 150 147 143 145 143 144 144 144 149 148 150 150 145 148 142 147 147 149 143 144 150 146 142 143 144 144 141 139 143 144 139 139 137 143 132 144 141 153 133 144 139 140
132 135 132 129 137 140 137 140 137 136 138 0 132 137 135 137 139 141 139 137 144 141 143 139 140 146 0 138 139 129 142 130 141 140 131 131 140 127 142 140 132 148 140 139 129 131 129 139 128 127 133 141 143 140 143 142 144 143 144 132 136 144 133 146 143 141 144 144 143 140 140 141 133 143 144 144 144 147 146 144 148 145 128 140 142 139 141 146 138 141 128 141 144 144 144 142 143 139 145 140 142 141 139 141 142 137 135 139 147 140 136 136 128 135 134 140 143 138 146 145
132 127 127 134 135 137 141 134 134 135 133 126 136 138 137 125 128 141 139 126 140 140 141 140 141 137 141 138 137 126 135 138 130 128 128 137 128 125 124 127 146 140 130 139 0 143 130 126 127 124 121 130 131 133 0 144 0 133 140 140 126 128 142 131 126 131 143 129 143 129 128 121 131 127 133 129 133 127 140 140 141 140 128 128 127 138 139 125 132 145 125 139 140 139 126 136 138 140 143 138 137 123 136 139 126 135 132 127 133 129 132 133 133 135 140 139 128 139 138 125
115 104 123 105 127 117 136 132 116 112 120 117 119 120 125 124 123 133 131 118 122 127 128 127 122 138 135 139 0 137 127 124 120 124 118 117 125 124 126 122 128 127 129 129 0 0 132 125 130 123 121 123 127 129 125 131 134 130 126 120 127 124 127 128 124 125 130 132 123 127 121 122 124 123 121 126 122 133 122 128 132 123 124 129 121 129 123 121 125 126 124 124 134 125 118 121 122 128 123 130 119 118 118 121 113 121 115 121 121 131 112 131 134 138 108 136 114 137 143 105
113 117 121 107 112 117 121 117 127 114 117 118 118 126 119 113 115 125 121 122 122 122 127 119 134 122 129 126 125 125 128 0 126 121 116 117 122 119 0 124 132 123 0 0 0 0 126 126 123 120 120 122 124 124 125 125 120 124 123 122 130 122 117 121 125 125 130 125 123 123 124 123 124 119 120 118 122 128 125 124 123 121 125 123 119 116 124 116 126 126 115 114 120 124 117 118 135 124 122 118 122 118 123 118 112 120 120 122 118 137 128 133 128 139 129 113 130 105 133 134
107 99 112 115 109 112 110 126 110 111 120 120 111 112 114 117 116 109 113 122 116 106 108 118 116 110 117 116 115 121 123 0 121 118 117 112 115 0 114 116 120 0 0 123 123 0 123 119 115 114 118 119 119 122 119 119 118 114 115 116 122 123 123 119 119 123 121 119 117 114 115 122 111 115 119 118 117 120 116 118 116 118 113 118 117 115 122 115 114 122 123 117 120 119 109 121 122 117 110 113 114 119 116 112 113 112 117 119 110 119 115 111 110 132 118 117 112 113 109 104
96 104 110 102 98 104 115 109 102 113 112 109 107 107 122 119 112 114 110 106 113 107 113 106 109 110 114 116 118 112 116 114 111 115 113 108 108 116 0 114 115 116 108 109 109 116 115 0 112 0 113 108 119 112 0 0 110 107 120 109 123 118 107 110 106 114 108 112 117 105 109 110 107 103 109 109 111 111 106 114 108 104 113 105 112 102 106 109 109 113 107 111 99 119 109 114 115 115 110 109 106 113 115 110 110 108 102 111 106 116 105 115 102 106 94 114 114 102 116 97
105 97 112 114 101 107 110 110 105 109 106 112 104 113 113 116 116 110 111 104 109 100 100 107 116 109 110 111 104 116 107 106 102 110 119 113 113 0 105 107 110 104 111 102 104 105 108 107 116 0 112 111 112 117 110 115 108 107 112 107 104 111 117 0 115 109 109 110 109 110 108 103 107 114 106 103 103 103 102 112 110 106 109 110 99 107 97 108 109 99 103 107 104 104 101 111 104 106 110 107 107 113 108 115 110 106 105 116 92 116 115 103 110 106 114 107 103 119 127 125
93 95 112 106 97 93 98 98 94 93 103 95 97 102 103 102 99 104 103 97 102 101 96 98 108 105 106 98 99 103 106 104 104 102 104 102 100 103 101 103 104 105 104 98 98 104 104 104 106 101 107 107 104 102 98 107 98 103 106 100 106 105 103 0 109 108 0 109 104 104 102 102 102 108 105 108 101 100 0 101 0 105 95 98 95 101 97 102 99 101 99 103 99 97 91 88 95 98 103 98 95 103 103 104 103 102 93 94 92 97 91 97 96 103 98 102 96 96 89 107
89 93 85 89 94 95 98 90 94 93 98 98 96 100 99 102 92 93 100 98 100 90 94 95 98 93 102 101 103 98 108 102 107 98 101 101 99 101 99 102 99 100 99 93 94 103 107 102 104 102 108 99 98 106 99 95 101 107 100 105 105 103 104 101 109 105 105 105 102 101 104 107 99 102 96 96 107 103 100 98 0 103 97 91 98 97 97 105 91 93 104 95 101 101 92 102 88 97 85 107 95 95 93 91 93 103 105 96 91 87 90 93 96 89 88 110 87 83 99 132
92 100 94 98 91 93 94 88 87 94 93 94 96 87 93 87 93 95 105 103 102 94 95 94 89 90 100 94 93 104 99 97 104 96 95 105 100 97 97 103 95 97 95 93 100 98 103 98 96 101 101 97 86 92 99 101 96 91 97 96 95 93 103 0 101 102 95 95 98 96 103 102 101 101 85 105 97 105 104 106 97 98 88 104 99 98 95 97 89 94 93 97 98 80 94 89 94 87 106 85 95 97 106 95 99 96 103 82 90 90 100 91 85 96 97 86 135 91 100 74
85 88 87 89 77 87 88 87 91 87 80 87 97 87 86 81 91 92 92 92 92 94 95 93 90 87 98 90 90 95 89 87 100 93 88 91 85 96 93 91 98 84 98 88 91 98 90 88 90 98 91 94 97 96 97 97 93 98 97 88 87 99 98 89 96 96 93 94 95 99 88 92 97 93 85 95 96 90 87 96 89 95 86 92 87 86 90 94 94 95 90 93 90 92 92 93 92 92 91 89 91 86 88 92 87 79 88 85 88 89 80 84 85 90 83 83 84 77 125 84
91 79 86 83 95 90 88 101 87 87 88 88 85 88 92 89 96 82 93 86 83 97 90 86 94 88 93 94 94 90 93 93 97 89 102 84 92 92 89 99 89 91 92 94 96 97 95 93 88 94 102 99 93 98 91 93 98 88 89 98 99 90 99 96 88 96 92 98 90 90 98 85 98 100 99 90 94 95 87 87 95 87 99 82 85 89 96 99 90 91 96 96 105 93 94 95 93 82 89 102 95 91 85 100 83 99 88 81 80 87 85 95 86 87 89 96 84 133 0 0
81 91 85 86 88 91 92 88 84 0 82 85 83 84 85 90 92 89 85 86 91 90 90 101 90 86 87 92 88 95 90 96 96 93 97 95 92 93 94 97 85 88 96 85 86 91 94 96 90 98 98 86 94 87 92 98 96 91 96 97 96 99 93 88 88 90 94 89 94 93 97 95 96 98 91 89 87 93 90 93 85 94 90 94 94 91 83 100 100 93 92 98 96 91 88 88 82 93 90 88 93 88 83 90 89 84 94 94 85 84 90 80 86 81 89 78 89 105 94 0
80 80 77 84 83 86 96 87 86 78 81 81 89 92 87 85 82 87 82 90 89 91 89 83 86 88 90 85 93 87 84 89 86 91 87 91 89 89 91 89 92 90 96 98 88 83 93 98 92 91 94 96 94 83 95 87 90 94 93 96 92 94 92 92 89 90 87 91 96 91 90 88 91 95 88 86 89 94 92 89 86 90 91 95 85 87 90 93 90 83 93 89 87 87 84 82 85 86 88 89 80 83 88 82 83 89 86 85 81 86 76 87 85 95 78 81 79 84 0 0
80 75 78 79 83 87 93 96 82 89 86 77 91 87 84 91 83 87 87 88 91 92 89 82 81 85 82 88 88 95 91 86 89 88 88 85 92 88 85 91 91 92 88 95 90 91 97 92 92 97 90 83 87 82 88 87 93 94 87 96 91 90 86 95 90 81 86 88 90 91 87 87 89 88 93 86 91 92 93 88 93 88 90 84 91 96 94 87 89 89 95 92 81 88 86 83 88 93 97 87 84 91 86 90 79 90 86 93 84 82 81 97 101 81 70 0 0 0 0 0
82 75 66 63 76 80 81 84 83 78 84 76 81 77 85 82 82 76 78 76 85 74 83 74 72 73 82 85 81 78 91 69 81 82 91 74 83 79 84 83 87 84 77 70 79 80 82 87 86 80 86 76 75 85 80 77 87 87 83 72 89 77 77 82 77 82 75 84 79 78 85 83 84 75 84 83 79 84 87 84 76 80 75 80 76 87 78 78 74 81 85 70 83 75 80 79 77 83 68 79 61 68 71 60 71 75 72 74 64 73 76 74 85 70 83 71 0 0 0 0
71 66 75 81 69 85 87 83 82 82 76 84 76 75 78 84 85 83 78 77 72 78 79 80 85 81 78 70 85 82 83 83 82 87 74 73 83 80 73 81 89 85 87 84 88 89 80 81 89 85 84 79 72 83 84 81 80 83 86 80 88 72 82 78 83 86 77 83 88 69 83 81 84 85 83 77 78 88 84 88 80 80 77 80 75 82 81 72 88 92 72 77 68 71 83 81 89 77 69 75 89 72 70 74 70 68 72 77 76 85 58 67 67 77 89 0 0 0 0 0
