0 0 0 0 0 0 0 0 0 0 0 0 0 0 0 0 0 0 0 0 0 0 0 0 0 0 0 0 0 0 0 0 0 0 0 0 0 0 0 0 0 0 0 0 0 0 0 0 0 0 0 0 0 0 0 0 0 0 0 0 0 0 0 0 0 0 0 0 0 0 0 0 0 0 0 0 0 0 0 0 0 0 0 0 0 0 0 0 0 0 0 0 0 0 0 0 0 0 0 0 0 0 0 0 0 0 0 0 0 0 0 0 0 0 0 0 0 0 0 0
0 0 0 0 0 0 0 0 0 0 0 0 0 0 0 0 0 0 0 0 0 0 0 0 0 0 0 0 0 0 0 0 0 0 0 0 0 0 0 0 0 0 0 0 0 0 0 0 0 0 0 0 0 0 0 0 0 0 0 0 0 0 0 0 0 0 0 0 0 0 0 0 0 0 0 0 0 0 0 0 0 0 0 0 0 0 0 0 0 0 0 0 0 0 0 0 0 0 0 0 0 0 0 0 0 0 0 0 0 0 0 0 0 0 0 0 0 0 0 0
0 0 0 0 0 0 0 0 0 0 0 0 0 0 0 0 1317 1287 0 0 0 0 1264 0 0 0 0 0 0 0 0 0 0 0 0 0 0 0 0 0 0 0 0 0 0 0 0 0 0 0 0 0 0 0 0 0 0 0 0 0 0 0 0 0 0 0 0 0 0 0 0 0 0 0 0 0 0 0 0 0 0 0 0 0 0 0 0 0 0 0 0 0 0 0 0 0 0 0 0 0 0 0 0 0 0 0 0 0 0 0 0 0 0 0 0 0 0 0 0 0
0 0 0 0 0 0 0 0 0 0 0 1113 1146 1148 0 0 1242 1291 1232 0 0 1274 1297 0 0 0 0 0 0 0 0 0 0 0 0 0 0 0 0 0 0 0 0 0 0 0 0 0 0 0 0 0 0 0 0 0 0 0 0 0 0 0 0 0 0 0 0 0 0 0 0 0 0 0 0 0 0 0 0 0 0 0 0 0 0 0 0 0 0 0 0 0 0 0 0 0 0 0 0 0 0 0 0 0 0 0 0 0 0 0 0 0 0 0 0 0 0 0 0 0
0 0 0 0 0 0 0 0 1123 1179 1194 1138 1185 1166 1211 0 1288 1289 1317 0 1315 1284 1285 0 0 0 0 0 0 0 0 0 0 0 0 0 0 0 0 0 0 0 0 0 0 0 0 0 0 0 0 0 0 0 0 0 0 0 0 0 0 0 0 0 0 0 0 0 0 0 0 0 0 0 0 0 0 0 0 0 0 0 0 0 0 0 0 0 0 0 0 0 0 0 0 0 0 0 0 0 0 0 0 0 0 0 0 0 0 0 0 0 0 0 0 0 0 0 0 0
0 0 0 0 0 0 0 1131 1109 1127 0 0 1138 1152 1203 1178 1244 1273 1260 1278 1265 1270 1294 1255 0 0 0 0 0 0 0 0 0 0 0 0 0 0 0 0 0 0 0 0 0 0 0 0 0 0 0 0 0 0 0 0 0 0 0 0 0 0 0 0 0 0 0 0 0 0 0 0 0 0 0 0 0 0 0 0 0 0 0 0 0 0 0 0 0 0 0 0 0 0 0 0 0 0 0 0 0 0 0 0 0 0 0 0 0 0 0 0 0 0 0 0 0 0 0 0
0 0 0 0 0 0 0 0 0 0 0 0 1188 1221 1249 1264 1276 1290 1285 1257 1279 1244 1272 1266 1287 0 0 0 0 0 0 1388 0 0 0 0 0 0 0 0 0 0 0 0 0 0 0 0 0 0 0 0 0 0 0 0 0 0 0 0 0 0 0 0 0 0 0 0 0 0 0 0 0 0 0 0 0 0 0 0 0 0 0 0 0 0 0 0 0 0 0 0 0 0 0 0 0 0 0 0 0 0 0 0 0 0 0 0 0 0 0 0 0 0 0 0 0 0 0 0
0 0 0 0 0 0 0 0 0 0 0 0 1258 1277 1278 1275 1296 1284 1273 1252 1246 1248 1261 1256 0 1366 1338 1344 0 1333 0 1417 0 0 0 0 0 0 0 0 0 0 0 0 0 0 0 0 0 0 0 0 0 0 0 0 0 0 0 0 0 0 0 0 0 0 0 0 0 0 0 0 0 0 0 0 0 0 0 0 0 0 0 0 0 0 0 0 0 0 0 0 0 0 0 0 0 0 0 0 0 0 0 0 0 0 0 0 0 0 0 0 0 0 0 0 0 0 0 0
0 0 0 0 0 0 0 0 0 0 0 0 1270 1279 1261 1249 1259 1268 1261 1266 1258 1257 1262 1276 0 0 1320 1324 1355 1368 1334 1393 0 0 0 0 0 0 0 0 0 0 0 0 0 0 0 0 0 0 0 0 0 0 0 0 0 0 0 0 0 0 0 0 0 0 0 0 0 0 0 0 0 0 0 0 0 0 0 0 0 0 0 0 0 0 0 0 0 0 0 0 0 0 0 0 0 0 0 0 0 0 0 0 0 0 0 0 0 0 0 0 0 0 0 0 0 0 0 0
0 0 0 0 0 0 0 0 0 0 0 0 0 1281 1290 1315 1296 1282 1294 1266 1282 1270 1249 1246 1308 0 1336 1349 1338 1379 1355 1458 0 0 0 0 0 0 0 0 0 0 0 0 0 0 0 0 0 0 0 0 0 0 0 0 0 0 0 0 0 0 0 0 0 0 0 0 0 0 0 0 0 0 0 0 0 0 0 0 0 0 0 0 0 0 0 0 0 0 0 0 0 0 0 0 0 0 0 0 0 0 0 0 0 0 0 0 0 0 0 0 0 0 0 0 0 0 0 0
0 0 0 0 0 0 0 0 0 0 0 0 0 0 0 0 0 0 0 0 0 1302 1262 1269 1285 0 0 1342 1362 1363 1390 1400 1429 0 0 0 0 0 0 0 0 0 0 0 0 0 0 0 0 0 0 0 0 0 0 0 0 0 0 0 0 0 0 0 0 0 0 0 0 0 0 0 0 0 0 0 0 0 0 0 0 0 0 0 0 0 0 0 0 0 0 0 0 0 0 0 0 0 0 0 0 0 0 0 0 0 0 0 0 0 0 0 0 0 0 0 0 0 0 0
0 0 0 0 0 0 0 0 0 0 0 0 0 0 0 0 0 0 0 0 0 0 0 1384 1309 0 0 1349 1374 1346 1348 1402 1445 0 0 0 0 0 0 0 0 0 0 0 0 0 0 0 0 0 0 0 0 0 0 0 0 0 0 0 0 0 0 0 0 0 0 0 0 0 0 0 0 0 0 0 0 0 0 0 0 0 0 0 0 0 0 0 0 0 0 0 0 0 0 0 0 0 0 0 0 0 0 0 0 0 0 1732 1662 0 0 0 0 0 0 0 0 0 0 0
0 0 0 0 0 0 0 0 0 0 0 0 0 0 0 0 0 0 0 0 0 0 0 1413 1377 1327 1306 0 1349 1347 1372 1407 1421 0 0 0 0 0 0 0 0 0 0 0 0 0 0 0 0 0 0 0 0 0 0 0 0 0 0 0 0 0 0 0 0 0 0 0 0 0 0 0 0 0 0 0 0 0 0 0 0 0 0 0 0 0 0 0 0 0 0 0 0 0 0 0 0 0 0 0 0 0 0 0 0 0 1741 1738 1698 0 0 0 0 0 0 0 0 0 0 0
0 0 0 0 0 0 0 0 0 0 0 0 0 0 0 0 0 0 0 0 0 0 0 1357 1377 1353 1322 1303 1329 1331 1332 1373 1460 0 0 0 0 0 0 0 0 0 0 0 0 0 0 0 0 0 0 0 0 0 0 0 0 0 0 0 0 0 0 0 0 0 0 0 0 0 0 0 0 0 0 0 0 0 0 0 0 0 0 0 0 0 0 0 0 0 0 0 0 0 0 0 0 0 0 0 0 0 0 0 0 0 1743 0 1671 0 0 0 0 0 0 0 0 0 0 0
0 0 0 0 0 0 0 0 0 0 0 0 0 0 0 0 0 0 0 0 0 0 0 1380 1400 1361 1366 1323 1309 1310 1349 1409 1392 0 0 0 0 0 0 0 0 0 0 0 0 0 0 0 0 0 0 0 0 0 0 0 0 0 0 0 0 0 0 0 0 0 0 0 0 0 0 0 0 0 0 0 0 0 0 0 0 0 0 0 0 0 0 0 0 0 0 0 0 0 0 0 0 0 0 0 0 0 0 0 0 0 1697 0 0 0 0 0 0 0 0 0 0 0 0 0
0 0 0 0 0 0 0 0 0 0 0 0 0 0 0 0 0 0 0 0 0 0 0 1365 1355 1348 1384 1380 1352 1344 1382 1423 1421 0 0 0 0 0 0 0 0 0 0 0 0 0 0 0 0 0 0 0 0 0 0 0 0 0 0 0 0 0 0 0 0 0 0 0 0 0 0 0 0 0 0 0 0 0 0 0 0 0 0 0 0 0 0 0 0 0 0 0 0 0 0 0 0 0 0 0 0 0 0 0 0 0 0 1740 1697 1655 0 0 0 1728 0 0 0 0 0 0
1216 1256 1258 1243 1276 1287 1287 0 0 0 0 0 0 0 0 0 0 0 0 0 0 0 0 0 1374 1345 1359 1365 1357 1351 1316 1396 1422 0 0 0 0 0 0 0 0 0 0 0 0 0 0 0 0 0 0 0 0 0 0 0 0 0 0 0 0 0 0 0 0 0 0 0 0 0 0 0 0 0 0 0 0 0 0 0 0 0 0 0 0 0 0 0 0 0 0 0 0 0 0 0 0 0 0 0 0 0 0 0 0 1647 1718 1691 1631 1616 0 0 0 0 0 0 0 0 0 0
1277 1260 1258 1273 1297 1318 1311 1335 1358 1369 1377 1344 0 0 0 0 0 0 0 0 0 0 0 1401 1401 1369 1373 1378 1387 1376 1405 1436 1441 0 0 0 0 0 0 0 0 0 0 0 0 0 0 0 0 0 0 0 0 0 0 0 0 0 0 0 0 0 0 0 0 0 0 0 0 0 0 0 0 0 0 0 0 0 0 0 0 0 0 0 0 0 0 0 0 0 0 0 0 0 0 0 0 0 0 0 0 0 0 1796 1809 1717 1718 1705 1724 1711 1683 1699 0 0 0 0 0 0 0 0
1278 1252 1285 1299 1308 1297 1316 1339 1332 1345 1354 1372 1382 1388 1408 1416 0 0 0 0 0 0 0 0 0 1367 0 0 1394 0 0 1415 1424 0 0 0 0 0 0 0 0 0 0 0 0 0 0 0 0 0 0 0 0 0 0 0 0 0 0 0 0 0 0 0 0 0 0 0 0 0 0 0 0 0 0 0 0 0 0 0 0 0 0 0 0 0 0 0 0 0 0 0 0 0 0 0 0 0 0 0 0 0 0 1814 1728 1705 1804 1700 1660 1702 1725 1685 0 0 0 0 0 0 0 0
0 0 0 0 1276 1306 1306 1347 1324 1346 1324 1357 1352 1364 1384 1387 1411 1423 1427 1468 1455 0 0 0 0 0 0 0 0 0 0 1442 1440 1429 0 0 0 0 0 0 0 0 0 0 0 0 0 0 0 0 0 0 0 0 0 0 0 0 0 0 0 0 0 0 0 0 0 0 0 0 0 0 0 0 0 0 0 0 0 0 0 0 0 0 0 0 0 0 0 0 0 0 0 0 0 0 0 0 0 0 0 0 1813 1796 1806 1738 1748 1700 1626 1632 1664 0 0 0 0 0 0 0 0 0
0 0 0 0 0 0 0 0 0 1359 1366 1362 1370 1405 1404 1402 1408 1436 1438 1432 1504 1532 0 0 0 0 0 0 0 0 0 1468 1489 1496 0 0 0 0 0 0 0 0 0 0 0 0 0 0 0 0 0 0 0 0 0 0 0 0 0 0 0 0 0 0 0 0 0 0 0 0 0 0 0 0 0 0 0 0 0 0 0 0 0 0 0 0 0 0 0 0 0 0 0 0 0 0 0 0 0 0 0 0 0 1740 1710 1661 1626 1591 1618 1618 1599 1661 1571 1550 1544 0 0 0 0 0
0 0 0 0 0 0 0 0 0 0 0 0 0 0 0 1417 1388 1426 1446 1433 1422 1466 0 0 0 0 0 0 0 0 0 0 1449 0 0 0 0 0 0 0 0 0 0 0 0 0 0 0 0 0 0 0 0 0 0 0 0 0 0 0 0 0 0 0 0 0 0 0 0 0 0 0 0 0 0 0 0 0 0 0 0 0 0 0 0 0 0 0 0 0 0 0 0 0 0 0 0 0 0 0 0 1741 1609 1586 1577 1597 1582 1596 1594 1571 1583 1583 1568 1650 1615 0 0 0 0 0
0 0 0 0 0 0 0 0 0 0 0 0 0 0 0 0 0 0 0 0 0 1432 0 0 0 0 0 0 0 0 0 0 0 0 0 0 0 0 0 0 0 0 0 0 0 0 0 0 0 0 0 0 0 0 0 0 0 0 0 0 0 0 0 0 0 0 0 0 0 0 0 0 0 0 0 0 0 0 0 0 0 0 0 0 0 0 0 0 0 0 0 0 0 0 0 0 0 0 0 0 0 1592 1544 1576 1576 1582 1565 1570 1576 1570 1582 1564 1561 1590 0 0 0 0 0 0
0 0 0 0 0 0 0 0 0 0 0 0 0 0 0 0 0 0 0 0 0 0 0 0 0 0 0 0 0 0 0 0 0 0 0 0 0 0 0 0 0 0 0 0 0 0 0 0 0 0 0 0 0 0 0 0 0 0 0 0 0 0 0 0 0 0 0 0 0 0 0 0 0 0 0 0 0 0 0 0 0 0 0 0 0 0 0 0 0 0 0 0 0 0 0 0 0 0 0 0 0 0 0 1579 1570 1578 1572 1585 1586 1609 1605 1569 0 0 0 0 0 0 0 0
0 0 0 0 0 0 0 0 0 0 0 0 0 0 0 0 0 0 0 0 0 0 0 0 0 0 0 0 0 0 0 0 0 0 0 0 0 0 0 0 0 0 0 0 0 0 0 0 0 0 0 0 0 0 0 0 0 0 0 0 0 0 0 0 0 0 0 0 0 0 0 0 0 0 0 0 0 0 0 0 0 0 0 0 0 0 0 0 0 0 0 0 0 0 0 0 0 0 0 0 0 0 0 0 0 0 0 1582 0 0 0 0 0 0 0 0 0 0 0 0
0 0 0 0 0 0 0 0 0 0 0 0 0 0 0 0 0 0 0 0 0 0 0 0 0 0 0 0 0 0 0 0 0 0 0 0 0 0 0 0 0 0 0 0 0 0 0 0 0 0 0 0 0 0 0 0 0 0 0 0 0 0 0 0 0 0 0 0 0 0 0 0 0 0 0 0 0 0 0 0 0 0 0 0 0 0 0 0 0 0 0 0 0 0 0 0 0 1679 0 0 0 0 0 0 0 0 0 0 0 0 0 0 0 0 0 0 0 0 0 0
588 571 0 0 0 0 0 0 0 0 0 0 0 0 0 0 0 0 0 0 0 0 0 0 0 1885 1924 0 0 0 0 0 0 0 0 0 0 0 0 0 0 0 0 0 0 0 0 2876 2893 2954 2894 2935 2890 2888 2970 2908 2901 2920 2889 2913 2852 2910 2901 2859 2891 2893 0 0 0 0 0 0 0 0 0 0 0 0 0 0 0 0 0 0 0 0 0 0 0 0 0 0 0 0 0 1744 1710 0 0 0 0 0 0 0 0 0 0 0 0 0 0 0 0 0 0 0 0 0 0 0
584 613 610 600 624 650 0 0 0 0 0 0 0 0 0 0 0 0 0 0 0 0 0 0 0 0 0 1916 1921 0 0 0 0 0 0 0 0 0 0 0 0 0 0 0 0 0 0 2898 2937 2924 2897 2932 2906 2891 2876 2965 2892 2887 2897 2908 2887 2890 2914 2859 2888 2927 0 0 0 0 0 0 0 0 0 0 0 0 0 0 0 0 0 0 0 0 0 0 0 0 0 0 0 0 0 0 0 0 0 0 0 0 0 0 0 0 0 0 0 0 0 0 0 0 0 0 0 0 0 0
577 576 588 593 623 624 644 622 672 0 0 0 0 0 0 0 0 0 0 0 0 0 0 0 0 0 0 0 0 0 0 0 0 0 0 0 0 0 0 0 0 0 0 0 0 0 0 2924 2907 2943 2913 2932 2945 2889 2896 2930 2911 2942 2935 2894 2942 2904 2926 2957 2921 0 0 0 0 0 0 0 0 0 0 0 0 0 0 0 0 0 0 0 0 0 0 0 0 0 0 0 0 0 0 0 0 0 0 0 0 0 0 0 0 0 0 0 0 0 0 0 0 0 0 0 0 0 0 0
600 587 586 584 621 616 638 651 658 659 663 663 0 0 0 0 0 0 0 0 0 0 0 0 0 0 0 0 0 0 0 0 0 0 0 0 0 0 0 0 0 0 0 0 0 0 0 2978 2916 2913 2888 2944 2984 2940 2915 2920 2929 2954 2913 2895 2881 2911 2965 2919 2932 2922 0 0 0 0 0 0 0 0 0 0 0 0 0 0 0 0 0 0 0 0 0 0 0 0 0 0 0 0 0 0 0 0 0 0 0 0 0 0 0 0 0 0 0 0 0 0 0 0 0 0 0 0 0 0
583 566 589 598 614 645 621 614 653 667 674 677 696 748 753 0 0 0 0 0 0 0 0 0 0 0 0 0 0 0 0 0 0 0 0 0 0 0 0 0 0 0 0 0 0 0 0 2903 2896 2894 2909 2887 2920 2906 2901 2909 2894 2910 2917 2913 2908 2881 2910 2899 2923 2858 0 0 0 0 0 0 0 0 0 0 0 0 0 0 0 0 0 0 0 0 0 0 0 0 0 0 0 0 0 0 0 0 0 0 0 0 0 0 0 0 0 0 0 0 0 0 0 0 0 0 0 0 0 0
733 740 763 723 712 669 640 658 662 654 676 686 717 735 735 752 744 785 0 0 0 0 0 0 0 0 0 0 0 0 0 0 0 0 0 0 0 0 0 0 0 0 0 0 0 0 0 2958 2907 2965 2924 2927 2944 2939 2906 2930 2955 2946 2903 2906 2915 2918 2933 2943 2886 2898 0 0 0 0 0 0 0 0 0 0 0 0 0 0 0 0 0 0 0 0 0 0 0 0 0 0 0 0 0 0 0 0 0 0 0 0 0 0 0 0 0 0 0 0 0 0 0 0 0 0 0 0 0 0
807 804 793 832 800 816 847 871 817 775 769 730 732 721 740 752 768 785 790 816 831 0 0 0 0 0 0 0 0 0 0 0 0 0 0 0 0 0 0 0 0 0 0 0 0 0 0 2946 2922 2894 2906 2915 2910 2931 2941 2896 2933 2854 2926 2961 2875 2919 2900 2881 2877 2886 0 0 0 0 0 0 0 0 0 0 0 0 0 0 0 0 0 0 0 0 0 0 0 0 0 0 0 0 0 0 0 0 0 0 0 0 0 0 0 0 0 0 0 0 0 0 0 0 0 0 0 0 0 0
778 804 841 822 841 876 890 920 886 919 909 943 937 914 882 826 789 783 798 834 855 862 898 895 0 0 0 0 0 0 0 0 0 0 0 0 0 0 0 0 0 0 0 0 0 0 0 2882 2880 2813 2908 2817 2904 2875 2868 2891 2896 2880 2835 2852 2931 2838 2845 2893 2895 2849 0 0 0 0 0 0 0 0 0 0 0 0 0 0 0 0 0 0 0 0 0 0 0 0 0 0 0 0 0 0 0 0 0 0 0 0 0 0 0 0 0 0 0 0 0 0 0 0 0 0 0 0 0 0
609 0 896 826 851 855 897 908 924 925 929 957 936 953 945 956 940 942 893 852 864 867 865 880 898 944 0 0 0 0 0 0 0 0 0 0 0 0 0 0 0 0 0 0 0 0 0 2925 2875 2936 2901 2895 2902 2898 2907 2905 2898 2892 2886 2889 2919 2925 2890 2930 2914 2885 0 0 0 0 0 0 0 0 0 0 0 0 0 0 0 0 0 0 0 0 0 0 0 0 0 0 0 0 0 0 0 0 0 0 0 0 0 0 0 0 0 0 0 0 0 0 0 0 0 0 0 0 0 0
636 928 956 948 922 957 948 893 919 927 949 940 950 960 951 954 953 952 951 945 940 930 911 905 914 936 944 967 1030 0 0 0 0 0 0 0 0 0 0 0 0 0 0 0 0 0 0 2858 2885 2936 2907 2887 2882 2880 2929 2851 2927 2905 2896 2889 2867 2854 2870 2911 2861 2874 0 0 0 0 0 0 0 0 0 0 0 0 0 0 0 0 0 0 0 0 0 0 0 0 0 0 0 0 0 0 0 0 0 0 0 0 0 0 0 0 0 0 0 0 0 0 0 0 0 0 0 0 0 0
579 703 0 0 0 0 0 0 0 0 973 1002 995 993 978 982 963 972 972 965 975 948 949 967 992 983 962 1013 1007 1070 1116 0 0 0 0 0 0 0 0 0 0 0 0 0 0 0 0 2923 2886 2885 2858 2862 2857 2905 2940 2937 2889 2894 2835 2933 2845 2881 2838 2872 2931 2873 0 0 0 0 0 0 0 0 0 0 0 0 0 0 0 0 0 0 0 0 0 0 0 0 0 0 0 0 0 0 0 0 0 0 0 0 0 0 0 0 0 0 0 0 0 0 0 0 0 0 0 0 0 0
550 578 585 0 1131 1143 1138 1149 1139 1150 1137 1135 1145 1158 1150 1134 1130 1024 0 0 1006 1059 1047 978 1001 1022 1114 1116 1098 1100 1063 0 0 0 0 0 0 0 0 0 0 0 0 0 0 0 0 2938 2976 2925 2897 3003 3002 2964 2953 2918 2922 2925 2884 2925 2925 2891 2881 2883 2941 0 0 0 0 0 0 0 0 0 0 0 0 0 0 0 0 0 0 0 0 0 0 0 0 0 0 0 0 0 0 0 0 0 0 0 0 0 0 0 0 0 0 0 0 0 0 0 0 0 0 0 0 0 0 0
580 587 585 605 0 0 0 0 0 0 0 0 0 0 0 0 1370 1040 981 0 0 1137 1111 0 0 1110 1148 1141 1130 1151 1110 0 0 0 0 0 0 0 0 0 0 0 0 0 0 0 0 2909 2923 2929 2913 2961 2940 2921 2884 2913 2879 2931 2897 2921 2941 2931 2889 2888 2916 0 0 0 0 0 0 0 0 0 0 0 0 0 0 0 0 0 0 0 0 0 0 0 0 0 0 0 0 0 0 0 0 0 0 0 0 0 0 0 0 0 0 0 0 0 0 0 0 0 0 0 0 0 0 0
582 579 597 643 589 0 0 0 0 0 0 0 0 0 0 0 0 987 991 0 0 0 0 0 0 0 0 0 0 0 0 0 0 0 0 0 0 0 0 0 0 0 0 0 0 0 0 2924 2927 2931 2899 2916 2941 2944 2955 2906 2931 2943 2891 2894 2848 2918 2923 2873 2884 0 0 0 0 0 0 0 0 0 0 0 0 0 0 0 0 0 0 0 0 0 0 0 0 0 0 0 0 0 0 0 0 0 0 0 0 0 0 0 0 0 0 0 0 0 0 0 0 0 0 0 0 0 0 0
585 573 641 592 589 627 0 0 0 0 0 0 0 0 0 0 0 0 0 0 0 0 0 0 0 0 0 0 0 0 0 0 0 0 0 0 0 0 0 0 0 0 0 0 0 0 0 2913 2903 2919 2953 2900 2910 2915 2908 2939 2872 2887 2952 2871 2906 2888 2877 2917 2892 0 0 0 0 0 0 0 0 0 0 0 0 0 0 0 0 0 0 0 0 0 0 0 0 0 0 0 0 0 0 0 0 0 0 0 0 0 0 0 0 0 0 0 0 0 0 0 0 0 0 0 0 0 0 0
604 601 598 625 623 611 0 0 0 0 0 0 0 0 0 0 0 0 0 0 0 0 989 0 0 0 0 0 0 0 0 0 0 0 0 0 0 0 0 0 0 0 0 0 0 0 0 2844 2886 2933 2895 2863 2866 2914 2892 2923 2876 2900 2928 2871 2855 2842 2838 2827 2856 0 0 0 0 0 0 0 0 0 0 0 0 0 0 0 0 0 0 0 0 0 0 0 0 0 0 0 0 0 0 0 0 0 0 0 0 0 0 0 0 0 0 0 0 0 0 0 0 0 0 0 0 0 0 0
597 590 599 606 594 616 0 0 0 0 0 0 0 0 0 0 0 0 0 0 0 0 930 0 0 0 0 0 0 0 0 0 0 0 0 0 0 0 0 0 0 0 0 0 0 0 0 2969 2911 2921 2894 2896 2871 2898 2843 2903 2906 2903 2924 2880 2902 2933 2910 2896 2900 2924 0 0 0 0 0 0 0 0 0 0 0 0 0 0 0 0 0 0 0 0 0 0 0 0 0 0 0 0 0 0 0 0 0 0 0 0 0 0 0 0 0 0 0 0 0 0 0 0 0 0 0 0 0 0
607 597 606 628 612 631 596 0 0 0 0 0 0 0 0 0 0 0 0 0 0 0 963 0 0 0 0 0 0 0 0 0 0 0 0 0 0 0 0 0 0 0 0 0 0 0 0 2865 2879 2949 2890 2907 2890 2872 2863 2903 2858 2864 2849 2845 2859 2866 2862 2855 2896 2888 0 0 0 0 0 0 0 0 0 0 0 0 0 0 0 0 0 0 0 0 0 0 0 0 0 0 0 0 0 0 0 0 0 0 0 0 0 0 0 0 0 0 0 0 0 0 0 0 0 0 0 0 0 0
587 617 592 591 592 603 637 0 0 0 0 0 0 0 0 0 2330 0 0 0 0 0 967 1004 0 0 0 0 0 0 0 0 0 0 0 0 0 0 0 0 0 0 0 0 0 0 0 2876 2945 2931 2886 2883 2892 2866 2879 2918 2919 2899 2864 2920 2877 2896 2893 2872 2864 2854 0 0 0 0 0 0 0 0 0 0 0 0 0 0 0 0 0 0 0 0 0 0 0 0 0 0 0 0 0 0 0 0 0 0 0 0 0 0 0 0 0 0 0 0 0 0 0 0 0 0 0 0 0 0
583 578 569 568 581 582 603 0 0 0 0 0 0 0 0 0 0 0 0 0 0 0 0 0 0 0 0 0 0 0 0 0 0 0 0 0 0 0 0 0 0 0 0 0 0 0 0 2899 2920 2895 2941 2911 2855 2899 2870 2891 2895 2930 2911 2879 2871 2899 2917 2881 2887 2882 0 0 0 0 0 0 0 0 0 0 0 0 0 0 0 0 0 0 0 0 0 0 0 0 0 0 0 0 0 0 0 0 0 0 0 0 0 0 0 0 0 0 0 0 0 0 0 0 0 0 0 0 0 0
591 589 600 628 625 600 0 0 0 0 0 0 0 0 0 0 0 0 0 0 0 0 0 0 0 0 0 0 0 0 0 0 0 0 0 0 0 0 0 0 0 0 0 0 0 0 0 0 0 0 0 0 0 0 0 0 0 0 0 0 0 2948 2983 2898 2875 0 0 0 0 0 0 0 0 0 0 0 0 0 0 0 0 0 0 0 0 0 0 0 0 0 0 0 0 0 0 0 0 0 0 0 0 0 0 0 0 0 0 0 0 0 0 0 0 0 0 0 0 0 0 0
586 599 571 604 586 579 0 0 0 0 0 0 0 0 0 0 0 0 0 0 0 0 0 0 0 0 0 0 0 0 0 0 0 0 0 0 0 0 0 0 0 0 0 0 0 0 0 0 0 0 0 0 0 0 0 0 0 0 0 0 0 0 0 0 0 0 0 0 0 0 0 0 0 0 0 0 0 0 0 0 0 0 0 0 0 0 0 0 0 0 0 0 0 0 0 0 0 0 0 0 0 0 0 0 0 0 0 0 0 0 0 0 0 0 0 0 0 0 0 0
590 575 587 594 590 620 0 0 0 0 0 0 0 0 0 0 0 0 0 0 0 0 0 0 0 0 0 0 0 0 0 0 0 0 0 0 0 0 0 0 0 0 0 0 0 0 0 0 0 0 0 0 0 0 0 0 0 0 0 0 0 0 0 0 0 0 0 0 0 0 0 0 0 0 0 0 0 0 0 0 0 0 0 0 0 0 0 0 0 0 0 0 0 0 0 0 0 0 0 0 0 0 0 0 0 0 0 0 0 0 0 0 0 0 0 0 0 0 0 0
596 597 606 596 610 0 0 0 0 0 0 0 0 0 0 0 0 0 0 0 0 0 0 0 0 0 0 0 0 0 0 0 0 0 0 0 0 0 0 0 0 0 0 0 0 0 0 0 0 0 0 0 0 0 0 0 0 0 0 0 0 0 0 0 0 0 0 0 0 0 0 0 0 0 0 0 0 0 0 0 0 0 0 0 0 0 0 0 0 0 0 0 0 0 0 0 0 0 0 0 0 0 0 0 0 0 0 0 0 0 0 0 0 0 0 0 0 0 0 0
619 606 619 606 0 0 0 0 0 0 0 0 0 0 0 0 0 0 0 0 0 0 0 0 0 0 898 872 908 892 932 0 870 887 0 926 0 897 940 935 0 0 987 0 0 0 0 0 0 0 0 0 0 0 0 0 0 0 0 0 0 0 0 0 0 0 0 0 0 0 0 0 0 0 0 0 0 0 0 0 0 0 0 0 0 0 0 0 0 0 0 0 0 0 0 0 0 0 0 0 0 0 0 0 0 0 0 0 0 0 0 0 0 0 0 0 0 0 0 0
585 611 658 0 0 0 624 678 712 707 673 672 731 718 667 710 703 672 708 656 723 701 714 731 723 708 719 772 717 740 683 738 728 741 724 818 716 729 787 748 741 737 710 734 769 762 768 752 794 805 764 790 721 787 783 759 797 773 747 795 819 773 794 800 763 767 788 804 820 808 828 819 829 0 0 0 0 0 0 0 0 0 0 0 0 0 0 0 0 0 0 0 0 0 0 0 0 0 0 0 0 0 0 0 0 0 0 0 0 0 0 0 0 0 0 0 0 0 0 0
573 548 563 589 587 582 599 541 608 573 573 568 573 603 618 594 578 567 606 574 606 581 609 599 620 614 584 591 607 598 609 637 622 616 586 600 594 629 593 607 629 609 621 633 643 617 648 601 618 655 615 640 667 617 650 623 636 622 644 643 656 660 661 643 658 629 700 648 640 693 678 684 692 637 652 644 699 654 656 699 713 705 679 650 673 631 670 695 662 765 695 712 692 724 719 0 688 733 711 0 754 0 0 0 0 0 0 0 0 0 0 0 0 0 0 0 0 0 0 0
494 455 473 465 494 483 470 463 494 487 495 493 480 513 478 504 486 483 490 487 496 484 496 498 511 506 510 499 478 505 495 494 515 501 483 517 512 506 516 491 498 529 518 503 529 512 511 501 528 508 525 514 534 525 504 530 517 536 518 498 526 523 527 538 548 537 497 531 519 540 535 533 517 544 546 512 532 544 521 554 534 536 527 543 529 570 588 534 533 534 549 554 533 527 569 526 498 598 575 571 578 542 543 594 0 577 0 579 582 610 0 0 0 0 0 0 0 0 0 0
404 429 432 437 424 429 411 431 459 427 424 444 446 441 448 450 449 438 439 454 450 451 444 457 448 462 449 438 442 462 451 445 454 456 444 465 450 466 457 466 460 462 470 475 463 462 462 469 487 489 473 479 486 480 487 457 483 473 470 480 476 477 479 478 481 493 482 478 477 487 483 487 480 471 481 485 473 476 478 499 489 491 511 505 511 466 480 501 494 493 459 491 512 461 462 498 493 478 476 489 495 511 486 505 483 474 547 488 487 513 528 493 0 494 0 0 0 0 0 0
374 370 377 399 387 385 377 393 395 386 402 389 401 393 392 401 401 392 393 394 397 410 393 405 416 410 412 399 403 417 409 415 408 411 418 407 412 420 416 412 410 416 417 421 412 406 417 409 427 415 413 415 421 416 424 421 414 429 429 419 426 428 426 421 440 420 409 420 428 430 422 426 421 413 436 412 420 424 416 423 430 427 417 429 433 424 432 425 435 431 433 425 415 434 441 434 441 408 416 443 432 444 431 429 425 431 423 448 405 447 404 415 416 407 0 0 0 0 0 0
353 345 360 349 352 370 355 357 349 363 366 355 354 367 355 372 372 366 354 366 365 368 361 376 365 362 368 370 379 369 364 372 363 374 383 360 375 376 368 374 373 369 364 379 365 369 392 385 382 379 385 377 383 382 380 386 377 380 380 407 387 380 375 393 377 379 400 377 392 382 386 387 380 385 386 411 379 383 382 394 391 383 394 388 381 397 402 398 390 398 375 387 400 380 406 381 379 405 393 391 395 402 396 395 385 394 380 393 392 401 387 393 413 382 381 407 0 0 0 0
314 318 338 335 325 338 346 334 346 338 332 343 360 337 333 352 359 353 352 352 338 341 346 337 355 337 335 339 343 337 338 347 345 338 342 340 347 342 337 344 345 347 340 343 330 339 349 354 338 356 352 347 350 343 342 352 345 345 341 350 354 353 347 346 353 336 342 355 349 355 349 349 340 352 347 344 336 352 341 345 344 357 351 343 357 364 363 347 355 360 353 365 358 346 366 362 355 343 357 371 348 356 364 373 375 369 361 361 366 371 367 364 348 341 373 402 374 0 0 0
295 289 313 298 296 288 301 300 293 318 320 290 298 305 308 305 325 300 306 295 304 309 312 303 288 304 302 307 301 307 306 303 306 309 311 306 305 308 308 311 301 324 313 300 313 310 311 315 322 314 310 304 317 310 318 310 312 317 320 315 319 312 316 322 309 325 327 316 312 315 318 327 316 313 316 322 312 314 316 311 313 321 324 322 317 325 329 321 326 316 314 322 324 319 308 324 331 328 329 341 326 335 331 339 336 343 357 341 316 343 329 314 329 325 319 369 316 320 355 0
283 270 280 273 289 283 282 287 279 289 277 280 290 300 284 280 286 279 275 288 271 294 265 282 281 278 283 287 282 284 277 283 282 285 285 281 288 280 292 285 276 281 290 294 283 288 289 291 288 287 292 294 289 287 288 282 289 287 293 290 287 294 288 292 294 291 289 297 296 292 289 289 291 291 286 294 300 288 295 292 297 293 286 294 295 294 295 293 294 301 292 302 302 295 307 307 286 305 296 297 304 296 295 298 301 295 304 306 298 309 275 320 289 301 293 330 319 351 349 304
256 254 262 255 249 253 250 256 254 253 256 252 248 254 263 253 259 259 252 259 254 258 259 255 264 256 254 258 254 257 260 255 257 259 261 265 262 262 264 265 264 256 271 264 263 264 263 260 262 269 268 264 260 266 269 256 264 270 266 257 266 263 269 266 268 266 266 268 267 270 263 273 269 267 271 260 265 268 265 262 264 262 260 267 269 269 270 268 261 263 261 266 269 271 264 261 270 270 268 278 269 262 272 283 286 281 266 284 278 272 269 268 276 278 270 278 262 257 288 279
237 231 238 230 238 231 242 221 239 235 239 219 237 240 232 246 236 242 248 240 228 244 238 238 244 240 242 239 240 247 243 247 247 242 248 248 241 249 245 250 251 245 243 245 245 254 250 243 242 253 252 246 243 251 250 240 246 249 251 247 253 246 249 251 245 250 249 250 250 258 246 254 245 248 248 253 252 250 250 250 246 247 244 253 256 258 254 248 243 248 251 244 248 248 244 250 255 254 246 246 244 249 256 247 254 248 253 243 254 250 247 226 259 245 247 242 263 242 246 221
217 218 216 214 219 226 222 213 222 216 221 223 223 225 219 225 220 223 229 232 224 227 229 227 227 229 223 226 226 232 223 222 227 232 225 232 231 217 222 219 230 229 231 227 238 228 226 232 229 231 230 230 227 237 227 231 227 228 233 234 236 228 234 234 229 231 233 237 232 232 233 230 232 234 232 227 238 227 234 231 233 226 235 233 232 233 238 240 233 233 234 234 228 227 226 238 230 235 238 230 233 233 241 234 234 230 242 241 239 247 232 236 232 228 239 216 215 227 230 218
206 199 218 212 213 208 207 206 205 212 214 210 209 216 216 218 209 210 209 217 214 207 199 211 211 212 217 214 215 217 216 213 194 218 216 198 220 197 216 217 215 215 217 199 201 215 203 221 203 221 217 219 219 203 206 222 216 205 222 222 223 219 223 228 220 217 223 204 219 219 217 223 204 202 218 220 222 221 222 217 224 218 227 219 218 223 218 223 219 225 220 222 218 212 226 219 226 213 220 227 228 220 218 217 220 222 223 219 227 227 218 224 220 214 227 230 218 209 221 218
194 184 199 204 210 204 205 198 187 182 200 200 203 190 202 191 190 191 207 186 190 188 193 192 184 185 186 189 187 195 198 197 193 194 197 195 187 188 189 193 188 196 198 198 193 194 198 196 202 193 202 195 193 195 200 199 204 197 200 194 198 196 197 202 196 194 197 197 199 195 191 214 196 190 193 188 195 199 201 197 191 200 198 201 213 200 214 191 196 214 197 193 195 209 193 184 186 196 209 213 205 215 206 196 207 211 208 217 203 205 210 212 211 212 206 203 194 168 176 214
172 176 195 197 198 178 183 182 184 183 184 175 181 181 183 184 184 185 182 178 191 185 188 187 192 185 190 193 182 194 194 190 192 191 191 195 192 190 192 189 191 190 191 197 201 188 197 199 195 195 193 199 193 202 198 201 199 201 199 195 199 200 197 190 198 196 200 195 195 200 198 194 196 199 195 198 197 196 198 188 188 196 198 193 188 194 189 191 185 185 183 186 189 179 180 183 184 182 193 182 188 189 186 187 185 186 201 204 194 188 185 196 179 176 207 205 186 171 202 196
175 178 179 169 180 180 178 177 181 181 184 185 184 184 184 182 186 187 185 180 186 183 187 187 182 187 184 186 187 187 185 181 186 182 182 179 183 186 186 183 188 182 190 190 189 188 187 191 187 188 188 187 190 187 188 196 189 189 193 191 186 191 187 193 192 186 188 191 191 185 187 187 190 194 188 189 190 190 188 194 189 190 185 184 185 185 181 186 184 192 187 194 187 184 189 188 190 187 189 183 189 177 185 179 182 185 183 183 175 184 175 182 181 206 190 174 197 196 178 176
171 169 160 169 171 170 168 179 170 170 175 175 174 170 174 175 169 182 182 185 175 172 178 172 169 167 175 173 169 175 171 176 175 178 175 171 177 179 172 174 179 178 180 179 181 179 177 180 181 182 180 184 179 180 180 183 185 175 177 183 177 178 184 182 179 175 182 184 181 180 184 182 177 184 178 179 183 183 182 182 181 181 179 176 175 173 179 181 183 184 180 178 175 172 177 178 181 181 180 183 179 182 181 181 185 176 175 181 184 182 183 166 177 174 199 173 172 172 168 169
168 161 165 168 160 162 158 157 166 162 168 166 161 165 165 172 170 171 171 171 166 167 169 167 170 163 169 169 169 172 173 167 168 168 166 169 170 168 172 169 167 168 167 168 173 168 172 170 170 169 169 174 166 173 172 168 170 173 175 176 176 172 172 174 171 173 168 170 171 169 172 176 175 170 168 172 172 174 173 171 169 173 172 168 169 175 171 166 177 173 168 169 164 168 161 168 176 169 171 174 170 171 167 178 178 168 173 172 173 165 169 172 173 180 175 176 178 169 173 171
153 155 165 164 165 159 161 155 154 157 160 159 159 159 161 163 161 159 167 168 165 164 169 162 166 163 160 158 161 164 166 168 165 167 160 165 160 164 161 159 163 165 163 161 172 164 166 159 163 166 161 163 163 163 167 165 167 170 162 170 159 164 164 164 165 166 162 161 164 161 161 161 165 167 161 165 165 166 167 172 162 162 165 162 165 164 167 163 166 163 160 164 164 158 162 167 164 161 164 165 169 167 166 166 160 153 162 162 161 162 158 178 169 158 162 168 154 165 162 166
144 146 155 148 152 149 145 153 150 154 148 149 150 152 157 154 150 153 155 163 161 153 157 163 158 158 150 163 154 158 159 153 154 154 155 156 150 155 155 160 157 159 161 160 160 150 156 157 153 158 155 151 160 158 158 158 157 154 162 162 162 155 157 160 157 159 156 161 152 153 160 154 160 158 161 161 164 159 158 157 157 153 162 154 158 155 159 156 162 156 153 162 161 158 158 154 155 157 152 158 161 157 157 155 157 154 151 153 155 154 156 161 155 154 163 149 148 165 159 148
139 139 146 140 150 148 144 142 146 144 150 143 146 144 146 143 147 146 144 154 152 150 156 148 155 148 145 151 151 146 145 144 148 148 147 146 150 151 146 150 153 155 151 152 147 151 150 149 148 150 149 151 152 153 154 148 150 151 154 156 151 147 151 153 146 151 152 154 152 150 146 155 149 153 154 152 158 156 155 154 154 151 147 148 148 148 151 151 155 151 154 158 153 153 156 152 150 151 155 149 155 154 158 156 154 149 145 147 151 147 151 137 160 152 153 147 145 144 170 126
135 137 139 136 137 138 137 138 140 140 140 140 142 141 138 140 143 138 142 146 143 146 142 145 140 146 150 143 141 140 142 132 143 142 142 146 144 145 147 149 144 142 149 143 144 147 146 140 144 146 144 146 148 143 148 147 148 145 150 146 145 147 143 150 147 142 148 149 144 151 147 146 151 147 146 144 151 150 153 149 143 145 147 144 144 143 147 144 151 146 147 150 145 145 145 145 146 146 147 146 151 149 150 142 143 143 148 146 137 151 136 146 141 138 146 149 150 129 134 135
127 135 132 134 134 141 140 139 139 137 138 0 133 137 133 137 139 137 140 142 147 141 139 140 138 146 146 138 130 131 142 128 132 131 140 130 133 140 141 130 143 135 143 139 140 130 143 140 130 129 129 144 135 141 143 145 146 143 145 145 131 144 131 146 133 127 139 145 134 128 130 144 134 143 139 141 142 143 141 143 145 145 143 139 141 144 142 141 143 144 130 144 144 143 143 144 144 145 142 148 136 137 140 144 140 138 131 138 141 138 139 142 132 136 138 145 136 134 134 123
135 129 113 130 136 135 139 136 133 136 136 133 139 137 134 133 128 138 139 134 140 139 140 137 139 135 139 136 137 126 126 129 129 131 127 126 129 132 129 125 142 140 142 128 0 140 132 129 131 124 131 129 131 133 0 143 0 130 140 143 127 127 142 142 141 128 140 126 141 132 130 125 129 141 120 131 133 128 134 131 136 140 127 129 140 127 138 129 129 142 135 140 126 136 138 129 138 142 143 141 138 123 128 134 135 118 137 130 130 135 130 132 134 144 136 132 140 129 109 140
114 99 124 109 123 126 139 129 127 112 123 114 119 124 126 125 119 123 122 124 118 128 127 127 127 140 135 138 0 128 126 120 119 123 121 117 127 127 127 121 127 131 128 130 130 0 128 125 128 123 122 121 124 128 126 129 133 129 128 123 125 123 125 130 128 127 126 134 122 127 129 125 123 127 115 126 121 132 124 127 127 125 121 128 122 129 125 127 125 123 125 125 127 127 134 120 123 142 126 132 121 123 117 121 115 114 114 121 128 132 126 135 129 118 131 134 108 139 141 96
111 112 108 111 111 111 118 117 118 111 123 119 118 123 121 117 115 124 123 120 127 124 126 121 122 122 131 127 126 128 129 0 125 122 120 116 121 118 0 119 131 128 0 0 0 0 125 127 123 119 127 120 125 123 126 126 123 122 125 117 128 119 114 125 122 124 127 126 124 122 123 118 124 116 121 119 120 126 123 121 118 117 124 125 117 117 126 115 126 120 113 120 119 128 120 118 127 123 122 120 122 117 116 119 109 120 121 117 120 120 127 131 118 128 132 122 118 99 104 128
108 105 113 115 111 105 113 115 112 110 124 112 108 105 116 115 121 115 110 120 117 108 113 117 115 113 119 119 118 125 121 0 120 118 117 115 113 0 114 117 121 0 0 121 126 0 121 120 116 115 114 115 120 120 119 123 119 115 117 121 124 121 120 118 119 118 119 120 117 116 117 119 112 110 112 109 116 115 117 117 113 117 116 118 115 112 111 115 110 119 114 116 118 116 99 117 122 122 109 118 118 118 118 112 111 111 111 118 110 123 124 127 132 126 121 141 108 110 95 119
95 102 109 103 101 105 114 109 102 104 114 104 105 110 120 115 116 110 105 106 113 104 114 102 109 110 110 116 113 115 119 117 111 115 117 113 108 117 113 112 118 111 110 109 111 112 116 0 111 0 114 110 120 115 0 0 105 108 119 114 125 114 106 110 108 111 108 110 119 114 113 109 108 105 102 105 107 110 112 113 108 106 108 108 112 106 115 114 111 118 106 110 99 107 108 114 112 116 109 117 107 113 114 105 112 108 112 108 113 118 106 110 109 113 103 110 111 99 97 111
102 102 110 111 106 108 115 110 108 108 105 113 107 112 114 119 109 112 115 104 107 97 102 106 114 108 107 113 108 113 111 108 105 107 111 112 114 0 107 107 110 104 111 101 106 105 110 108 114 0 112 108 108 116 107 114 109 109 111 107 110 111 114 0 115 108 107 111 111 109 109 98 106 113 101 104 102 103 103 109 110 109 108 106 100 108 99 111 104 103 105 111 104 104 98 103 106 104 109 106 105 111 110 115 105 104 109 112 88 107 97 99 110 99 102 108 97 117 102 95
95 92 113 111 100 94 99 100 95 91 103 103 100 99 108 102 95 104 112 100 99 101 95 102 102 102 104 98 100 108 109 106 102 102 108 100 108 105 104 105 107 103 99 97 101 103 105 102 107 96 105 104 103 100 103 108 101 103 105 103 104 106 106 0 109 102 0 111 102 104 102 103 98 107 101 106 96 102 0 102 0 105 96 104 102 105 99 96 101 97 102 102 100 96 102 92 100 97 102 103 101 100 103 102 101 102 93 93 101 100 99 91 101 109 104 99 93 110 97 127
93 94 83 94 92 96 92 91 96 92 100 100 97 97 103 103 95 89 101 95 98 95 93 88 99 94 103 101 103 103 107 102 104 102 102 101 104 102 100 96 103 102 101 95 102 100 102 99 104 103 110 100 99 103 92 105 104 106 102 101 100 103 105 103 110 104 105 103 107 102 103 105 102 100 97 95 103 98 96 99 0 105 94 90 107 97 99 108 98 96 102 103 101 100 92 102 97 95 87 101 101 91 97 93 96 99 92 96 101 99 90 89 105 83 86 103 108 90 105 102
93 99 91 97 92 88 91 84 88 93 92 93 99 91 93 83 95 91 104 102 103 91 83 90 93 88 100 95 92 103 97 96 103 97 97 99 103 92 98 103 91 97 93 89 102 98 98 102 92 98 99 93 100 89 93 98 98 94 100 99 94 90 102 0 99 102 94 96 100 93 98 103 101 100 89 104 95 101 103 105 89 97 88 106 97 99 91 95 97 93 91 95 95 86 93 91 94 90 101 90 96 98 97 94 98 92 96 75 90 85 82 87 93 83 88 89 130 113 123 76
84 80 89 81 90 87 90 89 87 91 86 90 94 88 86 92 87 90 83 94 85 92 93 93 93 87 99 90 95 94 89 87 100 94 94 93 86 89 92 89 93 97 98 86 91 85 94 89 90 90 93 92 97 96 97 99 96 94 97 93 89 97 89 92 90 96 95 89 93 92 98 93 92 90 86 96 90 89 90 90 88 92 88 96 87 97 90 92 95 93 95 93 96 93 92 93 83 90 87 94 89 88 92 79 86 88 90 88 86 82 82 83 90 87 89 88 101 124 92 83
90 84 82 81 95 83 91 102 83 90 87 90 86 90 92 90 86 89 95 91 85 92 95 84 94 88 91 87 90 88 90 86 98 93 101 96 86 87 89 94 87 95 92 90 95 96 93 97 90 93 95 97 96 91 97 92 97 89 99 98 90 92 97 92 97 93 88 94 86 90 92 87 99 96 94 99 95 98 83 93 97 91 95 91 96 96 95 97 90 92 95 98 102 86 95 97 89 92 88 103 91 93 94 96 92 95 92 82 88 81 85 89 82 79 83 88 69 91 0 0
79 88 88 88 87 85 81 83 85 0 83 82 84 87 84 80 92 90 89 87 92 83 88 98 88 95 91 95 96 96 86 92 94 84 93 91 92 93 96 95 87 91 93 89 98 97 94 95 88 97 89 96 91 95 93 97 99 89 98 94 90 97 96 95 87 91 95 93 99 93 97 96 94 91 98 89 98 92 92 97 91 97 89 86 95 95 83 95 99 94 89 94 107 92 92 89 90 89 90 88 93 90 92 86 86 84 91 87 91 79 85 82 83 89 87 81 89 76 80 0
81 78 78 89 87 86 94 87 88 79 80 84 87 89 87 90 82 90 85 88 85 90 94 81 90 88 87 84 91 85 85 83 88 91 85 93 87 88 92 88 93 92 92 98 95 81 92 95 94 92 97 96 91 87 90 95 92 92 94 93 90 91 95 92 89 92 89 84 84 94 89 97 96 94 97 85 88 92 95 88 89 84 92 89 85 92 84 91 91 88 94 88 83 85 84 76 84 86 87 90 81 78 91 83 87 85 88 81 80 78 77 85 88 88 77 74 73 77 0 0
79 78 82 80 84 87 89 90 79 83 91 90 89 93 90 90 87 87 87 91 90 92 89 88 80 87 85 89 87 94 91 83 86 92 88 89 89 90 87 94 95 86 84 95 94 91 91 87 92 96 92 91 87 84 84 94 89 93 88 94 94 90 92 88 93 94 86 89 87 98 88 89 86 89 95 89 89 92 97 81 91 93 83 86 94 92 89 87 91 91 89 90 80 86 82 84 93 92 93 85 83 90 90 87 75 91 78 86 85 69 81 93 89 78 61 98 0 0 67 0
74 73 65 62 74 80 88 86 84 77 84 82 82 81 86 75 81 81 83 80 88 77 81 78 79 75 81 80 83 78 91 74 81 83 92 81 80 84 85 78 88 82 79 73 80 81 81 88 86 80 82 75 72 88 80 77 90 90 86 76 90 74 79 81 77 83 75 82 79 80 83 84 80 74 83 79 81 82 86 82 78 80 73 74 74 87 84 74 81 78 81 70 83 78 80 77 73 82 73 76 70 75 72 64 70 75 77 83 67 87 62 83 81 88 80 92 0 0 0 0
67 66 74 80 72 80 87 87 83 80 77 84 74 79 85 78 82 82 77 83 79 84 75 81 86 84 74 75 81 85 85 81 87 89 83 70 76 79 82 82 90 81 88 85 87 87 81 82 83 83 83 78 77 80 88 83 84 81 80 70 85 80 83 86 86 86 76 75 93 71 78 85 87 84 89 83 84 84 85 88 84 75 80 83 70 82 75 76 96 86 70 87 72 77 83 77 83 81 70 77 85 71 73 73 69 73 68 79 82 81 84 78 75 82 55 0 0 0 0 0
