0 0 0 0 0 0 0 0 0 0 0 0 0 0 0 0 0 0 0 0 0 0 0 0 0 0 0 0 0 0 0 0 0 0 0 0 0 0 0 0 0 0 0 0 0 0 0 0 0 0 0 0 0 0 0 0 0 0 0 0 0 0 0 0 0 0 0 0 0 0 0 0 0 0 0 0 0 0 0 0 0 0 0 0 0 0 0 0 0 0 0 0 0 0 0 0 0 0 0 0 0 0 0 0 0 0 0 0 0 0 0 0 0 0 0 0 0 0 0 0
0 0 0 0 0 0 0 0 0 0 0 0 0 0 0 0 0 0 0 0 0 0 0 0 0 0 0 0 0 0 0 0 0 0 0 0 0 0 0 0 0 0 0 0 0 0 0 0 0 0 0 0 0 0 0 0 0 0 0 0 0 0 0 0 0 0 0 0 0 0 0 0 0 0 0 0 0 0 0 0 0 0 0 0 0 0 0 0 0 0 0 0 0 0 0 0 0 0 0 0 0 0 0 0 0 0 0 0 0 0 0 0 0 0 0 0 0 0 0 0
0 0 0 0 0 0 0 0 0 0 0 0 0 0 0 0 0 1259 0 0 0 0 0 0 0 0 0 0 0 0 0 0 0 0 0 0 0 0 0 0 0 0 0 0 0 0 0 0 0 0 0 0 0 0 0 0 0 0 0 0 0 0 0 0 0 0 0 0 0 0 0 0 0 0 0 0 0 0 0 0 0 0 0 0 0 0 0 0 0 0 0 0 0 0 0 0 0 0 0 0 0 0 0 0 0 0 0 0 0 0 0 0 0 0 0 0 0 0 0 0
0 0 0 0 0 0 0 0 0 0 0 1113 1138 1132 1135 0 1275 1263 1244 0 0 1253 1266 1274 0 0 0 0 0 0 0 0 0 0 0 0 0 0 0 0 0 0 0 0 0 0 0 0 0 0 0 0 0 0 0 0 0 0 0 0 0 0 0 0 0 0 0 0 0 0 0 0 0 0 0 0 0 0 0 0 0 0 0 0 0 0 0 0 0 0 0 0 0 0 0 0 0 0 0 0 0 0 0 0 0 0 0 0 0 0 0 0 0 0 0 0 0 0 0 0
0 0 0 0 0 0 0 0 1061 1094 1138 1138 1176 1134 1146 1159 1255 1272 1286 1220 1256 1239 1244 0 0 0 0 0 0 0 0 0 0 0 0 0 0 0 0 0 0 0 0 0 0 0 0 0 0 0 0 0 0 0 0 0 0 0 0 0 0 0 0 0 0 0 0 0 0 0 0 0 0 0 0 0 0 0 0 0 0 0 0 0 0 0 0 0 0 0 0 0 0 0 0 0 0 0 0 0 0 0 0 0 0 0 0 0 0 0 0 0 0 0 0 0 0 0 0 0
0 0 0 0 0 0 0 1087 1124 1111 1123 0 1146 1140 1179 1189 1278 1255 1280 1239 1246 1251 1264 1275 0 0 0 0 0 0 0 0 0 0 0 0 0 0 0 0 0 0 0 0 0 0 0 0 0 0 0 0 0 0 0 0 0 0 0 0 0 0 0 0 0 0 0 0 0 0 0 0 0 0 0 0 0 0 0 0 0 0 0 0 0 0 0 0 0 0 0 0 0 0 0 0 0 0 0 0 0 0 0 0 0 0 0 0 0 0 0 0 0 0 0 0 0 0 0 0
0 0 0 0 0 0 0 0 0 0 0 0 1197 1271 1244 1299 1284 1276 1286 1260 1292 1278 1257 1283 1294 0 0 0 0 0 0 1433 0 0 0 0 0 0 0 0 0 0 0 0 0 0 0 0 0 0 0 0 0 0 0 0 0 0 0 0 0 0 0 0 0 0 0 0 0 0 0 0 0 0 0 0 0 0 0 0 0 0 0 0 0 0 0 0 0 0 0 0 0 0 0 0 0 0 0 0 0 0 0 0 0 0 0 0 0 0 0 0 0 0 0 0 0 0 0 0
0 0 0 0 0 0 0 0 0 0 0 0 1273 1256 1290 1281 1306 1303 1283 1270 1272 1298 1282 1317 0 1359 1351 1364 1365 1340 0 1431 0 0 0 0 0 0 0 0 0 0 0 0 0 0 0 0 0 0 0 0 0 0 0 0 0 0 0 0 0 0 0 0 0 0 0 0 0 0 0 0 0 0 0 0 0 0 0 0 0 0 0 0 0 0 0 0 0 0 0 0 0 0 0 0 0 0 0 0 0 0 0 0 0 0 0 0 0 0 0 0 0 0 0 0 0 0 0 0
0 0 0 0 0 0 0 0 0 0 0 0 1279 1273 1268 1272 1283 1260 1255 1241 1275 1277 1277 1295 0 0 1357 1379 1371 1341 1412 1391 0 0 0 0 0 0 0 0 0 0 0 0 0 0 0 0 0 0 0 0 0 0 0 0 0 0 0 0 0 0 0 0 0 0 0 0 0 0 0 0 0 0 0 0 0 0 0 0 0 0 0 0 0 0 0 0 0 0 0 0 0 0 0 0 0 0 0 0 0 0 0 0 0 0 0 0 0 0 0 0 0 0 0 0 0 0 0 0
0 0 0 0 0 0 0 0 0 0 0 0 0 0 1295 1299 1285 1294 1290 1253 1264 1255 1263 1252 1303 0 0 1386 1357 1363 1389 1420 0 0 0 0 0 0 0 0 0 0 0 0 0 0 0 0 0 0 0 0 0 0 0 0 0 0 0 0 0 0 0 0 0 0 0 0 0 0 0 0 0 0 0 0 0 0 0 0 0 0 0 0 0 0 0 0 0 0 0 0 0 0 0 0 0 0 0 0 0 0 0 0 0 0 0 0 0 0 0 0 0 0 0 0 0 0 0 0
0 0 0 0 0 0 0 0 0 0 0 0 0 0 0 0 0 0 0 0 0 1240 1228 1236 1270 0 0 1296 1350 1334 1309 1430 1465 0 0 0 0 0 0 0 0 0 0 0 0 0 0 0 0 0 0 0 0 0 0 0 0 0 0 0 0 0 0 0 0 0 0 0 0 0 0 0 0 0 0 0 0 0 0 0 0 0 0 0 0 0 0 0 0 0 0 0 0 0 0 0 0 0 0 0 0 0 0 0 0 0 0 0 0 0 0 0 0 0 0 0 0 0 0 0
0 0 0 0 0 0 0 0 0 0 0 0 0 0 0 0 0 0 0 0 0 0 0 1322 1327 0 0 1335 1333 1335 1342 1382 1436 0 0 0 0 0 0 0 0 0 0 0 0 0 0 0 0 0 0 0 0 0 0 0 0 0 0 0 0 0 0 0 0 0 0 0 0 0 0 0 0 0 0 0 0 0 0 0 0 0 0 0 0 0 0 0 0 0 0 0 0 0 0 0 0 0 0 0 0 0 0 0 0 0 0 1737 0 0 0 0 0 0 0 0 0 0 0 0
0 0 0 0 0 0 0 0 0 0 0 0 0 0 0 0 0 0 0 0 0 0 0 1357 1361 1301 1235 0 1319 1335 1364 1355 1423 0 0 0 0 0 0 0 0 0 0 0 0 0 0 0 0 0 0 0 0 0 0 0 0 0 0 0 0 0 0 0 0 0 0 0 0 0 0 0 0 0 0 0 0 0 0 0 0 0 0 0 0 0 0 0 0 0 0 0 0 0 0 0 0 0 0 0 0 0 0 0 0 0 1739 0 0 0 0 0 0 0 0 0 0 0 0 0
0 0 0 0 0 0 0 0 0 0 0 0 0 0 0 0 0 0 0 0 0 0 0 1347 1346 1365 1294 1292 1309 1345 1306 1368 1408 0 0 0 0 0 0 0 0 0 0 0 0 0 0 0 0 0 0 0 0 0 0 0 0 0 0 0 0 0 0 0 0 0 0 0 0 0 0 0 0 0 0 0 0 0 0 0 0 0 0 0 0 0 0 0 0 0 0 0 0 0 0 0 0 0 0 0 0 0 0 0 0 1740 1756 1721 1663 0 0 0 0 0 0 0 0 0 0 0
0 0 0 0 0 0 0 0 0 0 0 0 0 0 0 0 0 0 0 0 0 0 0 1370 1402 1368 1381 1337 1330 1322 1339 1441 1432 0 0 0 0 0 0 0 0 0 0 0 0 0 0 0 0 0 0 0 0 0 0 0 0 0 0 0 0 0 0 0 0 0 0 0 0 0 0 0 0 0 0 0 0 0 0 0 0 0 0 0 0 0 0 0 0 0 0 0 0 0 0 0 0 0 0 0 0 0 0 0 0 1781 1735 0 1693 0 0 0 0 0 0 0 0 0 0 0
0 0 0 0 0 0 0 0 0 0 0 0 0 0 0 0 0 0 0 0 0 0 0 1434 1383 1372 1380 1371 1371 1343 1363 1444 1445 0 0 0 0 0 0 0 0 0 0 0 0 0 0 0 0 0 0 0 0 0 0 0 0 0 0 0 0 0 0 0 0 0 0 0 0 0 0 0 0 0 0 0 0 0 0 0 0 0 0 0 0 0 0 0 0 0 0 0 0 0 0 0 0 0 0 0 0 0 0 0 0 1750 0 1732 1711 1719 0 0 0 0 0 0 0 0 0 0
1253 1256 1278 1274 1280 1318 1317 0 0 0 0 0 0 0 0 0 0 0 0 0 0 0 0 0 1373 1372 1378 1376 1365 1360 1369 1438 1422 0 0 0 0 0 0 0 0 0 0 0 0 0 0 0 0 0 0 0 0 0 0 0 0 0 0 0 0 0 0 0 0 0 0 0 0 0 0 0 0 0 0 0 0 0 0 0 0 0 0 0 0 0 0 0 0 0 0 0 0 0 0 0 0 0 0 0 0 0 0 0 0 1750 1722 1709 1760 1675 0 1663 1675 0 0 0 0 0 0 0
1288 1259 1270 1301 1270 1309 1333 1317 1333 1347 1379 0 0 0 0 0 0 0 0 0 0 0 0 1376 1372 1347 1377 1367 1380 1378 1375 1420 1421 0 0 0 0 0 0 0 0 0 0 0 0 0 0 0 0 0 0 0 0 0 0 0 0 0 0 0 0 0 0 0 0 0 0 0 0 0 0 0 0 0 0 0 0 0 0 0 0 0 0 0 0 0 0 0 0 0 0 0 0 0 0 0 0 0 0 0 0 0 0 1784 1728 1760 1728 1726 1671 1659 0 1616 0 0 0 0 0 0 0 0
1249 1258 1245 1269 1289 1272 1286 1305 1309 1335 1336 1331 1340 1340 1393 1388 0 0 0 0 0 0 0 0 0 1328 0 0 1342 0 0 1437 1409 0 0 0 0 0 0 0 0 0 0 0 0 0 0 0 0 0 0 0 0 0 0 0 0 0 0 0 0 0 0 0 0 0 0 0 0 0 0 0 0 0 0 0 0 0 0 0 0 0 0 0 0 0 0 0 0 0 0 0 0 0 0 0 0 0 0 0 0 0 0 1745 1734 1752 1719 1736 1702 1620 1696 1681 0 0 0 0 0 0 0 0
0 0 0 0 1285 1269 1279 1306 1301 1316 1316 1354 1346 1353 1369 1394 1381 1415 1401 1391 1410 0 0 0 0 0 0 0 0 0 0 1449 1415 1419 0 0 0 0 0 0 0 0 0 0 0 0 0 0 0 0 0 0 0 0 0 0 0 0 0 0 0 0 0 0 0 0 0 0 0 0 0 0 0 0 0 0 0 0 0 0 0 0 0 0 0 0 0 0 0 0 0 0 0 0 0 0 0 0 0 0 0 0 1801 1748 1714 1721 1677 1656 1672 1646 0 0 0 0 0 0 0 0 0 0
0 0 0 0 0 0 0 0 0 1315 1329 1326 1361 1388 1393 1391 1412 1415 1409 1449 1479 1464 0 0 0 0 0 0 0 0 0 1411 1454 1477 0 0 0 0 0 0 0 0 0 0 0 0 0 0 0 0 0 0 0 0 0 0 0 0 0 0 0 0 0 0 0 0 0 0 0 0 0 0 0 0 0 0 0 0 0 0 0 0 0 0 0 0 0 0 0 0 0 0 0 0 0 0 0 0 0 0 0 0 0 1764 1666 1672 1619 1593 1575 1578 1590 1644 1578 1601 1567 0 0 0 0 0
0 0 0 0 0 0 0 0 0 0 0 0 0 0 0 1334 1379 1380 1411 1420 1404 1434 0 0 0 0 0 0 0 0 0 0 1445 0 0 0 0 0 0 0 0 0 0 0 0 0 0 0 0 0 0 0 0 0 0 0 0 0 0 0 0 0 0 0 0 0 0 0 0 0 0 0 0 0 0 0 0 0 0 0 0 0 0 0 0 0 0 0 0 0 0 0 0 0 0 0 0 0 0 0 0 1703 1598 1573 1561 1576 1590 1610 1569 1570 1563 1582 1542 1504 0 0 0 0 0 0
0 0 0 0 0 0 0 0 0 0 0 0 0 0 0 0 0 0 0 0 0 1505 0 0 0 0 0 0 0 0 0 0 0 0 0 0 0 0 0 0 0 0 0 0 0 0 0 0 0 0 0 0 0 0 0 0 0 0 0 0 0 0 0 0 0 0 0 0 0 0 0 0 0 0 0 0 0 0 0 0 0 0 0 0 0 0 0 0 0 0 0 0 0 0 0 0 0 0 0 0 0 1631 1606 1591 1612 1632 1604 1622 1591 1589 1597 1595 1576 1583 0 0 0 0 0 0
0 0 0 0 0 0 0 0 0 0 0 0 0 0 0 0 0 0 0 0 0 0 0 0 0 0 0 0 0 0 0 0 0 0 0 0 0 0 0 0 0 0 0 0 0 0 0 0 0 0 0 0 0 0 0 0 0 0 0 0 0 0 0 0 0 0 0 0 0 0 0 0 0 0 0 0 0 0 0 0 0 0 0 0 0 0 0 0 0 0 0 0 0 0 0 0 0 0 0 0 0 0 0 1610 1597 1564 1577 1590 1600 1595 1608 1624 0 0 0 0 0 0 0 0
0 0 0 0 0 0 0 0 0 0 0 0 0 0 0 0 0 0 0 0 0 0 0 0 0 0 0 0 0 0 0 0 0 0 0 0 0 0 0 0 0 0 0 0 0 0 0 0 0 0 0 0 0 0 0 0 0 0 0 0 0 0 0 0 0 0 0 0 0 0 0 0 0 0 0 0 0 0 0 0 0 0 0 0 0 0 0 0 0 0 0 0 0 0 0 0 0 0 0 0 0 0 0 0 0 0 0 1614 0 0 0 0 0 0 0 0 0 0 0 0
0 0 0 0 0 0 0 0 0 0 0 0 0 0 0 0 0 0 0 0 0 0 0 0 0 0 0 0 0 0 0 0 0 0 0 0 0 0 0 0 0 0 0 0 0 0 0 0 0 0 0 0 0 0 0 0 0 0 0 0 0 0 0 0 0 0 0 0 0 0 0 0 0 0 0 0 0 0 0 0 0 0 0 0 0 0 0 0 0 0 0 0 0 0 0 0 0 1735 0 0 0 0 0 0 0 0 0 0 0 0 0 0 0 0 0 0 0 0 0 0
579 558 0 0 0 0 0 0 0 0 0 0 0 0 0 0 0 0 0 0 0 0 0 0 0 1805 1878 0 0 0 0 0 0 0 0 0 0 0 0 0 0 0 0 0 0 0 0 2951 2933 2923 2931 2974 2921 2955 2947 2976 2917 2893 2919 2942 2932 2949 2939 2909 2915 2898 0 0 0 0 0 0 0 0 0 0 0 0 0 0 0 0 0 0 0 0 0 0 0 0 0 0 0 0 0 0 1750 0 0 0 0 0 0 0 0 0 0 0 0 0 0 0 0 0 0 0 0 0 0 0
555 577 603 580 601 584 0 0 0 0 0 0 0 0 0 0 0 0 0 0 0 0 0 0 0 0 0 1914 1981 0 0 0 0 0 0 0 0 0 0 0 0 0 0 0 0 0 0 2932 2948 2946 2945 2948 2910 2956 2939 2955 2910 2896 2950 2928 2904 2931 2950 2919 2907 2904 0 0 0 0 0 0 0 0 0 0 0 0 0 0 0 0 0 0 0 0 0 0 0 0 0 0 0 0 0 0 0 0 0 0 0 0 0 0 0 0 0 0 0 0 0 0 0 0 0 0 0 0 0 0
572 584 598 589 615 635 632 641 679 0 0 0 0 0 0 0 0 0 0 0 0 0 0 0 0 0 0 0 0 0 0 0 0 0 0 0 0 0 0 0 0 0 0 0 0 0 0 2934 2960 2915 2924 2936 2929 2947 2904 2926 2915 2888 2904 2913 2935 2925 2926 2931 2921 0 0 0 0 0 0 0 0 0 0 0 0 0 0 0 0 0 0 0 0 0 0 0 0 0 0 0 0 0 0 0 0 0 0 0 0 0 0 0 0 0 0 0 0 0 0 0 0 0 0 0 0 0 0 0
561 595 599 615 613 628 644 652 641 669 665 669 0 0 0 0 0 0 0 0 0 0 0 0 0 0 0 0 0 0 0 0 0 0 0 0 0 0 0 0 0 0 0 0 0 0 0 2907 2935 2922 2923 2936 2940 2946 2919 2931 2919 2887 2911 2932 2950 2915 2925 2910 2930 2982 0 0 0 0 0 0 0 0 0 0 0 0 0 0 0 0 0 0 0 0 0 0 0 0 0 0 0 0 0 0 0 0 0 0 0 0 0 0 0 0 0 0 0 0 0 0 0 0 0 0 0 0 0 0
608 584 608 597 639 634 631 646 665 674 703 670 708 741 783 0 0 0 0 0 0 0 0 0 0 0 0 0 0 0 0 0 0 0 0 0 0 0 0 0 0 0 0 0 0 0 0 2930 2861 2917 2943 2922 2882 2905 2920 2881 2837 2904 2872 2880 2873 2857 2910 2882 2933 0 0 0 0 0 0 0 0 0 0 0 0 0 0 0 0 0 0 0 0 0 0 0 0 0 0 0 0 0 0 0 0 0 0 0 0 0 0 0 0 0 0 0 0 0 0 0 0 0 0 0 0 0 0 0
738 761 788 768 712 660 650 653 646 675 678 695 728 709 761 780 806 835 0 0 0 0 0 0 0 0 0 0 0 0 0 0 0 0 0 0 0 0 0 0 0 0 0 0 0 0 0 2931 2921 2918 2900 2871 2871 2954 2910 2923 2914 2934 2888 2872 2886 2895 2830 2897 2897 2869 0 0 0 0 0 0 0 0 0 0 0 0 0 0 0 0 0 0 0 0 0 0 0 0 0 0 0 0 0 0 0 0 0 0 0 0 0 0 0 0 0 0 0 0 0 0 0 0 0 0 0 0 0 0
781 806 811 820 825 851 841 854 848 805 760 738 728 719 753 758 772 776 789 833 860 0 0 0 0 0 0 0 0 0 0 0 0 0 0 0 0 0 0 0 0 0 0 0 0 0 0 2890 2883 2854 2900 2892 2831 2904 2843 2890 2896 2848 2845 2864 2827 2861 2890 2814 2866 2815 0 0 0 0 0 0 0 0 0 0 0 0 0 0 0 0 0 0 0 0 0 0 0 0 0 0 0 0 0 0 0 0 0 0 0 0 0 0 0 0 0 0 0 0 0 0 0 0 0 0 0 0 0 0
765 800 808 835 852 869 874 898 898 919 920 932 936 904 865 785 777 791 825 842 860 851 896 850 0 0 0 0 0 0 0 0 0 0 0 0 0 0 0 0 0 0 0 0 0 0 0 2937 2887 2908 2926 2909 2873 2831 2936 2925 2908 2890 2912 2912 2896 2880 2818 2887 2882 2893 0 0 0 0 0 0 0 0 0 0 0 0 0 0 0 0 0 0 0 0 0 0 0 0 0 0 0 0 0 0 0 0 0 0 0 0 0 0 0 0 0 0 0 0 0 0 0 0 0 0 0 0 0 0
609 0 864 832 834 851 851 898 889 898 921 952 945 948 941 947 939 935 887 876 825 828 855 882 903 908 0 0 0 0 0 0 0 0 0 0 0 0 0 0 0 0 0 0 0 0 0 2933 2931 2956 2960 2947 2941 2953 2968 2889 2938 2940 2946 2934 2890 2911 2910 2920 2893 2872 0 0 0 0 0 0 0 0 0 0 0 0 0 0 0 0 0 0 0 0 0 0 0 0 0 0 0 0 0 0 0 0 0 0 0 0 0 0 0 0 0 0 0 0 0 0 0 0 0 0 0 0 0 0
615 899 942 933 918 919 916 943 886 903 922 935 944 944 942 943 958 949 941 948 941 942 878 900 915 930 921 971 963 0 0 0 0 0 0 0 0 0 0 0 0 0 0 0 0 0 0 2905 2926 2896 2932 2912 2979 2928 2945 2956 2943 2948 2902 2939 2943 2919 2889 2939 2946 2942 0 0 0 0 0 0 0 0 0 0 0 0 0 0 0 0 0 0 0 0 0 0 0 0 0 0 0 0 0 0 0 0 0 0 0 0 0 0 0 0 0 0 0 0 0 0 0 0 0 0 0 0 0 0
595 652 0 0 0 0 0 0 0 0 944 931 985 964 943 964 960 937 945 945 941 941 929 942 960 954 942 933 981 1030 0 0 0 0 0 0 0 0 0 0 0 0 0 0 0 0 0 2941 2895 2979 2953 2947 2939 2924 2894 2937 0 2942 2930 2932 2893 2907 2919 2877 2951 2875 0 0 0 0 0 0 0 0 0 0 0 0 0 0 0 0 0 0 0 0 0 0 0 0 0 0 0 0 0 0 0 0 0 0 0 0 0 0 0 0 0 0 0 0 0 0 0 0 0 0 0 0 0 0
559 595 575 0 1092 1146 1119 1135 1133 1145 1137 1133 1121 1133 1127 1126 1125 1041 0 0 1014 1051 1056 989 987 1015 1125 1117 1076 1086 1044 0 0 0 0 0 0 0 0 0 0 0 0 0 0 0 0 2977 2890 2917 2955 2960 2983 2942 2933 2909 2915 2929 2906 2890 2927 2960 2909 2940 2889 2957 0 0 0 0 0 0 0 0 0 0 0 0 0 0 0 0 0 0 0 0 0 0 0 0 0 0 0 0 0 0 0 0 0 0 0 0 0 0 0 0 0 0 0 0 0 0 0 0 0 0 0 0 0 0
578 604 618 644 0 0 0 0 0 0 0 0 0 0 0 0 1436 1036 0 0 0 1144 1087 0 0 1101 1144 1153 1137 1157 1141 0 0 0 0 0 0 0 0 0 0 0 0 0 0 0 0 2902 2878 2894 2877 2891 2884 2864 2900 2833 2870 2869 2861 2875 2876 2854 2882 2875 2866 2835 0 0 0 0 0 0 0 0 0 0 0 0 0 0 0 0 0 0 0 0 0 0 0 0 0 0 0 0 0 0 0 0 0 0 0 0 0 0 0 0 0 0 0 0 0 0 0 0 0 0 0 0 0 0
602 619 617 635 621 0 0 0 0 0 0 0 0 0 0 0 0 0 971 0 0 0 0 993 0 0 0 0 0 0 0 0 0 0 0 0 0 0 0 0 0 0 0 0 0 0 0 2873 2919 2948 2921 2893 2873 2930 2863 2883 2897 2861 2875 2914 2904 2863 2874 2874 2897 2916 0 0 0 0 0 0 0 0 0 0 0 0 0 0 0 0 0 0 0 0 0 0 0 0 0 0 0 0 0 0 0 0 0 0 0 0 0 0 0 0 0 0 0 0 0 0 0 0 0 0 0 0 0 0
591 590 604 602 601 596 0 0 0 0 0 0 0 0 0 0 0 0 0 0 0 0 0 0 0 0 0 0 0 0 0 0 0 0 0 0 0 0 0 0 0 0 0 0 0 0 0 2909 2869 2926 2928 2929 2849 2890 2893 2883 2885 2932 2876 2920 2871 2926 2872 2902 2892 0 0 0 0 0 0 0 0 0 0 0 0 0 0 0 0 0 0 0 0 0 0 0 0 0 0 0 0 0 0 0 0 0 0 0 0 0 0 0 0 0 0 0 0 0 0 0 0 0 0 0 0 0 0 0
605 595 600 647 609 648 0 0 0 0 0 0 0 0 0 0 0 0 0 0 0 0 979 0 0 0 0 0 0 0 0 0 0 0 0 0 0 0 0 0 0 0 0 0 0 0 0 2916 2899 2892 2916 2896 2940 2887 2929 2873 2913 2891 2899 2903 2906 2878 2892 2909 2863 2833 0 0 0 0 0 0 0 0 0 0 0 0 0 0 0 0 0 0 0 0 0 0 0 0 0 0 0 0 0 0 0 0 0 0 0 0 0 0 0 0 0 0 0 0 0 0 0 0 0 0 0 0 0 0
576 562 585 587 597 606 538 0 0 0 0 0 0 0 0 0 0 0 0 0 0 0 945 0 0 0 0 0 0 0 0 0 0 0 0 0 0 0 0 0 0 0 0 0 0 0 0 2936 2935 2943 2952 2883 2918 2951 2908 2952 2898 2897 2898 2904 2922 2904 2895 2917 2844 0 0 0 0 0 0 0 0 0 0 0 0 0 0 0 0 0 0 0 0 0 0 0 0 0 0 0 0 0 0 0 0 0 0 0 0 0 0 0 0 0 0 0 0 0 0 0 0 0 0 0 0 0 0 0
571 578 593 594 601 584 613 0 0 0 0 0 0 0 0 0 0 0 0 0 0 0 0 0 0 0 0 0 0 0 0 0 0 0 0 0 0 0 0 0 0 0 0 0 0 0 0 2965 2926 2935 2939 2943 2931 2934 2932 2971 2922 2967 2914 2926 2891 2905 2907 2890 2924 0 0 0 0 0 0 0 0 0 0 0 0 0 0 0 0 0 0 0 0 0 0 0 0 0 0 0 0 0 0 0 0 0 0 0 0 0 0 0 0 0 0 0 0 0 0 0 0 0 0 0 0 0 0 0
581 576 573 640 582 587 564 0 0 0 0 0 0 0 0 0 2266 0 0 0 904 0 0 961 0 0 0 0 0 0 0 0 0 0 0 0 0 0 0 0 0 0 0 0 0 0 0 2882 2975 2889 2856 2902 2935 2867 2896 2879 2914 2923 2886 2906 2888 2909 2880 2894 2869 2873 0 0 0 0 0 0 0 0 0 0 0 0 0 0 0 0 0 0 0 0 0 0 0 0 0 0 0 0 0 0 0 0 0 0 0 0 0 0 0 0 0 0 0 0 0 0 0 0 0 0 0 0 0 0
555 565 571 557 564 598 549 0 0 0 0 0 0 0 0 0 0 0 0 0 0 0 0 0 0 0 0 0 0 0 0 0 0 0 0 0 0 0 0 0 0 0 0 0 0 0 0 2962 2872 2927 2937 2937 2955 2939 2883 2923 2913 2897 2897 2905 2895 2914 2896 2937 2873 2929 0 0 0 0 0 0 0 0 0 0 0 0 0 0 0 0 0 0 0 0 0 0 0 0 0 0 0 0 0 0 0 0 0 0 0 0 0 0 0 0 0 0 0 0 0 0 0 0 0 0 0 0 0 0
595 580 597 612 609 605 0 0 0 0 0 0 0 0 0 0 0 0 0 0 0 0 0 0 0 0 0 0 0 0 0 0 0 0 0 0 0 0 0 0 0 0 0 0 0 0 0 0 0 0 0 0 0 0 0 0 0 0 0 0 0 2975 2996 2900 2892 0 0 0 0 0 0 0 0 0 0 0 0 0 0 0 0 0 0 0 0 0 0 0 0 0 0 0 0 0 0 0 0 0 0 0 0 0 0 0 0 0 0 0 0 0 0 0 0 0 0 0 0 0 0 0
602 616 597 616 616 621 0 0 0 0 0 0 0 0 0 0 0 0 0 0 0 0 0 0 0 0 0 0 0 0 0 0 0 0 0 0 0 0 0 0 0 0 0 0 0 0 0 0 0 0 0 0 0 0 0 0 0 0 0 0 0 0 0 0 0 0 0 0 0 0 0 0 0 0 0 0 0 0 0 0 0 0 0 0 0 0 0 0 0 0 0 0 0 0 0 0 0 0 0 0 0 0 0 0 0 0 0 0 0 0 0 0 0 0 0 0 0 0 0 0
602 632 616 607 629 0 0 0 0 0 0 0 0 0 0 0 0 0 0 0 0 0 0 0 0 0 0 0 0 0 0 0 0 0 0 0 0 0 0 0 0 0 0 0 0 0 0 0 0 0 0 0 0 0 0 0 0 0 0 0 0 0 0 0 0 0 0 0 0 0 0 0 0 0 0 0 0 0 0 0 0 0 0 0 0 0 0 0 0 0 0 0 0 0 0 0 0 0 0 0 0 0 0 0 0 0 0 0 0 0 0 0 0 0 0 0 0 0 0 0
593 611 592 623 637 0 0 0 0 0 0 0 0 0 0 0 0 0 0 0 0 0 0 0 0 0 0 0 0 0 0 0 0 0 0 0 0 0 0 0 0 0 0 0 0 0 0 0 0 0 0 0 0 0 0 0 0 0 0 0 0 0 0 0 0 0 0 0 0 0 0 0 0 0 0 0 0 0 0 0 0 0 0 0 0 0 0 0 0 0 0 0 0 0 0 0 0 0 0 0 0 0 0 0 0 0 0 0 0 0 0 0 0 0 0 0 0 0 0 0
623 599 579 599 0 0 0 0 0 0 0 0 0 0 0 0 0 0 0 0 0 0 0 0 0 0 850 870 867 859 809 865 0 894 865 925 0 875 859 905 0 0 0 0 0 0 0 0 0 0 0 0 0 0 0 0 0 0 0 0 0 0 0 0 0 0 0 0 0 0 0 0 0 0 0 0 0 0 0 0 0 0 0 0 0 0 0 0 0 0 0 0 0 0 0 0 0 0 0 0 0 0 0 0 0 0 0 0 0 0 0 0 0 0 0 0 0 0 0 0
540 528 614 0 0 0 659 670 696 688 672 692 733 680 701 678 655 657 677 652 698 673 697 654 659 640 696 639 678 715 663 699 633 714 646 708 659 715 707 734 720 721 672 734 723 684 682 734 716 780 763 726 734 709 713 774 745 780 740 781 751 780 728 686 770 774 711 727 785 757 780 786 754 0 0 0 0 0 0 0 0 0 0 0 0 0 0 0 0 0 0 0 0 0 0 0 0 0 0 0 0 0 0 0 0 0 0 0 0 0 0 0 0 0 0 0 0 0 0 0
530 568 553 526 536 581 565 558 576 566 570 578 568 562 583 573 590 552 585 611 571 582 556 590 604 600 592 593 604 598 580 620 621 597 572 590 589 587 597 602 598 619 613 603 589 614 608 601 595 638 630 629 628 667 635 615 606 615 623 638 595 642 666 647 625 649 636 622 649 612 655 649 680 661 678 648 648 647 647 673 634 662 634 701 691 688 671 659 615 675 725 639 716 672 683 0 624 715 643 681 677 0 0 0 0 0 0 0 0 0 0 0 0 0 0 0 0 0 0 0
495 483 468 512 465 506 474 486 521 506 466 495 510 470 488 504 481 498 505 489 516 498 492 507 513 503 503 502 520 512 484 526 498 520 505 508 533 507 505 504 504 503 511 508 517 499 510 516 530 538 517 538 527 525 505 527 515 518 539 522 535 559 537 563 536 536 541 554 535 519 552 549 532 544 539 556 544 548 531 520 559 543 563 553 555 553 578 536 569 562 560 565 553 554 530 561 541 574 568 577 514 593 607 555 0 594 0 584 566 566 0 0 0 0 0 0 0 0 0 0
434 427 419 437 420 446 458 449 466 449 452 466 453 478 465 454 448 451 461 449 459 453 455 451 464 450 459 445 466 455 463 464 461 465 465 477 465 476 481 474 484 468 479 482 464 471 463 472 462 466 479 481 489 469 488 482 501 474 480 480 475 484 477 476 479 493 496 493 486 487 488 494 498 482 469 497 482 478 481 495 493 487 511 498 498 484 513 505 522 495 488 519 492 506 495 505 510 495 490 529 491 501 508 527 545 499 547 502 533 486 516 526 0 0 0 0 0 0 0 0
386 416 399 395 399 399 388 396 396 383 410 391 389 403 395 409 410 396 411 403 406 411 409 410 411 407 421 417 402 422 407 415 429 422 423 425 420 410 429 427 423 417 434 402 422 424 422 425 424 443 413 423 431 426 434 430 421 417 438 430 426 433 425 443 438 426 423 441 435 425 442 431 442 421 439 411 430 434 430 421 436 436 436 430 428 458 442 462 438 429 444 436 426 453 442 439 443 449 436 431 441 428 439 454 454 439 436 454 431 437 438 451 426 435 0 0 0 0 0 0
359 364 345 341 343 348 356 356 367 339 370 359 369 368 359 353 357 371 358 361 359 366 368 375 351 364 358 363 362 370 384 373 368 378 384 366 371 380 369 378 369 376 346 376 360 382 390 380 382 385 386 373 384 378 375 372 375 383 372 375 388 385 378 385 388 391 395 381 395 381 378 393 387 388 397 404 390 389 390 388 386 380 385 394 393 388 381 400 396 399 398 400 395 386 396 384 388 382 402 377 394 393 379 407 399 402 395 403 402 387 420 374 373 368 407 390 0 0 0 0
335 325 337 331 339 353 331 334 343 337 334 338 348 347 358 366 359 351 331 345 347 350 360 335 372 349 327 348 344 360 357 352 352 345 345 343 365 339 340 341 341 350 347 335 348 339 342 356 346 352 360 348 358 343 343 347 346 338 344 360 350 348 338 357 354 354 349 347 362 353 357 355 339 343 354 354 351 364 347 351 348 358 361 363 349 359 356 356 350 360 379 375 370 350 357 353 347 350 354 367 366 359 378 372 368 360 368 362 384 357 386 369 384 384 372 383 381 0 0 0
282 287 284 293 298 281 293 295 296 285 291 295 284 301 294 289 297 302 302 299 281 297 304 306 299 287 298 305 300 327 302 302 294 311 309 306 308 303 303 304 305 308 299 306 310 307 309 313 299 312 309 309 321 309 320 304 304 317 310 313 311 303 313 321 313 314 315 311 319 306 317 325 310 315 306 320 305 302 314 316 309 323 315 328 318 317 330 324 322 314 323 313 318 314 319 316 326 321 312 326 306 316 299 311 335 323 312 327 304 313 316 341 317 314 327 294 311 290 312 0
273 275 270 258 279 277 275 282 276 263 280 283 279 291 288 286 272 275 286 282 281 275 273 273 271 273 279 272 276 270 268 272 283 275 283 272 283 281 283 287 285 279 281 287 285 285 277 291 287 284 291 286 288 280 286 280 281 285 284 294 285 291 287 292 292 288 286 285 293 286 284 298 281 285 281 288 283 284 286 291 290 291 283 300 286 288 294 281 290 298 286 287 300 282 286 288 285 279 302 283 298 308 284 279 303 287 274 293 313 305 278 300 295 288 293 296 308 252 243 318
246 250 252 252 253 248 245 252 262 256 256 243 247 254 265 256 254 259 257 257 250 260 256 255 259 259 250 253 251 255 258 258 263 253 257 263 269 263 265 264 267 259 255 267 263 264 264 259 265 273 265 262 260 270 265 256 264 261 258 265 269 265 281 260 267 270 269 268 265 266 264 262 266 267 265 268 273 264 253 261 255 264 261 265 268 258 265 267 265 266 260 269 269 272 266 272 270 280 276 283 276 256 266 275 271 271 271 271 276 266 261 270 254 270 274 259 242 258 272 253
238 226 233 233 236 235 243 228 233 242 234 225 241 238 238 245 230 240 243 241 233 250 242 241 241 236 237 244 239 242 239 244 240 247 242 245 242 243 253 242 245 239 244 241 243 249 249 244 248 243 247 247 243 248 245 248 244 246 246 238 249 247 256 249 251 252 249 253 252 248 248 242 253 252 254 247 250 252 248 246 246 240 248 249 246 252 257 246 254 244 251 252 249 247 246 246 250 252 245 257 237 239 256 247 247 242 256 242 241 253 243 233 245 259 245 252 257 270 256 223
215 212 219 220 223 226 223 218 217 215 225 224 224 221 225 222 215 224 231 222 224 223 233 228 230 224 222 231 234 228 225 225 228 229 232 231 227 226 239 236 237 231 231 231 235 230 233 240 231 231 235 227 230 240 235 236 234 229 232 233 237 239 233 229 234 233 239 230 237 235 234 239 237 233 232 235 229 236 226 228 229 229 236 238 239 227 238 238 239 223 230 229 235 236 233 225 231 239 241 242 241 238 245 235 237 239 238 243 237 248 230 248 232 236 240 222 240 238 208 231
211 209 212 218 213 205 203 208 209 215 214 208 206 220 217 214 213 213 208 215 214 212 214 212 213 212 210 215 216 212 219 217 197 215 213 216 218 214 226 214 212 202 212 216 221 221 216 215 219 223 200 220 220 204 227 221 223 217 225 219 226 223 223 224 223 219 226 220 223 218 218 227 221 204 217 227 220 214 218 221 216 225 229 221 221 222 218 222 223 218 224 223 223 216 231 224 218 225 225 220 221 228 223 225 223 229 220 223 236 223 225 222 227 229 231 222 210 209 258 222
192 194 199 200 210 207 204 200 188 198 199 199 201 206 204 203 191 185 193 188 205 190 196 193 184 187 184 193 192 194 196 196 190 184 193 187 191 197 189 193 192 193 188 189 202 196 197 188 199 192 194 199 200 198 191 195 200 191 196 196 199 192 196 197 196 200 198 192 193 196 194 196 199 195 196 189 196 192 196 191 194 188 218 199 213 200 197 192 193 213 209 210 192 210 195 191 192 195 197 208 212 206 201 212 210 204 213 210 202 205 206 206 206 222 201 213 199 177 206 176
180 176 177 190 194 176 181 184 196 181 185 179 176 186 200 187 186 187 182 187 181 182 183 186 181 192 188 193 187 185 193 190 188 192 190 193 189 189 193 191 190 196 196 198 196 197 192 200 194 197 195 196 189 195 190 196 189 197 191 199 194 189 194 201 190 194 198 194 190 200 198 193 191 197 197 194 194 195 186 195 194 197 185 185 189 190 193 188 194 190 188 193 187 192 178 191 181 185 194 184 187 183 203 203 181 183 187 188 202 205 200 183 200 180 183 186 207 174 209 211
170 169 174 171 178 180 178 176 179 182 180 181 179 176 185 185 182 187 185 182 185 187 188 182 184 185 187 185 189 189 188 181 187 183 187 181 183 184 182 185 188 183 192 187 187 187 191 189 188 188 185 186 187 187 189 195 192 197 184 189 186 188 186 189 191 191 193 192 190 191 190 186 187 189 185 185 190 187 188 187 194 188 185 187 191 187 189 192 184 187 183 191 186 182 180 180 180 182 184 180 179 177 183 186 185 175 180 175 183 178 178 181 184 174 175 170 199 198 174 175
172 168 156 168 169 170 166 175 168 166 175 174 173 172 174 173 175 176 179 179 175 174 172 170 171 169 175 173 171 176 178 178 168 181 175 170 172 175 175 173 177 173 178 171 178 176 178 177 183 183 182 180 174 178 180 179 180 178 173 182 178 179 177 180 177 184 181 183 174 176 178 181 176 177 180 176 179 180 177 182 179 181 177 178 173 179 175 175 180 176 172 185 176 174 178 180 173 181 182 182 173 184 172 181 179 173 173 178 169 180 173 176 173 168 172 167 165 169 169 161
161 163 164 164 160 164 155 155 168 165 169 170 160 166 169 170 169 170 169 169 173 170 167 169 165 159 165 165 168 168 168 171 169 162 165 169 172 165 172 167 167 169 165 167 168 172 167 167 171 171 173 173 171 168 174 168 167 174 171 173 170 174 172 174 172 170 173 166 170 168 175 176 174 173 169 171 171 172 175 170 168 171 169 166 172 175 175 173 173 166 163 169 170 164 170 174 173 171 170 170 174 169 172 178 181 171 170 172 168 167 174 165 170 173 172 165 179 176 153 166
155 159 161 166 161 160 165 157 153 156 162 161 157 161 162 160 163 162 170 166 158 162 170 160 163 160 164 160 163 163 163 163 162 164 161 162 160 157 163 160 163 161 162 163 168 166 163 160 162 166 157 161 167 163 164 164 165 165 163 167 166 165 165 167 165 166 166 163 159 156 160 160 174 163 168 166 168 166 165 170 162 157 167 163 160 167 165 165 163 164 160 163 162 164 167 163 157 160 168 171 168 166 160 173 162 157 162 160 157 156 162 170 162 158 162 151 163 153 164 145
145 148 145 141 152 149 146 153 157 155 146 149 147 153 147 152 151 155 153 158 156 149 155 156 153 152 148 157 157 163 158 157 155 154 155 152 152 154 151 154 153 156 160 156 154 152 158 148 156 158 156 156 162 156 157 154 156 155 155 161 163 160 159 158 161 158 158 158 154 160 156 157 155 162 161 161 163 157 156 153 155 159 154 154 158 155 158 159 154 156 155 161 158 160 160 159 157 153 150 159 159 158 158 157 156 150 149 148 149 152 152 154 148 154 158 157 156 163 153 146
141 141 144 147 147 146 149 151 149 145 151 152 149 146 152 135 149 146 144 150 152 148 158 158 154 147 151 150 152 145 153 147 146 144 148 145 150 151 149 149 152 150 155 151 150 152 152 152 155 154 153 153 147 153 151 147 154 154 151 158 156 147 151 154 154 152 151 156 154 148 148 151 152 157 154 152 160 157 154 152 154 151 154 150 151 153 153 152 154 152 154 155 161 153 154 146 149 148 157 159 153 150 157 150 151 154 150 152 148 151 154 153 154 153 161 159 163 157 161 136
137 137 136 135 133 137 133 142 137 139 144 142 140 143 136 139 144 138 140 142 142 142 143 145 144 148 148 142 144 145 142 142 140 136 141 142 139 143 143 148 150 145 147 148 144 146 148 128 144 144 149 147 143 143 143 146 145 151 150 146 143 144 130 146 147 149 149 147 144 146 133 145 149 145 145 147 153 150 150 145 140 147 147 137 142 142 146 144 151 143 148 146 144 148 147 148 144 145 151 150 148 146 147 145 142 144 142 140 142 145 136 144 144 146 153 156 149 143 124 140
132 135 134 131 133 144 140 137 137 137 138 0 133 140 132 137 132 138 140 140 145 141 140 136 143 144 0 138 137 138 138 138 141 139 137 139 132 128 142 140 142 147 143 137 139 141 128 127 128 125 143 139 142 140 142 142 144 141 133 130 134 131 141 143 133 139 141 142 134 139 131 143 128 140 142 138 140 140 143 144 144 128 139 129 147 145 141 140 143 139 124 145 143 145 140 139 147 144 147 139 138 140 147 144 139 138 133 141 148 135 132 140 126 140 134 137 138 133 148 156
132 127 127 131 135 135 142 134 128 137 132 131 139 141 135 125 126 135 137 135 140 139 138 138 139 137 140 136 139 125 135 124 137 128 128 128 124 128 126 124 140 142 138 129 0 140 129 127 126 124 127 127 126 130 0 141 0 128 139 141 129 131 141 133 128 126 141 130 139 139 129 127 138 128 140 124 143 131 129 129 124 139 127 136 129 125 138 125 139 142 124 140 137 125 128 127 140 142 139 139 128 119 127 138 126 131 129 128 131 141 130 133 133 137 129 136 133 139 128 130
122 105 112 107 123 129 134 123 110 113 118 114 116 120 128 131 117 131 121 118 122 122 125 124 123 139 135 136 0 137 125 121 115 122 122 118 128 122 126 119 124 127 129 126 0 0 127 122 125 122 122 122 124 127 125 128 133 132 127 117 124 117 128 122 127 130 127 129 118 123 124 120 121 123 114 117 119 137 125 124 132 122 127 120 117 131 117 126 123 125 124 124 126 125 119 119 123 139 136 129 130 119 118 122 114 118 115 117 121 120 129 134 133 130 137 106 115 131 135 75
106 119 110 112 113 126 127 114 116 116 117 116 118 116 122 111 114 120 123 120 124 122 126 120 122 120 126 123 127 123 128 0 127 125 114 111 121 123 0 123 126 122 0 0 0 0 125 122 122 121 123 125 124 118 127 124 124 123 121 120 123 124 112 118 120 127 128 125 119 122 124 119 122 119 122 112 120 125 126 122 119 115 122 122 116 118 123 119 126 123 115 121 118 121 116 118 133 123 120 123 120 117 119 115 114 119 118 112 117 136 115 131 127 131 111 128 128 108 123 122
108 97 115 118 112 112 119 115 111 108 122 116 108 111 108 111 121 110 111 121 116 109 113 116 113 114 119 114 118 121 122 0 119 119 117 109 115 0 114 117 117 0 0 120 122 0 118 118 112 116 114 115 120 116 118 118 116 117 113 116 121 119 121 117 120 117 120 121 116 114 117 117 110 118 111 116 117 111 113 118 115 112 114 117 115 112 122 114 114 117 119 112 118 119 107 123 121 119 113 116 121 120 112 109 111 110 114 116 123 117 114 131 114 117 130 119 112 114 102 130
103 106 106 100 96 109 113 112 102 110 109 109 108 112 121 112 110 111 106 104 113 108 110 103 110 111 114 114 114 120 118 116 114 112 112 110 108 113 0 117 114 111 109 108 112 112 116 0 112 0 115 110 121 116 0 0 110 107 117 113 124 115 106 111 106 112 107 112 113 111 111 109 107 102 110 107 113 109 108 111 110 106 110 105 111 108 114 114 109 116 109 107 99 116 110 115 107 115 106 109 110 114 117 107 110 106 104 114 118 113 115 110 105 113 101 128 106 82 102 103
105 100 116 110 103 106 106 107 108 111 104 113 112 111 113 115 113 111 109 104 109 99 109 103 113 112 107 112 103 119 107 111 105 108 112 111 114 0 106 108 107 104 109 99 100 109 106 108 114 0 109 112 111 115 110 113 103 107 109 109 110 112 116 0 116 110 107 112 115 107 110 105 107 113 107 104 101 98 103 112 110 110 110 111 102 113 101 108 108 105 109 111 108 108 101 109 105 107 109 108 111 115 105 116 111 105 105 111 99 120 115 107 126 117 120 114 115 137 108 137
103 93 105 106 96 92 97 100 93 89 97 99 98 99 104 102 98 107 106 102 105 105 95 98 100 99 107 96 100 104 108 103 104 102 104 99 104 107 103 107 103 99 97 103 101 101 109 100 104 99 103 104 106 104 108 111 98 102 105 99 101 109 102 0 106 101 0 110 103 106 101 103 98 107 102 106 99 102 0 100 0 99 97 101 99 105 98 100 99 102 102 105 100 101 95 94 96 97 99 97 96 100 98 104 100 103 101 98 96 91 85 102 93 109 104 89 96 105 106 133
90 92 84 97 94 97 98 92 97 94 99 100 102 98 103 99 96 96 100 102 97 92 92 91 94 93 99 100 104 94 107 100 104 104 98 105 102 102 98 97 101 102 99 93 93 97 100 101 104 103 107 93 100 98 94 100 101 107 100 103 106 101 107 102 110 105 104 106 103 100 100 107 103 99 94 94 104 92 100 95 0 102 91 91 100 97 100 109 94 101 98 98 99 102 96 104 91 98 89 101 100 90 99 88 98 102 99 89 107 96 92 91 109 89 95 114 108 98 85 125
88 98 91 98 87 95 88 87 84 91 94 92 97 90 89 86 95 87 98 108 102 94 90 93 95 89 100 95 92 97 97 96 98 98 94 102 99 96 97 102 94 96 90 89 101 92 102 99 92 101 101 94 84 95 99 98 92 95 94 91 92 95 103 0 93 101 97 93 99 94 98 100 102 104 87 105 99 98 99 107 90 103 90 107 98 96 89 94 92 97 93 96 98 94 89 87 90 87 98 88 95 97 97 96 102 96 98 75 88 97 94 89 90 87 76 88 110 102 81 77
84 77 77 88 87 86 90 86 82 90 79 92 96 86 85 92 89 93 93 92 85 88 91 94 88 85 97 87 90 94 88 87 97 94 85 92 86 95 87 91 88 83 97 97 86 95 93 88 90 95 96 94 97 96 89 98 96 96 93 92 91 93 97 94 90 91 89 90 96 97 97 91 95 87 85 95 90 90 95 97 94 97 97 94 87 96 88 93 91 90 90 90 89 90 89 89 85 90 88 93 93 81 90 80 88 82 88 83 86 89 74 85 85 88 85 84 82 74 73 65
93 79 89 86 93 89 92 99 86 91 87 94 82 90 90 92 92 83 94 93 84 96 92 83 93 87 94 88 89 86 92 86 96 87 98 95 90 85 87 100 90 92 97 94 96 94 92 90 87 94 95 87 93 88 90 99 93 90 89 96 91 88 95 92 87 93 90 98 86 90 97 86 97 94 93 92 96 93 86 97 97 95 94 88 95 87 89 93 87 93 96 97 94 91 90 90 89 93 87 102 92 83 84 94 87 95 94 82 87 86 83 89 89 82 80 83 83 78 0 0
79 88 83 82 88 88 84 84 81 0 82 90 87 86 81 79 91 89 88 88 87 93 85 94 88 92 87 93 89 88 87 93 89 94 89 91 95 93 92 93 86 91 92 85 97 88 96 86 89 97 87 95 91 89 96 97 96 90 89 90 92 84 92 98 98 91 94 95 92 90 97 97 81 94 93 91 87 94 86 94 94 83 90 90 92 88 95 98 101 87 90 97 108 88 89 88 90 89 90 85 79 87 85 91 81 78 96 89 87 79 89 84 90 89 76 78 84 113 73 0
69 82 78 84 85 83 91 87 83 76 82 83 88 85 86 90 82 91 85 88 91 87 92 82 86 85 86 84 91 92 84 89 90 85 84 90 93 87 91 93 94 90 93 93 86 86 93 93 93 94 92 96 85 86 92 87 91 92 95 86 88 94 95 89 86 96 85 83 86 92 87 97 95 89 88 88 92 95 92 87 90 87 93 92 88 84 94 93 86 86 89 85 83 89 84 84 86 84 87 88 76 81 89 88 81 87 83 88 71 85 74 89 84 79 79 79 88 54 0 0
81 76 82 78 88 87 89 95 78 88 90 76 89 82 89 85 83 92 88 91 83 89 89 88 83 84 86 90 88 93 94 83 84 89 89 88 87 89 87 96 91 87 90 92 93 89 92 96 94 87 95 90 87 87 93 91 92 94 85 87 91 89 85 94 92 96 86 86 92 97 88 88 92 85 94 88 93 89 84 86 90 93 88 83 95 92 91 87 90 93 89 93 80 90 88 87 89 91 92 83 86 89 89 84 85 88 86 86 89 88 85 84 98 95 88 114 0 0 0 0
80 69 65 59 80 80 82 83 82 78 82 77 76 88 83 80 76 77 77 74 84 73 79 78 69 70 77 77 80 76 84 75 80 84 86 75 90 80 85 76 89 79 79 70 79 82 84 88 86 84 79 78 76 84 77 77 84 84 84 78 81 81 82 78 80 79 78 80 77 79 80 85 87 78 83 76 78 85 86 87 77 79 73 72 74 86 76 70 80 83 81 68 82 73 79 85 73 90 71 75 71 72 70 59 74 75 81 79 65 72 81 69 55 79 84 71 0 0 0 0
67 67 77 81 67 84 83 82 82 77 82 74 71 81 76 84 83 81 73 79 77 79 77 87 89 83 78 75 77 85 89 82 83 90 83 75 76 80 81 79 90 80 87 84 85 84 82 75 87 80 85 77 80 78 81 80 81 78 79 73 86 80 83 80 78 81 78 78 89 79 77 84 85 79 86 79 85 84 82 87 79 80 76 79 69 78 82 70 86 86 63 87 72 76 83 72 86 72 72 69 86 73 71 71 74 74 72 79 80 85 59 85 64 128 94 0 0 0 0 0
