0 0 0 0 0 0 0 0 0 0 0 0 0 0 0 0 0 0 0 0 0 0 0 0 0 0 0 0 0 0 0 0 0 0 0 0 0 0 0 0 0 0 0 0 0 0 0 0 0 0 0 0 0 0 0 0 0 0 0 0 0 0 0 0 0 0 0 0 0 0 0 0 0 0 0 0 0 0 0 0 0 0 0 0 0 0 0 0 0 0 0 0 0 0 0 0 0 0 0 0 0 0 0 0 0 0 0 0 0 0 0 0 0 0 0 0 0 0 0 0
0 0 0 0 0 0 0 0 0 0 0 0 0 0 0 0 0 0 0 0 0 0 0 0 0 0 0 0 0 0 0 0 0 0 0 0 0 0 0 0 0 0 0 0 0 0 0 0 0 0 0 0 0 0 0 0 0 0 0 0 0 0 0 0 0 0 0 0 0 0 0 0 0 0 0 0 0 0 0 0 0 0 0 0 0 0 0 0 0 0 0 0 0 0 0 0 0 0 0 0 0 0 0 0 0 0 0 0 0 0 0 0 0 0 0 0 0 0 0 0
0 0 0 0 0 0 0 0 0 0 0 0 0 0 0 0 0 1256 0 0 0 0 0 0 0 0 0 0 0 0 0 0 0 0 0 0 0 0 0 0 0 0 0 0 0 0 0 0 0 0 0 0 0 0 0 0 0 0 0 0 0 0 0 0 0 0 0 0 0 0 0 0 0 0 0 0 0 0 0 0 0 0 0 0 0 0 0 0 0 0 0 0 0 0 0 0 0 0 0 0 0 0 0 0 0 0 0 0 0 0 0 0 0 0 0 0 0 0 0 0
0 0 0 0 0 0 0 0 0 0 0 1120 1101 1144 1131 0 1251 1258 0 0 0 0 1251 0 0 0 0 0 0 0 0 0 0 0 0 0 0 0 0 0 0 0 0 0 0 0 0 0 0 0 0 0 0 0 0 0 0 0 0 0 0 0 0 0 0 0 0 0 0 0 0 0 0 0 0 0 0 0 0 0 0 0 0 0 0 0 0 0 0 0 0 0 0 0 0 0 0 0 0 0 0 0 0 0 0 0 0 0 0 0 0 0 0 0 0 0 0 0 0 0
0 0 0 0 0 0 0 0 1125 1153 1130 1138 1141 1165 1168 0 1284 1284 1281 0 1254 1289 1303 0 0 0 0 0 0 0 0 0 0 0 0 0 0 0 0 0 0 0 0 0 0 0 0 0 0 0 0 0 0 0 0 0 0 0 0 0 0 0 0 0 0 0 0 0 0 0 0 0 0 0 0 0 0 0 0 0 0 0 0 0 0 0 0 0 0 0 0 0 0 0 0 0 0 0 0 0 0 0 0 0 0 0 0 0 0 0 0 0 0 0 0 0 0 0 0 0
0 0 0 0 0 0 1130 1164 1152 1155 1171 0 1174 1172 1231 1225 1272 1326 1319 1288 1310 1308 1281 1258 0 0 0 0 0 0 0 1481 0 0 0 0 0 0 0 0 0 0 0 0 0 0 0 0 0 0 0 0 0 0 0 0 0 0 0 0 0 0 0 0 0 0 0 0 0 0 0 0 0 0 0 0 0 0 0 0 0 0 0 0 0 0 0 0 0 0 0 0 0 0 0 0 0 0 0 0 0 0 0 0 0 0 0 0 0 0 0 0 0 0 0 0 0 0 0 0
0 0 0 0 0 0 0 0 0 0 0 0 1210 1233 1287 1274 1245 1259 1291 1287 1277 1268 1260 1242 1283 0 0 0 0 0 0 1415 0 0 0 0 0 0 0 0 0 0 0 0 0 0 0 0 0 0 0 0 0 0 0 0 0 0 0 0 0 0 0 0 0 0 0 0 0 0 0 0 0 0 0 0 0 0 0 0 0 0 0 0 0 0 0 0 0 0 0 0 0 0 0 0 0 0 0 0 0 0 0 0 0 0 0 0 0 0 0 0 0 0 0 0 0 0 0 0
0 0 0 0 0 0 0 0 0 0 0 0 1250 1284 1265 1273 1303 1281 1301 1282 1273 1270 1256 1301 0 1363 1331 1347 1336 0 0 1431 0 0 0 0 0 0 0 0 0 0 0 0 0 0 0 0 0 0 0 0 0 0 0 0 0 0 0 0 0 0 0 0 0 0 0 0 0 0 0 0 0 0 0 0 0 0 0 0 0 0 0 0 0 0 0 0 0 0 0 0 0 0 0 0 0 0 0 0 0 0 0 0 0 0 0 0 0 0 0 0 0 0 0 0 0 0 0 0
0 0 0 0 0 0 0 0 0 0 0 0 1242 1258 1249 1279 1296 1286 1273 1271 1257 1257 1225 1251 0 0 1329 1350 1369 1401 1404 1390 0 0 0 0 0 0 0 0 0 0 0 0 0 0 0 0 0 0 0 0 0 0 0 0 0 0 0 0 0 0 0 0 0 0 0 0 0 0 0 0 0 0 0 0 0 0 0 0 0 0 0 0 0 0 0 0 0 0 0 0 0 0 0 0 0 0 0 0 0 0 0 0 0 0 0 0 0 0 0 0 0 0 0 0 0 0 0 0
0 0 0 0 0 0 0 0 0 0 0 0 0 0 1303 1272 1261 1295 1269 1247 1267 1247 1266 1256 1266 0 0 1337 1353 1372 1374 1412 0 0 0 0 0 0 0 0 0 0 0 0 0 0 0 0 0 0 0 0 0 0 0 0 0 0 0 0 0 0 0 0 0 0 0 0 0 0 0 0 0 0 0 0 0 0 0 0 0 0 0 0 0 0 0 0 0 0 0 0 0 0 0 0 0 0 0 0 0 0 0 0 0 0 0 0 0 0 0 0 0 0 0 0 0 0 0 0
0 0 0 0 0 0 0 0 0 0 0 0 0 0 0 0 0 0 0 0 0 1257 1285 1256 1305 0 0 1373 1358 1371 1354 1404 1457 0 0 0 0 0 0 0 0 0 0 0 0 0 0 0 0 0 0 0 0 0 0 0 0 0 0 0 0 0 0 0 0 0 0 0 0 0 0 0 0 0 0 0 0 0 0 0 0 0 0 0 0 0 0 0 0 0 0 0 0 0 0 0 0 0 0 0 0 0 0 0 0 0 0 0 0 0 0 0 0 0 0 0 0 0 0 0
0 0 0 0 0 0 0 0 0 0 0 0 0 0 0 0 0 0 0 0 0 0 0 1342 1306 0 0 0 1332 1325 1317 1380 1392 0 0 0 0 0 0 0 0 0 0 0 0 0 0 0 0 0 0 0 0 0 0 0 0 0 0 0 0 0 0 0 0 0 0 0 0 0 0 0 0 0 0 0 0 0 0 0 0 0 0 0 0 0 0 0 0 0 0 0 0 0 0 0 0 0 0 0 0 0 0 0 0 0 0 1719 0 0 0 0 0 0 0 0 0 0 0 0
0 0 0 0 0 0 0 0 0 0 0 0 0 0 0 0 0 0 0 0 0 0 0 1359 1375 1299 1303 1306 1336 1342 1354 1380 1403 0 0 0 0 0 0 0 0 0 0 0 0 0 0 0 0 0 0 0 0 0 0 0 0 0 0 0 0 0 0 0 0 0 0 0 0 0 0 0 0 0 0 0 0 0 0 0 0 0 0 0 0 0 0 0 0 0 0 0 0 0 0 0 0 0 0 0 0 0 0 0 0 0 1747 1696 1687 0 0 0 0 0 0 0 0 0 0 0
0 0 0 0 0 0 0 0 0 0 0 0 0 0 0 0 0 0 0 0 0 0 0 1390 1391 1358 1335 1314 1312 1353 1332 1410 1426 0 0 0 0 0 0 0 0 0 0 0 0 0 0 0 0 0 0 0 0 0 0 0 0 0 0 0 0 0 0 0 0 0 0 0 0 0 0 0 0 0 0 0 0 0 0 0 0 0 0 0 0 0 0 0 0 0 0 0 0 0 0 0 0 0 0 0 0 0 0 0 0 1746 1767 1654 1715 0 0 0 0 0 0 0 0 0 0 0
0 0 0 0 0 0 0 0 0 0 0 0 0 0 0 0 0 0 0 0 0 0 0 1387 1401 1383 1367 1343 1308 1330 1373 1437 1411 0 0 0 0 0 0 0 0 0 0 0 0 0 0 0 0 0 0 0 0 0 0 0 0 0 0 0 0 0 0 0 0 0 0 0 0 0 0 0 0 0 0 0 0 0 0 0 0 0 0 0 0 0 0 0 0 0 0 0 0 0 0 0 0 0 0 0 0 0 0 0 0 0 1739 0 1670 0 0 0 0 0 0 0 0 0 0 0
0 0 0 0 0 0 0 0 0 0 0 0 0 0 0 0 0 0 0 0 0 0 0 1383 1365 1367 1388 1391 1369 1371 1334 1396 1440 0 0 0 0 0 0 0 0 0 0 0 0 0 0 0 0 0 0 0 0 0 0 0 0 0 0 0 0 0 0 0 0 0 0 0 0 0 0 0 0 0 0 0 0 0 0 0 0 0 0 0 0 0 0 0 0 0 0 0 0 0 0 0 0 0 0 0 0 0 0 0 0 1755 0 1754 1708 1723 1696 0 0 0 0 0 0 0 0 0
1272 1283 1260 1315 1306 1308 1321 0 0 0 0 0 0 0 0 0 0 0 0 0 0 0 0 0 1325 1375 1354 1360 1378 1385 1363 1427 1430 0 0 0 0 0 0 0 0 0 0 0 0 0 0 0 0 0 0 0 0 0 0 0 0 0 0 0 0 0 0 0 0 0 0 0 0 0 0 0 0 0 0 0 0 0 0 0 0 0 0 0 0 0 0 0 0 0 0 0 0 0 0 0 0 0 0 0 0 0 0 0 1718 1755 1756 1725 1731 1683 0 0 1700 0 0 0 0 0 0 0
1242 1241 1282 1282 1293 1301 1289 1317 1338 1338 1323 0 0 0 0 0 0 0 0 0 0 0 0 1412 1344 1365 1375 1346 1344 1359 1377 1433 1430 0 0 0 0 0 0 0 0 0 0 0 0 0 0 0 0 0 0 0 0 0 0 0 0 0 0 0 0 0 0 0 0 0 0 0 0 0 0 0 0 0 0 0 0 0 0 0 0 0 0 0 0 0 0 0 0 0 0 0 0 0 0 0 0 0 0 0 0 0 0 1777 1771 1719 1719 1704 1693 1712 1670 1698 0 0 0 0 0 0 0 0
1241 1260 1273 1267 1287 1276 1293 1299 1314 1324 1330 1340 1342 1383 1406 1419 0 0 0 0 0 0 0 0 0 1377 0 0 1361 0 0 1432 1421 0 0 0 0 0 0 0 0 0 0 0 0 0 0 0 0 0 0 0 0 0 0 0 0 0 0 0 0 0 0 0 0 0 0 0 0 0 0 0 0 0 0 0 0 0 0 0 0 0 0 0 0 0 0 0 0 0 0 0 0 0 0 0 0 0 0 0 0 0 0 1791 1799 1721 1693 1722 1666 0 1750 1641 0 0 0 0 0 0 0 0
0 0 0 0 1293 1296 1307 1309 1323 1334 1340 1321 1351 1382 1377 1363 1380 1412 1446 1461 1474 0 0 0 0 0 0 0 0 0 0 1401 1414 1420 0 0 0 0 0 0 0 0 0 0 0 0 0 0 0 0 0 0 0 0 0 0 0 0 0 0 0 0 0 0 0 0 0 0 0 0 0 0 0 0 0 0 0 0 0 0 0 0 0 0 0 0 0 0 0 0 0 0 0 0 0 0 0 0 0 0 0 0 0 1800 1784 1735 1704 1636 1633 1653 0 0 0 0 0 0 0 0 0 0
0 0 0 0 0 0 0 0 0 1299 1333 1349 1325 1360 1368 1392 1392 1421 1433 1429 1441 1492 0 0 0 0 0 0 0 0 0 1478 1467 1482 0 0 0 0 0 0 0 0 0 0 0 0 0 0 0 0 0 0 0 0 0 0 0 0 0 0 0 0 0 0 0 0 0 0 0 0 0 0 0 0 0 0 0 0 0 0 0 0 0 0 0 0 0 0 0 0 0 0 0 0 0 0 0 0 0 0 0 0 0 1741 1733 1682 1589 1611 1553 1547 1598 1575 1630 1590 1590 0 0 0 0 0
0 0 0 0 0 0 0 0 0 0 0 0 0 0 0 1399 1425 1411 1417 1420 1462 1504 0 0 0 0 0 0 0 0 0 0 1494 0 0 0 0 0 0 0 0 0 0 0 0 0 0 0 0 0 0 0 0 0 0 0 0 0 0 0 0 0 0 0 0 0 0 0 0 0 0 0 0 0 0 0 0 0 0 0 0 0 0 0 0 0 0 0 0 0 0 0 0 0 0 0 0 0 0 0 0 1722 1639 1598 1590 1585 1586 1613 1594 1573 1584 1611 1545 1582 1551 0 0 0 0 0
0 0 0 0 0 0 0 0 0 0 0 0 0 0 0 0 0 0 0 0 0 1489 0 0 0 0 0 0 0 0 0 0 0 0 0 0 0 0 0 0 0 0 0 0 0 0 0 0 0 0 0 0 0 0 0 0 0 0 0 0 0 0 0 0 0 0 0 0 0 0 0 0 0 0 0 0 0 0 0 0 0 0 0 0 0 0 0 0 0 0 0 0 0 0 0 0 0 0 0 0 0 1581 1594 1594 1619 1571 1607 1602 1595 1583 1617 1619 1551 1559 0 0 0 0 0 0
0 0 0 0 0 0 0 0 0 0 0 0 0 0 0 0 0 0 0 0 0 0 0 0 0 0 0 0 0 0 0 0 0 0 0 0 0 0 0 0 0 0 0 0 0 0 0 0 0 0 0 0 0 0 0 0 0 0 0 0 0 0 0 0 0 0 0 0 0 0 0 0 0 0 0 0 0 0 0 0 0 0 0 0 0 0 0 0 0 0 0 0 0 0 0 0 0 0 0 0 0 0 1592 1620 1609 1565 1563 1616 1590 1568 1547 1588 0 0 0 0 0 0 0 0
0 0 0 0 0 0 0 0 0 0 0 0 0 0 0 0 0 0 0 0 0 0 0 0 0 0 0 0 0 0 0 0 0 0 0 0 0 0 0 0 0 0 0 0 0 0 0 0 0 0 0 0 0 0 0 0 0 0 0 0 0 0 0 0 0 0 0 0 0 0 0 0 0 0 0 0 0 0 0 0 0 0 0 0 0 0 0 0 0 0 0 0 0 0 0 0 0 0 0 0 0 0 0 0 0 0 1579 1572 1575 0 0 0 0 0 0 0 0 0 0 0
0 0 0 0 0 0 0 0 0 0 0 0 0 0 0 0 0 0 0 0 0 0 0 0 0 0 0 0 0 0 0 0 0 0 0 0 0 0 0 0 0 0 0 0 0 0 0 0 0 0 0 0 0 0 0 0 0 0 0 0 0 0 0 0 0 0 0 0 0 0 0 0 0 0 0 0 0 0 0 0 0 0 0 0 0 0 0 0 0 0 0 0 0 0 0 0 0 0 0 0 0 0 0 0 0 0 0 0 0 0 0 0 0 0 0 0 0 0 0 0
562 586 0 0 0 0 0 0 0 0 0 0 0 0 0 0 0 0 0 0 0 0 0 0 0 1868 1888 0 0 0 0 0 0 0 0 0 0 0 0 0 0 0 0 0 0 0 0 2904 2867 2917 2881 2907 2897 2880 2860 2870 2925 2927 2879 2904 2950 2919 2897 2862 2918 2915 0 0 0 0 0 0 0 0 0 0 0 0 0 0 0 0 0 0 0 0 0 0 0 0 0 0 0 0 0 0 1703 0 0 0 0 0 0 0 0 0 0 0 0 0 0 0 0 0 0 0 0 0 0 0
564 591 583 583 613 619 0 0 0 0 0 0 0 0 0 0 0 0 0 0 0 0 0 0 0 0 0 1937 0 0 0 0 0 0 0 0 0 0 0 0 0 0 0 0 0 0 0 2901 2969 2917 2936 2951 2922 2962 2928 2933 2958 2914 2929 2894 2932 2907 2869 2917 2881 2859 0 0 0 0 0 0 0 0 0 0 0 0 0 0 0 0 0 0 0 0 0 0 0 0 0 0 0 0 0 0 0 0 0 0 0 0 0 0 0 0 0 0 0 0 0 0 0 0 0 0 0 0 0 0
563 592 590 593 596 632 626 638 664 0 0 0 0 0 0 0 0 0 0 0 0 0 0 0 0 0 0 0 0 0 0 0 0 0 0 0 0 0 0 0 0 0 0 0 0 0 0 2920 2933 2889 2892 2911 2853 2887 2872 2875 2923 2866 2940 2915 2869 2895 2865 2915 2950 0 0 0 0 0 0 0 0 0 0 0 0 0 0 0 0 0 0 0 0 0 0 0 0 0 0 0 0 0 0 0 0 0 0 0 0 0 0 0 0 0 0 0 0 0 0 0 0 0 0 0 0 0 0 0
572 594 607 602 629 640 641 660 663 678 696 713 0 0 0 0 0 0 0 0 0 0 0 0 0 0 0 0 0 0 0 0 0 0 0 0 0 0 0 0 0 0 0 0 0 0 0 2976 2891 2919 2925 2962 2900 2863 2882 2885 2887 2899 2894 2885 2897 2929 2878 2902 2909 2892 0 0 0 0 0 0 0 0 0 0 0 0 0 0 0 0 0 0 0 0 0 0 0 0 0 0 0 0 0 0 0 0 0 0 0 0 0 0 0 0 0 0 0 0 0 0 0 0 0 0 0 0 0 0
579 586 588 589 621 613 616 634 645 651 676 687 699 719 689 0 0 0 0 0 0 0 0 0 0 0 0 0 0 0 0 0 0 0 0 0 0 0 0 0 0 0 0 0 0 0 0 2915 2948 2939 2901 2930 2904 2946 2920 2944 2910 2918 2911 2914 2939 2912 2914 2916 2898 0 0 0 0 0 0 0 0 0 0 0 0 0 0 0 0 0 0 0 0 0 0 0 0 0 0 0 0 0 0 0 0 0 0 0 0 0 0 0 0 0 0 0 0 0 0 0 0 0 0 0 0 0 0 0
720 747 796 766 712 668 675 672 649 662 678 706 716 716 739 758 754 781 0 0 0 0 0 0 0 0 0 0 0 0 0 0 0 0 0 0 0 0 0 0 0 0 0 0 0 0 0 2895 2875 2917 2895 2915 2892 2926 2885 2892 2881 2917 2869 2903 2896 2897 2910 2897 2926 2892 0 0 0 0 0 0 0 0 0 0 0 0 0 0 0 0 0 0 0 0 0 0 0 0 0 0 0 0 0 0 0 0 0 0 0 0 0 0 0 0 0 0 0 0 0 0 0 0 0 0 0 0 0 0
778 807 806 828 835 839 858 842 848 788 756 740 731 716 737 761 777 788 807 794 838 0 0 0 0 0 0 0 0 0 0 0 0 0 0 0 0 0 0 0 0 0 0 0 0 0 0 2917 2863 2862 2928 2888 2894 2928 2902 2900 2866 2866 2920 2949 2928 2913 2875 2863 2849 2879 0 0 0 0 0 0 0 0 0 0 0 0 0 0 0 0 0 0 0 0 0 0 0 0 0 0 0 0 0 0 0 0 0 0 0 0 0 0 0 0 0 0 0 0 0 0 0 0 0 0 0 0 0 0
701 781 794 823 834 830 871 902 892 904 907 914 929 909 863 760 751 771 789 784 814 829 835 854 0 0 0 0 0 0 0 0 0 0 0 0 0 0 0 0 0 0 0 0 0 0 0 2863 2928 2930 2976 2928 2921 2966 2951 2927 2884 2917 2878 2934 2919 2982 2898 2912 2872 2935 0 0 0 0 0 0 0 0 0 0 0 0 0 0 0 0 0 0 0 0 0 0 0 0 0 0 0 0 0 0 0 0 0 0 0 0 0 0 0 0 0 0 0 0 0 0 0 0 0 0 0 0 0 0
631 0 864 834 847 875 861 885 880 922 933 957 958 949 940 938 951 927 881 871 843 845 869 863 923 938 940 0 0 0 0 0 0 0 0 0 0 0 0 0 0 0 0 0 0 0 0 2938 2899 2909 2882 2913 2929 2912 2913 2906 2917 2856 2842 2912 2900 2912 2891 2922 2902 2901 0 0 0 0 0 0 0 0 0 0 0 0 0 0 0 0 0 0 0 0 0 0 0 0 0 0 0 0 0 0 0 0 0 0 0 0 0 0 0 0 0 0 0 0 0 0 0 0 0 0 0 0 0 0
648 921 917 938 926 889 0 872 895 921 939 939 955 960 935 947 944 948 933 942 947 920 908 896 914 943 972 964 994 0 0 0 0 0 0 0 0 0 0 0 0 0 0 0 0 0 0 2934 2988 2930 2916 2923 2895 2921 2971 2971 2921 2947 2952 2928 2969 2891 2869 2939 2933 2881 0 0 0 0 0 0 0 0 0 0 0 0 0 0 0 0 0 0 0 0 0 0 0 0 0 0 0 0 0 0 0 0 0 0 0 0 0 0 0 0 0 0 0 0 0 0 0 0 0 0 0 0 0 0
602 724 0 0 0 0 0 0 0 0 986 999 980 986 956 962 957 962 947 936 961 958 957 949 966 971 1003 1009 998 1043 1051 0 0 0 0 0 0 0 0 0 0 0 0 0 0 0 0 2879 2895 2930 2881 2867 2928 2905 2980 2936 2898 2901 2888 2943 2921 2908 2911 2916 2871 2880 0 0 0 0 0 0 0 0 0 0 0 0 0 0 0 0 0 0 0 0 0 0 0 0 0 0 0 0 0 0 0 0 0 0 0 0 0 0 0 0 0 0 0 0 0 0 0 0 0 0 0 0 0 0
598 640 561 0 1126 1119 1167 1140 1157 1122 1159 1158 1151 1160 1141 1144 1117 1042 0 0 1023 1075 1071 1017 992 1034 1103 1116 1114 1088 1075 0 0 0 0 0 0 0 0 0 0 0 0 0 0 0 0 2884 2872 2900 2879 2892 2878 2925 2918 2855 2924 2898 2912 2888 2876 2916 2907 2890 2895 2922 0 0 0 0 0 0 0 0 0 0 0 0 0 0 0 0 0 0 0 0 0 0 0 0 0 0 0 0 0 0 0 0 0 0 0 0 0 0 0 0 0 0 0 0 0 0 0 0 0 0 0 0 0 0
566 580 559 581 0 0 0 0 0 0 0 0 0 0 0 0 1393 1024 975 0 0 1125 1084 0 0 1074 1151 1136 1138 1145 1105 0 0 0 0 0 0 0 0 0 0 0 0 0 0 0 0 2910 2912 2891 2935 2893 2942 2923 2923 2885 2849 2867 2951 2923 2897 2871 2934 2897 2882 0 0 0 0 0 0 0 0 0 0 0 0 0 0 0 0 0 0 0 0 0 0 0 0 0 0 0 0 0 0 0 0 0 0 0 0 0 0 0 0 0 0 0 0 0 0 0 0 0 0 0 0 0 0 0
613 614 607 621 602 0 0 0 0 0 0 0 0 0 0 0 0 1005 989 0 0 0 0 0 0 0 0 0 0 0 0 0 0 0 0 0 0 0 0 0 0 0 0 0 0 0 0 2932 2871 2922 2887 2867 2875 2895 2919 2881 2888 2872 2878 2853 2896 2888 2878 2871 2910 0 0 0 0 0 0 0 0 0 0 0 0 0 0 0 0 0 0 0 0 0 0 0 0 0 0 0 0 0 0 0 0 0 0 0 0 0 0 0 0 0 0 0 0 0 0 0 0 0 0 0 0 0 0 0
598 639 601 595 617 615 0 0 0 0 0 0 0 0 0 0 0 0 0 0 0 0 0 0 0 0 0 0 0 0 0 0 0 0 0 0 0 0 0 0 0 0 0 0 0 0 0 2895 2910 2944 2937 2870 2809 2919 2933 2922 2934 2890 2914 2895 2891 2911 2908 2933 2895 0 0 0 0 0 0 0 0 0 0 0 0 0 0 0 0 0 0 0 0 0 0 0 0 0 0 0 0 0 0 0 0 0 0 0 0 0 0 0 0 0 0 0 0 0 0 0 0 0 0 0 0 0 0 0
590 598 597 603 592 644 0 0 0 0 0 0 0 0 0 0 0 0 0 0 0 0 0 0 0 0 0 0 0 0 0 0 0 0 0 0 0 0 0 0 0 0 0 0 0 0 0 2914 2927 2905 2916 2903 2964 2963 2885 2909 2921 2919 2910 2920 2915 2887 2900 2885 2893 2886 0 0 0 0 0 0 0 0 0 0 0 0 0 0 0 0 0 0 0 0 0 0 0 0 0 0 0 0 0 0 0 0 0 0 0 0 0 0 0 0 0 0 0 0 0 0 0 0 0 0 0 0 0 0
602 614 590 585 594 604 0 0 0 0 0 0 0 0 0 0 0 0 0 0 0 0 961 0 0 0 0 0 0 0 0 0 0 0 0 0 0 0 0 0 0 0 0 0 0 0 0 2944 2878 2942 2909 2904 2889 2901 2927 2868 2889 2912 2934 2868 2940 2928 2924 2921 2870 0 0 0 0 0 0 0 0 0 0 0 0 0 0 0 0 0 0 0 0 0 0 0 0 0 0 0 0 0 0 0 0 0 0 0 0 0 0 0 0 0 0 0 0 0 0 0 0 0 0 0 0 0 0 0
577 582 573 569 588 610 556 0 0 0 0 0 0 0 0 0 0 0 0 0 0 0 0 0 0 0 0 0 0 0 0 0 0 0 0 0 0 0 0 0 0 0 0 0 0 0 0 2889 2928 2934 2917 2921 2903 2924 2884 2956 2885 2902 2913 2912 2878 2887 2905 2900 2916 0 0 0 0 0 0 0 0 0 0 0 0 0 0 0 0 0 0 0 0 0 0 0 0 0 0 0 0 0 0 0 0 0 0 0 0 0 0 0 0 0 0 0 0 0 0 0 0 0 0 0 0 0 0 0
603 601 599 635 596 597 623 0 0 0 0 0 0 0 0 0 2300 0 0 0 0 0 938 990 0 0 0 0 0 0 0 0 0 0 0 0 0 0 0 0 0 0 0 0 0 0 0 2912 2883 2905 2895 2895 2914 2931 2867 2880 2898 2876 2877 2848 2917 2861 2894 2856 2860 2838 0 0 0 0 0 0 0 0 0 0 0 0 0 0 0 0 0 0 0 0 0 0 0 0 0 0 0 0 0 0 0 0 0 0 0 0 0 0 0 0 0 0 0 0 0 0 0 0 0 0 0 0 0 0
585 608 589 624 604 640 609 0 0 0 0 0 0 0 0 0 0 0 0 0 0 0 0 949 0 0 0 0 0 0 0 0 0 0 0 0 0 0 0 0 0 0 0 0 0 0 0 2884 2884 2917 2866 2846 2851 2893 2834 2936 2859 2888 2890 2883 2863 2889 2866 2872 2894 2846 0 0 0 0 0 0 0 0 0 0 0 0 0 0 0 0 0 0 0 0 0 0 0 0 0 0 0 0 0 0 0 0 0 0 0 0 0 0 0 0 0 0 0 0 0 0 0 0 0 0 0 0 0 0
591 570 611 590 590 613 0 0 0 0 0 0 0 0 0 0 0 0 0 0 0 0 0 0 0 0 0 0 0 0 0 0 0 0 0 0 0 0 0 0 0 0 0 0 0 0 0 0 0 0 0 0 0 0 0 0 0 0 0 0 0 2968 3030 2895 2917 0 0 0 0 0 0 0 0 0 0 0 0 0 0 0 0 0 0 0 0 0 0 0 0 0 0 0 0 0 0 0 0 0 0 0 0 0 0 0 0 0 0 0 0 0 0 0 0 0 0 0 0 0 0 0
606 595 611 619 633 578 0 0 0 0 0 0 0 0 0 0 0 0 0 0 0 0 0 0 0 0 0 0 0 0 0 0 0 0 0 0 0 0 0 0 0 0 0 0 0 0 0 0 0 0 0 0 0 0 0 0 0 0 0 0 0 0 0 0 0 0 0 0 0 0 0 0 0 0 0 0 0 0 0 0 0 0 0 0 0 0 0 0 0 0 0 0 0 0 0 0 0 0 0 0 0 0 0 0 0 0 0 0 0 0 0 0 0 0 0 0 0 0 0 0
582 602 590 613 593 0 0 0 0 0 0 0 0 0 0 0 0 0 0 0 0 0 0 0 0 0 0 0 0 0 0 0 0 0 0 0 0 0 0 0 0 0 0 0 0 0 0 0 0 0 0 0 0 0 0 0 0 0 0 0 0 0 0 0 0 0 0 0 0 0 0 0 0 0 0 0 0 0 0 0 0 0 0 0 0 0 0 0 0 0 0 0 0 0 0 0 0 0 0 0 0 0 0 0 0 0 0 0 0 0 0 0 0 0 0 0 0 0 0 0
584 588 591 591 598 0 0 0 0 0 0 0 0 0 0 0 0 0 0 0 0 0 0 0 0 0 0 0 0 0 0 0 0 0 0 0 0 0 0 0 0 0 0 0 0 0 0 0 0 0 0 0 0 0 0 0 0 0 0 0 0 0 0 0 0 0 0 0 0 0 0 0 0 0 0 0 0 0 0 0 0 0 0 0 0 0 0 0 0 0 0 0 0 0 0 0 0 0 0 0 0 0 0 0 0 0 0 0 0 0 0 0 0 0 0 0 0 0 0 0
595 602 594 572 0 0 0 0 0 0 0 0 0 0 0 0 0 0 0 0 0 0 0 0 0 0 850 899 878 850 911 884 0 883 892 928 0 922 878 937 932 932 0 0 0 0 0 0 0 0 0 0 0 0 0 0 0 0 0 0 0 0 0 0 0 0 0 0 0 0 0 0 0 0 0 0 0 0 0 0 0 0 0 0 0 0 0 0 0 0 0 0 0 0 0 0 0 0 0 0 0 0 0 0 0 0 0 0 0 0 0 0 0 0 0 0 0 0 0 0
578 558 567 0 0 0 684 723 640 688 661 700 651 724 708 677 729 685 686 644 744 700 728 697 686 766 668 702 732 739 694 729 752 716 725 731 703 740 739 720 746 779 727 748 722 744 717 742 748 756 748 769 781 737 752 726 743 789 761 761 759 781 776 732 736 741 788 762 785 808 779 794 737 0 0 0 0 0 0 0 0 0 0 0 0 0 0 0 0 0 0 0 0 0 0 0 0 0 0 0 0 0 0 0 0 0 0 0 0 0 0 0 0 0 0 0 0 0 0 0
515 573 586 543 595 554 563 580 590 582 585 595 540 573 562 623 615 570 588 581 557 578 596 553 600 589 566 587 618 623 585 627 602 567 582 611 621 590 561 616 597 582 601 645 595 594 627 596 596 628 626 605 644 624 633 640 622 632 615 618 595 646 652 636 654 626 637 619 664 632 657 666 671 655 663 626 709 601 697 668 682 656 647 634 672 640 650 687 646 636 674 671 717 683 682 0 662 690 668 699 661 685 0 0 0 0 0 0 0 0 0 0 0 0 0 0 0 0 0 0
473 517 516 502 497 493 503 508 502 506 518 515 481 502 511 513 495 537 531 530 503 513 530 524 527 513 531 531 490 516 529 517 531 529 523 519 526 511 531 534 528 534 533 538 525 524 520 525 553 547 538 542 544 523 524 534 534 552 526 539 530 545 551 564 558 550 549 559 568 588 564 573 565 566 539 543 571 548 567 575 606 560 586 555 570 573 585 566 568 578 568 577 573 560 615 603 587 588 648 642 603 633 620 606 0 574 640 584 620 570 601 0 0 0 0 0 0 0 0 0
416 439 433 417 406 428 425 417 460 439 430 453 440 440 447 428 440 436 432 437 451 444 472 454 459 436 445 467 455 466 461 470 462 464 445 454 459 458 447 458 461 444 468 454 477 470 457 475 477 459 463 459 471 464 479 471 482 488 475 474 491 480 470 473 461 482 492 486 502 486 479 483 476 477 479 483 478 493 477 480 493 479 488 501 470 484 492 488 470 512 487 510 478 480 482 507 492 483 488 474 481 500 500 508 483 514 479 500 477 520 460 518 0 0 0 0 0 0 0 0
405 396 383 398 403 399 397 389 402 389 412 385 395 405 398 409 417 404 396 401 408 409 404 409 409 410 411 410 397 406 406 417 416 412 417 424 412 411 417 417 412 414 414 431 418 406 423 415 416 423 419 434 427 433 422 418 433 421 441 432 423 421 425 429 426 423 413 419 429 436 420 432 431 432 432 413 435 442 433 431 448 438 453 434 418 440 454 453 440 417 436 442 413 432 441 445 436 447 438 456 452 441 427 442 450 453 452 441 423 442 439 412 450 422 444 0 0 0 0 0
351 356 354 348 354 372 360 342 357 364 364 359 362 364 364 372 363 361 358 369 358 361 354 365 354 374 365 368 368 370 372 378 360 372 382 371 379 372 368 371 378 375 366 377 372 373 399 373 389 378 369 374 383 382 377 368 391 383 385 392 379 387 393 389 381 390 384 389 382 385 384 389 398 385 382 393 388 386 394 391 380 389 408 405 386 397 400 390 382 398 407 406 389 377 413 384 392 391 381 406 386 397 369 422 396 394 368 398 379 384 411 382 405 398 370 362 0 0 0 0
316 291 299 317 318 329 342 331 319 330 297 324 331 342 323 327 332 338 344 326 338 344 329 337 329 318 315 328 320 324 324 359 330 346 345 330 329 334 334 330 337 349 337 345 346 332 338 345 352 349 350 333 342 336 354 337 340 334 341 344 351 353 334 336 335 338 349 349 330 353 349 346 338 351 352 350 338 343 325 352 355 345 347 349 344 348 347 345 343 344 340 344 353 347 346 359 348 356 349 365 358 342 376 346 357 344 358 355 366 364 362 355 343 362 333 341 352 0 0 0
293 292 293 285 303 294 311 314 305 299 303 286 303 301 304 299 308 302 313 305 299 303 294 313 295 291 287 296 297 307 310 304 305 311 295 309 315 298 306 308 306 317 313 307 309 309 316 303 319 315 314 320 314 309 317 318 324 313 316 311 318 307 314 312 312 322 320 309 314 318 313 319 321 322 319 321 315 315 320 324 325 305 317 313 321 318 320 320 322 318 330 317 310 320 322 331 314 327 315 327 322 328 333 331 334 330 322 316 323 342 319 340 313 325 344 342 289 347 368 0
270 258 267 277 282 297 279 289 266 278 276 277 271 277 291 278 282 276 279 284 277 273 276 276 278 281 271 276 282 280 268 274 285 279 275 278 282 280 284 284 274 280 279 283 293 279 290 293 289 289 288 287 291 282 282 294 280 291 281 294 284 284 294 290 290 288 287 285 290 291 287 288 284 287 289 287 290 290 289 293 293 297 288 295 292 292 297 287 294 292 290 290 296 292 304 302 298 306 297 297 287 303 309 296 290 300 296 270 293 314 304 279 290 295 278 313 283 302 306 311
252 244 255 257 253 260 245 255 248 256 255 249 250 252 262 253 260 255 254 255 256 258 259 257 262 258 262 254 250 256 258 261 257 265 261 266 260 269 262 265 267 270 261 260 257 273 263 264 271 269 267 272 267 265 260 261 264 267 276 274 270 265 266 263 268 268 269 268 272 264 264 272 265 270 268 266 271 264 265 268 267 265 262 274 274 268 274 266 257 264 265 267 261 276 264 273 270 265 278 285 280 272 270 293 270 280 265 294 270 264 273 288 257 279 289 267 259 258 258 258
230 231 240 233 240 239 246 232 242 227 234 242 245 247 237 247 236 239 248 244 237 244 246 242 247 240 240 234 242 248 246 248 238 239 247 248 249 251 243 252 254 248 246 241 243 251 249 257 245 247 252 250 248 247 255 248 249 248 246 253 250 257 252 256 253 253 252 254 245 251 257 253 251 246 254 254 253 252 252 255 248 246 260 251 260 254 257 245 249 241 251 256 255 260 257 251 248 250 256 255 257 251 258 247 253 255 242 246 253 248 252 248 278 261 247 241 253 256 248 261
212 219 215 214 217 227 224 213 222 212 226 219 224 225 223 220 222 219 227 222 226 225 225 232 223 225 226 223 230 223 228 224 226 220 219 234 229 233 233 234 230 218 230 227 233 235 233 236 241 233 233 226 226 230 233 233 226 230 237 232 237 235 234 227 231 234 229 237 234 233 234 234 237 230 231 235 229 231 229 232 233 235 230 231 238 239 241 234 232 232 227 230 232 235 229 223 230 237 230 236 242 243 242 234 231 241 230 235 238 241 221 236 238 237 233 226 232 254 234 232
211 207 222 207 218 206 214 213 206 212 210 214 206 224 217 211 215 207 208 216 213 209 217 195 214 215 218 215 210 199 215 217 215 213 212 214 212 216 215 220 214 226 220 213 220 224 219 220 220 205 221 220 221 205 206 222 219 217 222 224 219 206 225 230 225 222 229 219 218 221 223 220 222 220 218 221 227 216 222 222 220 225 227 234 221 223 223 222 221 222 231 222 221 221 227 225 235 214 232 225 213 214 230 233 226 232 224 227 233 236 231 226 236 222 217 221 205 218 218 212
193 194 194 196 209 200 197 200 182 199 184 200 183 195 189 186 186 188 191 207 192 191 197 192 182 182 187 191 187 192 193 188 188 184 201 194 188 197 193 198 186 194 197 189 192 193 196 199 201 199 193 201 194 200 190 199 200 199 195 198 193 196 195 203 189 200 192 195 199 196 194 190 198 196 190 198 191 195 195 196 185 197 199 195 198 195 201 193 196 210 191 209 207 192 195 187 190 194 214 210 210 193 209 192 210 214 210 209 213 208 214 206 209 213 214 185 214 204 179 182
179 175 192 192 193 175 195 183 184 181 184 176 179 179 199 178 183 188 178 178 181 188 184 188 191 184 192 192 193 191 192 188 193 194 189 193 195 194 186 190 197 195 189 198 200 197 195 196 194 194 196 196 193 194 193 194 199 197 195 201 197 189 196 200 193 198 196 195 199 193 198 195 200 195 194 200 195 195 197 189 193 196 194 187 192 186 191 189 186 182 185 185 192 191 185 191 184 189 189 185 186 184 183 191 180 183 187 200 193 201 186 181 177 175 187 183 171 171 196 208
168 176 173 178 174 172 180 182 180 175 176 183 175 182 182 179 184 187 183 182 187 185 188 182 186 187 185 182 185 187 185 189 190 185 184 180 188 183 186 187 184 183 190 189 189 190 191 196 184 186 189 184 182 192 189 190 189 186 192 193 187 187 186 193 186 188 186 188 190 191 188 186 188 183 185 187 188 189 188 191 190 194 185 186 188 191 184 189 185 186 180 189 187 180 192 181 186 187 184 185 183 188 183 177 177 182 177 176 178 183 178 179 180 169 172 170 174 171 172 180
167 166 163 168 171 167 168 175 168 168 171 172 171 172 177 172 166 178 181 179 175 173 173 170 171 168 171 171 172 176 177 175 171 175 172 170 181 173 171 173 180 177 178 178 180 181 179 179 182 180 173 175 176 182 185 175 182 179 179 178 178 183 187 176 173 175 183 185 178 178 175 179 180 178 181 177 181 181 175 182 181 185 175 177 176 175 178 176 181 184 172 173 178 174 180 175 175 179 179 184 182 185 185 181 175 178 172 173 174 175 170 175 179 170 170 174 167 177 165 169
163 166 161 164 161 164 161 162 170 165 170 172 163 168 168 170 167 169 169 169 167 164 169 170 171 163 168 171 172 170 177 169 170 166 169 162 172 165 171 170 164 170 172 171 175 172 168 170 174 171 178 171 168 169 173 168 171 172 172 174 173 177 174 174 178 174 178 173 165 170 172 180 176 171 170 176 176 176 176 173 168 169 171 164 163 170 175 173 172 173 167 172 169 170 171 162 179 171 168 178 171 175 176 178 172 175 173 170 172 163 176 176 173 171 177 171 177 177 171 165
158 156 168 164 163 159 163 160 162 160 158 159 158 163 162 161 163 164 166 169 160 164 165 162 162 160 164 158 160 163 165 169 165 167 161 161 165 164 163 163 163 164 164 160 163 169 164 162 167 167 161 166 167 163 164 167 163 166 165 167 164 161 164 159 168 166 164 166 167 163 164 161 166 164 164 168 168 169 167 173 163 164 170 168 164 169 169 164 165 163 166 167 165 167 163 165 162 156 169 171 170 166 165 168 166 163 170 168 162 164 160 166 169 169 176 161 163 167 149 144
146 147 151 148 152 146 149 149 151 153 148 150 148 146 154 149 147 157 153 163 148 152 154 159 155 155 151 162 161 158 159 154 154 155 153 152 151 156 153 159 162 157 161 157 161 156 157 153 155 158 155 159 159 160 159 159 152 154 156 158 163 158 152 158 158 158 164 150 152 157 154 159 164 160 158 163 167 159 158 154 160 148 158 153 157 153 157 160 162 157 165 159 156 155 156 158 155 153 153 156 155 156 157 158 157 152 156 150 157 155 150 167 157 153 159 154 150 161 159 139
137 140 149 141 151 143 144 148 151 144 148 150 144 149 146 146 148 153 146 149 150 149 155 151 153 147 150 152 151 144 151 149 146 147 147 151 150 152 151 151 151 153 152 153 152 149 152 153 152 152 154 150 149 152 157 152 152 153 157 153 157 151 154 155 152 147 151 154 151 150 153 156 148 154 156 154 157 157 153 152 150 152 149 146 150 151 154 155 155 151 155 157 162 152 158 151 150 151 155 156 151 156 158 156 157 154 155 153 150 150 154 148 157 160 160 152 161 150 149 129
135 136 139 136 135 136 137 140 136 141 144 142 144 141 137 137 147 139 140 147 142 145 145 150 143 142 151 147 143 138 143 127 138 145 142 145 145 142 145 146 145 149 150 146 148 144 141 141 143 148 142 134 146 140 145 144 143 150 148 148 143 144 144 145 149 146 148 147 146 146 145 145 146 147 150 148 150 152 150 146 144 147 147 139 145 145 147 147 151 146 150 146 145 146 148 146 141 145 150 148 148 146 154 142 142 145 144 140 141 143 140 150 144 148 157 155 144 152 143 146
134 132 130 130 133 136 140 139 140 139 140 0 133 137 132 135 135 138 139 138 142 143 141 139 137 148 0 138 140 138 138 129 140 130 141 139 132 131 136 130 141 134 139 139 139 139 142 140 139 139 140 140 133 142 143 144 144 142 141 131 130 132 130 142 141 141 131 140 144 138 130 140 132 141 140 140 145 142 147 144 144 142 129 126 142 144 143 139 139 132 138 140 144 146 140 139 142 140 144 142 142 143 139 135 143 135 134 140 148 137 139 135 138 136 131 140 120 127 132 135
130 128 124 133 132 133 142 135 131 132 133 134 139 135 134 134 126 139 137 132 142 142 139 137 140 135 140 136 138 126 135 127 138 122 129 127 130 129 128 127 141 140 130 127 0 141 129 129 130 124 129 131 140 142 0 142 0 129 139 128 132 126 141 131 140 131 141 127 141 139 131 121 130 130 131 130 142 128 132 132 138 131 137 129 129 126 137 127 140 145 122 141 137 133 137 126 141 138 142 140 138 132 136 140 125 132 135 136 139 116 139 130 131 139 128 134 135 144 129 128
117 101 115 107 127 130 139 123 115 111 131 117 120 125 127 120 133 132 130 120 117 126 127 126 124 135 138 139 0 138 125 120 117 119 118 118 128 128 124 121 121 125 125 125 0 0 128 124 128 120 124 122 127 127 124 129 133 129 129 125 124 128 127 129 127 128 127 130 118 127 125 122 122 126 119 122 121 129 120 126 129 125 120 128 123 127 117 124 125 127 123 124 125 133 120 118 123 139 127 122 121 119 119 122 123 116 111 119 122 130 127 145 132 137 135 113 112 108 132 101
107 113 121 110 109 120 123 117 127 114 118 122 120 127 117 112 113 132 120 116 127 125 126 122 125 133 128 126 126 127 129 0 128 122 115 111 118 117 0 122 131 126 0 0 0 0 124 123 117 123 124 121 125 123 138 122 123 121 119 120 130 121 112 120 123 122 122 124 118 120 126 117 126 126 120 114 116 125 127 125 118 114 122 123 120 122 121 124 128 122 121 116 120 119 121 123 123 125 117 123 126 117 122 115 107 118 117 119 119 135 129 136 119 124 107 120 120 111 98 119
109 101 116 117 111 115 114 126 113 114 119 119 113 111 119 110 117 117 111 119 116 109 118 119 113 117 119 116 116 119 122 0 117 114 116 114 118 0 114 114 117 0 0 124 126 0 123 121 110 114 119 117 117 118 122 120 120 115 116 121 123 120 118 125 120 121 115 120 121 116 119 119 114 118 115 117 116 119 118 123 112 122 115 120 114 118 119 119 113 118 117 117 116 113 107 121 127 120 112 117 120 121 118 113 113 111 128 120 123 120 123 125 115 113 122 135 129 130 111 128
95 103 102 102 102 102 114 113 106 113 108 110 109 109 120 117 114 110 104 106 114 102 113 105 109 112 113 115 112 115 117 115 112 109 112 112 108 110 113 112 117 114 109 106 110 116 118 0 111 0 114 108 119 116 0 0 109 108 116 112 124 114 107 112 106 109 109 111 116 112 111 106 108 103 109 110 104 112 110 114 110 101 106 110 113 108 117 110 106 111 111 104 101 115 111 115 111 119 105 108 105 112 117 105 110 111 106 107 118 118 107 128 103 116 99 122 102 86 88 108
105 99 110 113 103 102 108 105 110 110 106 116 105 111 117 118 109 110 119 94 110 102 104 109 113 111 112 113 107 118 111 108 113 110 114 112 109 0 107 108 110 109 111 104 103 108 107 109 118 0 110 113 107 113 108 111 105 112 110 107 105 112 113 0 119 109 110 113 112 112 107 107 106 114 102 103 98 102 102 114 111 104 109 110 101 108 101 108 108 105 105 111 101 106 100 104 103 106 102 109 107 109 116 117 108 106 110 111 100 109 110 100 107 120 118 104 99 143 113 123
98 95 108 109 100 92 94 102 95 94 105 100 99 97 106 103 95 102 107 98 98 103 96 101 105 105 106 102 100 103 109 105 101 99 105 100 107 108 103 104 103 103 102 92 99 99 104 102 107 102 106 105 105 102 102 105 97 100 104 101 107 108 105 0 109 106 0 112 104 106 101 102 97 110 102 109 100 107 0 101 0 101 95 104 94 102 98 98 97 102 109 106 98 97 92 94 99 100 99 102 98 101 96 107 96 97 98 99 88 87 95 95 94 110 109 107 96 114 104 110
92 89 84 92 91 92 93 95 98 87 100 98 98 95 96 98 91 94 108 97 99 90 91 86 99 93 100 100 101 97 107 102 107 100 102 101 101 101 96 99 101 98 100 96 95 96 104 100 104 103 107 99 98 101 93 96 97 108 103 99 103 100 108 103 108 105 106 105 106 101 99 104 102 101 95 95 107 98 101 98 0 103 91 89 98 99 98 102 90 97 100 96 101 99 95 103 89 93 85 102 98 90 102 84 94 104 94 92 101 96 82 85 97 81 86 114 94 78 86 114
93 97 94 96 94 93 90 89 84 91 92 91 98 88 93 83 96 90 102 105 103 91 81 91 92 92 100 92 93 107 99 95 104 96 95 103 99 93 95 103 93 94 88 92 104 99 97 101 95 99 100 93 85 91 97 104 97 95 98 98 93 96 98 0 97 103 101 95 97 97 98 100 105 105 88 104 97 99 103 104 96 101 85 111 96 102 94 89 87 94 93 95 97 79 90 88 93 89 102 91 92 95 93 93 101 95 97 89 89 79 84 86 90 82 90 95 126 124 107 77
87 78 89 81 88 82 89 90 84 78 82 88 95 89 90 89 86 87 85 93 91 78 91 92 94 90 99 92 86 94 86 86 98 94 93 92 84 96 94 96 89 97 95 90 91 98 99 90 92 86 98 94 98 96 96 96 95 98 97 98 98 96 87 92 93 92 98 91 90 95 95 93 96 91 98 96 90 88 88 94 88 90 94 90 92 96 92 93 89 89 93 91 95 88 90 90 93 93 89 92 93 83 83 82 89 86 90 84 85 90 81 83 90 87 80 82 83 61 50 83
94 82 90 86 94 91 96 101 91 88 86 92 87 86 89 90 91 84 94 87 90 96 97 88 90 88 92 87 92 86 89 89 96 88 99 85 93 93 87 97 90 96 96 93 93 97 93 94 90 92 97 90 96 90 95 90 100 98 99 95 91 95 95 94 95 96 90 99 86 88 98 93 97 94 95 89 92 98 85 96 90 95 95 92 96 87 90 99 95 90 96 95 96 89 90 93 84 83 92 99 92 97 91 95 84 96 94 90 83 89 89 83 84 91 90 85 87 91 0 0
78 93 87 83 87 90 87 87 84 0 84 83 86 93 83 88 93 93 91 86 93 92 89 95 87 88 93 84 87 96 89 94 89 92 96 87 95 91 93 96 84 92 94 83 96 87 95 96 88 98 90 86 96 89 94 85 95 95 94 94 94 83 90 98 98 90 95 91 96 91 87 96 90 94 91 92 88 94 90 94 94 94 89 96 91 87 81 93 97 93 92 100 105 86 86 87 90 91 88 86 80 81 90 87 90 81 88 87 94 87 84 97 83 84 89 86 95 108 111 0
77 82 78 86 83 87 94 82 86 78 84 82 82 89 84 88 87 86 84 88 91 91 87 90 83 88 91 91 91 88 86 87 94 93 88 94 90 87 91 86 89 87 95 96 87 86 92 93 90 90 98 93 90 85 95 97 97 93 96 94 95 96 95 89 87 94 84 88 94 93 90 88 94 95 96 87 91 95 91 93 88 89 89 88 89 86 87 85 89 92 90 90 86 89 82 81 87 86 88 82 77 79 85 89 91 87 90 87 80 85 76 90 87 82 84 79 93 84 0 0
80 73 79 82 86 83 89 95 79 87 89 90 85 82 78 86 81 89 85 88 89 92 90 86 82 81 93 88 89 90 87 86 82 90 91 88 92 86 86 89 90 87 89 93 95 88 96 90 96 98 91 90 85 90 87 92 92 88 89 91 93 94 87 93 92 95 84 85 87 97 93 89 94 86 96 90 88 92 83 84 92 90 88 82 91 92 88 86 91 93 93 91 83 85 88 90 89 92 90 88 79 90 86 84 89 89 88 88 84 79 87 86 82 76 101 120 0 0 0 0
79 68 65 61 76 80 88 83 85 76 81 85 78 90 79 75 81 79 80 74 79 75 82 77 75 74 81 82 80 76 88 74 86 82 84 78 77 80 83 78 82 78 79 71 78 82 78 90 85 80 83 83 76 87 79 78 87 88 86 76 91 74 80 76 80 81 79 83 74 77 85 84 82 78 85 84 78 86 87 85 75 84 81 79 75 86 80 76 78 80 88 75 83 76 81 78 68 92 71 77 69 73 73 69 69 75 79 81 71 87 85 70 73 78 86 42 0 0 0 0
70 64 73 73 68 81 85 86 84 78 76 88 73 75 79 80 82 85 76 76 80 81 71 83 88 80 73 72 77 81 79 81 78 85 80 68 76 72 77 81 89 80 87 83 84 85 81 73 86 82 82 69 76 78 85 90 78 77 86 73 82 77 76 79 85 76 75 77 89 63 79 78 83 84 80 88 83 83 85 82 83 77 74 83 72 74 78 73 76 92 63 80 69 73 81 76 86 72 69 75 79 74 73 67 70 73 67 69 62 70 51 53 82 76 67 0 0 0 0 0
