0 0 0 0 0 0 0 0 0 0 0 0 0 0 0 0 0 0 0 0 0 0 0 0 0 0 0 0 0 0 0 0 0 0 0 0 0 0 0 0 0 0 0 0 0 0 0 0 0 0 0 0 0 0 0 0 0 0 0 0 0 0 0 0 0 0 0 0 0 0 0 0 0 0 0 0 0 0 0 0 0 0 0 0 0 0 0 0 0 0 0 0 0 0 0 0 0 0 0 0 0 0 0 0 0 0 0 0 0 0 0 0 0 0 0 0 0 0 0 0
0 0 0 0 0 0 0 0 0 0 0 0 0 0 0 0 0 0 0 0 0 0 0 0 0 0 0 0 0 0 0 0 0 0 0 0 0 0 0 0 0 0 0 0 0 0 0 0 0 0 0 0 0 0 0 0 0 0 0 0 0 0 0 0 0 0 0 0 0 0 0 0 0 0 0 0 0 0 0 0 0 0 0 0 0 0 0 0 0 0 0 0 0 0 0 0 0 0 0 0 0 0 0 0 0 0 0 0 0 0 0 0 0 0 0 0 0 0 0 0
0 0 0 0 0 0 0 0 0 0 0 0 0 0 0 0 1214 1293 0 0 0 0 0 0 0 0 0 0 0 0 0 0 0 0 0 0 0 0 0 0 0 0 0 0 0 0 0 0 0 0 0 0 0 0 0 0 0 0 0 0 0 0 0 0 0 0 0 0 0 0 0 0 0 0 0 0 0 0 0 0 0 0 0 0 0 0 0 0 0 0 0 0 0 0 0 0 0 0 0 0 0 0 0 0 0 0 0 0 0 0 0 0 0 0 0 0 0 0 0 0
0 0 0 0 0 0 0 0 0 0 0 1131 1108 1132 1160 0 1248 1266 0 0 0 1243 1272 0 0 0 0 0 0 0 0 0 0 0 0 0 0 0 0 0 0 0 0 0 0 0 0 0 0 0 0 0 0 0 0 0 0 0 0 0 0 0 0 0 0 0 0 0 0 0 0 0 0 0 0 0 0 0 0 0 0 0 0 0 0 0 0 0 0 0 0 0 0 0 0 0 0 0 0 0 0 0 0 0 0 0 0 0 0 0 0 0 0 0 0 0 0 0 0 0
0 0 0 0 0 0 0 0 1121 1137 1155 1143 1127 1172 1168 0 1272 1276 1274 0 1237 1224 1248 0 0 0 0 0 0 0 0 0 0 0 0 0 0 0 0 0 0 0 0 0 0 0 0 0 0 0 0 0 0 0 0 0 0 0 0 0 0 0 0 0 0 0 0 0 0 0 0 0 0 0 0 0 0 0 0 0 0 0 0 0 0 0 0 0 0 0 0 0 0 0 0 0 0 0 0 0 0 0 0 0 0 0 0 0 0 0 0 0 0 0 0 0 0 0 0 0
0 0 0 0 0 0 0 1096 1127 1121 0 0 1188 1152 1207 1158 1275 1260 1284 1243 1287 1249 1300 1219 0 0 0 0 0 0 0 0 0 0 0 0 0 0 0 0 0 0 0 0 0 0 0 0 0 0 0 0 0 0 0 0 0 0 0 0 0 0 0 0 0 0 0 0 0 0 0 0 0 0 0 0 0 0 0 0 0 0 0 0 0 0 0 0 0 0 0 0 0 0 0 0 0 0 0 0 0 0 0 0 0 0 0 0 0 0 0 0 0 0 0 0 0 0 0 0
0 0 0 0 0 0 0 0 0 0 0 0 1207 1228 1238 1273 1276 1296 1306 1260 1283 1285 1266 1245 1272 0 1318 0 0 0 0 1399 0 0 0 0 0 0 0 0 0 0 0 0 0 0 0 0 0 0 0 0 0 0 0 0 0 0 0 0 0 0 0 0 0 0 0 0 0 0 0 0 0 0 0 0 0 0 0 0 0 0 0 0 0 0 0 0 0 0 0 0 0 0 0 0 0 0 0 0 0 0 0 0 0 0 0 0 0 0 0 0 0 0 0 0 0 0 0 0
0 0 0 0 0 0 0 0 0 0 0 0 1246 1288 1291 1297 1300 1308 1280 1279 1282 1231 1282 1271 0 1317 1344 1379 1360 1365 0 1413 0 0 0 0 0 0 0 0 0 0 0 0 0 0 0 0 0 0 0 0 0 0 0 0 0 0 0 0 0 0 0 0 0 0 0 0 0 0 0 0 0 0 0 0 0 0 0 0 0 0 0 0 0 0 0 0 0 0 0 0 0 0 0 0 0 0 0 0 0 0 0 0 0 0 0 0 0 0 0 0 0 0 0 0 0 0 0 0
0 0 0 0 0 0 0 0 0 0 0 0 1270 1289 1277 1276 1289 1282 1278 1252 1290 1295 1267 1261 0 0 1317 1318 1363 1334 1387 1420 0 0 0 0 0 0 0 0 0 0 0 0 0 0 0 0 0 0 0 0 0 0 0 0 0 0 0 0 0 0 0 0 0 0 0 0 0 0 0 0 0 0 0 0 0 0 0 0 0 0 0 0 0 0 0 0 0 0 0 0 0 0 0 0 0 0 0 0 0 0 0 0 0 0 0 0 0 0 0 0 0 0 0 0 0 0 0 0
0 0 0 0 0 0 0 0 0 0 0 0 0 1259 1314 1285 1246 1292 1293 1282 1284 1264 1264 1294 1293 0 0 1316 1354 1351 1392 1421 1453 0 0 0 0 0 0 0 0 0 0 0 0 0 0 0 0 0 0 0 0 0 0 0 0 0 0 0 0 0 0 0 0 0 0 0 0 0 0 0 0 0 0 0 0 0 0 0 0 0 0 0 0 0 0 0 0 0 0 0 0 0 0 0 0 0 0 0 0 0 0 0 0 0 0 0 0 0 0 0 0 0 0 0 0 0 0 0
0 0 0 0 0 0 0 0 0 0 0 0 0 0 0 0 0 0 0 0 0 1281 1285 1242 1247 0 0 1374 1324 1340 1361 1414 1430 0 0 0 0 0 0 0 0 0 0 0 0 0 0 0 0 0 0 0 0 0 0 0 0 0 0 0 0 0 0 0 0 0 0 0 0 0 0 0 0 0 0 0 0 0 0 0 0 0 0 0 0 0 0 0 0 0 0 0 0 0 0 0 0 0 0 0 0 0 0 0 0 0 0 0 0 0 0 0 0 0 0 0 0 0 0 0
0 0 0 0 0 0 0 0 0 0 0 0 0 0 0 0 0 0 0 0 0 0 0 1352 1314 0 0 0 1305 1359 1328 1379 1396 0 0 0 0 0 0 0 0 0 0 0 0 0 0 0 0 0 0 0 0 0 0 0 0 0 0 0 0 0 0 0 0 0 0 0 0 0 0 0 0 0 0 0 0 0 0 0 0 0 0 0 0 0 0 0 0 0 0 0 0 0 0 0 0 0 0 0 0 0 0 0 0 0 0 1694 0 0 0 0 0 0 0 0 0 0 0 0
0 0 0 0 0 0 0 0 0 0 0 0 0 0 0 0 0 0 0 0 0 0 0 1378 1416 1306 1283 0 1340 1364 1349 1390 1425 0 0 0 0 0 0 0 0 0 0 0 0 0 0 0 0 0 0 0 0 0 0 0 0 0 0 0 0 0 0 0 0 0 0 0 0 0 0 0 0 0 0 0 0 0 0 0 0 0 0 0 0 0 0 0 0 0 0 0 0 0 0 0 0 0 0 0 0 0 0 0 0 0 1763 1707 1705 0 0 0 0 0 0 0 0 0 0 0
0 0 0 0 0 0 0 0 0 0 0 0 0 0 0 0 0 0 0 0 0 0 0 1381 1374 1371 1311 1306 1311 1341 1370 1385 1426 0 0 0 0 0 0 0 0 0 0 0 0 0 0 0 0 0 0 0 0 0 0 0 0 0 0 0 0 0 0 0 0 0 0 0 0 0 0 0 0 0 0 0 0 0 0 0 0 0 0 0 0 0 0 0 0 0 0 0 0 0 0 0 0 0 0 0 0 0 0 0 0 1748 1716 1724 1663 0 0 0 0 0 0 0 0 0 0 0
0 0 0 0 0 0 0 0 0 0 0 0 0 0 0 0 0 0 0 0 0 0 0 1372 1374 1387 1373 1330 1320 1331 1360 1413 1442 0 0 0 0 0 0 0 0 0 0 0 0 0 0 0 0 0 0 0 0 0 0 0 0 0 0 0 0 0 0 0 0 0 0 0 0 0 0 0 0 0 0 0 0 0 0 0 0 0 0 0 0 0 0 0 0 0 0 0 0 0 0 0 0 0 0 0 0 0 0 0 0 1721 1718 0 0 0 0 0 0 0 0 0 0 0 0 0
0 0 0 0 0 0 0 0 0 0 0 0 0 0 0 0 0 0 0 0 0 0 0 1367 1379 1398 1370 1381 1362 1343 1350 1411 1444 0 0 0 0 0 0 0 0 0 0 0 0 0 0 0 0 0 0 0 0 0 0 0 0 0 0 0 0 0 0 0 0 0 0 0 0 0 0 0 0 0 0 0 0 0 0 0 0 0 0 0 0 0 0 0 0 0 0 0 0 0 0 0 0 0 0 0 0 0 0 0 0 0 0 1754 1744 0 0 0 0 1701 0 0 0 0 0 0
1245 1283 1257 1282 1289 1294 1300 0 0 0 0 0 0 0 0 0 0 0 0 0 0 0 0 0 1376 1366 1366 1373 1385 1369 1361 1395 1425 0 0 0 0 0 0 0 0 0 0 0 0 0 0 0 0 0 0 0 0 0 0 0 0 0 0 0 0 0 0 0 0 0 0 0 0 0 0 0 0 0 0 0 0 0 0 0 0 0 0 0 0 0 0 0 0 0 0 0 0 0 0 0 0 0 0 0 0 0 0 0 1801 1724 1735 1712 1717 1718 0 0 0 0 0 0 0 0 0 0
1257 1267 1270 1282 1281 1326 1340 1308 1317 1367 1368 0 0 0 0 0 0 0 0 0 0 0 0 1404 1378 1353 1379 1365 1378 1379 1414 1427 1419 0 0 0 0 0 0 0 0 0 0 0 0 0 0 0 0 0 0 0 0 0 0 0 0 0 0 0 0 0 0 0 0 0 0 0 0 0 0 0 0 0 0 0 0 0 0 0 0 0 0 0 0 0 0 0 0 0 0 0 0 0 0 0 0 0 0 0 0 0 0 1776 1762 1760 1744 1767 1753 1695 1725 1699 0 0 0 0 0 0 0 0
1231 1256 1266 1274 1288 1272 1306 1308 1304 1319 1343 1353 1337 1392 1385 1368 0 0 0 0 0 0 0 0 0 1424 0 0 1369 0 0 1418 1420 0 0 0 0 0 0 0 0 0 0 0 0 0 0 0 0 0 0 0 0 0 0 0 0 0 0 0 0 0 0 0 0 0 0 0 0 0 0 0 0 0 0 0 0 0 0 0 0 0 0 0 0 0 0 0 0 0 0 0 0 0 0 0 0 0 0 0 0 0 0 1781 1757 1722 1690 1669 1671 1644 1631 0 0 0 0 0 0 0 0 0
0 0 0 0 1279 1294 1296 1320 1293 1314 1316 1322 1349 1378 1374 1374 1380 1406 1440 1452 1455 0 0 0 0 0 0 0 0 0 0 1425 1423 1413 0 0 0 0 0 0 0 0 0 0 0 0 0 0 0 0 0 0 0 0 0 0 0 0 0 0 0 0 0 0 0 0 0 0 0 0 0 0 0 0 0 0 0 0 0 0 0 0 0 0 0 0 0 0 0 0 0 0 0 0 0 0 0 0 0 0 0 0 1802 1796 1745 1740 1700 1684 1638 1591 1602 0 0 0 0 0 0 0 0 0
0 0 0 0 0 0 0 0 0 1285 1321 1353 1336 1373 1413 1399 1404 1412 1430 1425 1434 1482 0 0 0 0 0 0 0 0 0 1449 1490 1433 0 0 0 0 0 0 0 0 0 0 0 0 0 0 0 0 0 0 0 0 0 0 0 0 0 0 0 0 0 0 0 0 0 0 0 0 0 0 0 0 0 0 0 0 0 0 0 0 0 0 0 0 0 0 0 0 0 0 0 0 0 0 0 0 0 0 0 0 0 1721 1662 1647 1601 1543 1581 1589 1538 1585 1565 1585 1582 0 0 0 0 0
0 0 0 0 0 0 0 0 0 0 0 0 0 0 0 1350 1407 1375 1438 1444 1470 1454 0 0 0 0 0 0 0 0 0 0 1482 0 0 0 0 0 0 0 0 0 0 0 0 0 0 0 0 0 0 0 0 0 0 0 0 0 0 0 0 0 0 0 0 0 0 0 0 0 0 0 0 0 0 0 0 0 0 0 0 0 0 0 0 0 0 0 0 0 0 0 0 0 0 0 0 0 0 0 0 1673 1593 1614 1590 1594 1602 1607 1579 1560 1607 1563 1526 1524 1547 0 0 0 0 0
0 0 0 0 0 0 0 0 0 0 0 0 0 0 0 0 0 0 0 0 0 1461 0 0 0 0 0 0 0 0 0 0 0 0 0 0 0 0 0 0 0 0 0 0 0 0 0 0 0 0 0 0 0 0 0 0 0 0 0 0 0 0 0 0 0 0 0 0 0 0 0 0 0 0 0 0 0 0 0 0 0 0 0 0 0 0 0 0 0 0 0 0 0 0 0 0 0 0 0 0 0 1635 1589 1597 1610 1597 1610 1613 1583 1597 1561 1597 1562 1566 0 0 0 0 0 0
0 0 0 0 0 0 0 0 0 0 0 0 0 0 0 0 0 0 0 0 0 0 0 0 0 0 0 0 0 0 0 0 0 0 0 0 0 0 0 0 0 0 0 0 0 0 0 0 0 0 0 0 0 0 0 0 0 0 0 0 0 0 0 0 0 0 0 0 0 0 0 0 0 0 0 0 0 0 0 0 0 0 0 0 0 0 0 0 0 0 0 0 0 0 0 0 0 0 0 0 0 0 1625 1569 1590 1613 1609 1550 1621 1587 1612 1550 0 0 0 0 0 0 0 0
0 0 0 0 0 0 0 0 0 0 0 0 0 0 0 0 0 0 0 0 0 0 0 0 0 0 0 0 0 0 0 0 0 0 0 0 0 0 0 0 0 0 0 0 0 0 0 0 0 0 0 0 0 0 0 0 0 0 0 0 0 0 0 0 0 0 0 0 0 0 0 0 0 0 0 0 0 0 0 0 0 0 0 0 0 0 0 0 0 0 0 0 0 0 0 0 0 0 0 0 0 0 0 0 0 0 1615 1560 0 0 0 0 0 0 0 0 0 0 0 0
0 0 0 0 0 0 0 0 0 0 0 0 0 0 0 0 0 0 0 0 0 0 0 0 0 0 0 0 0 0 0 0 0 0 0 0 0 0 0 0 0 0 0 0 0 0 0 0 0 0 0 0 0 0 0 0 0 0 0 0 0 0 0 0 0 0 0 0 0 0 0 0 0 0 0 0 0 0 0 0 0 0 0 0 0 0 0 0 0 0 0 0 0 0 0 0 0 0 0 0 0 0 0 0 0 0 0 0 0 0 0 0 0 0 0 0 0 0 0 0
579 536 0 0 0 0 0 0 0 0 0 0 0 0 0 0 0 0 0 0 0 0 0 0 0 1844 1852 0 0 0 0 0 0 0 0 0 0 0 0 0 0 0 0 0 0 0 0 2890 2906 2914 2901 2888 2909 2927 2932 2913 2906 2873 2898 2943 2909 2952 2915 2864 2904 2904 0 0 0 0 0 0 0 0 0 0 0 0 0 0 0 0 0 0 0 0 0 0 0 0 0 0 0 0 0 0 1683 0 0 0 0 0 0 0 0 0 0 0 0 0 0 0 0 0 0 0 0 0 0 0
573 586 592 582 617 636 0 0 0 0 0 0 0 0 0 0 0 0 0 0 0 0 0 0 0 0 0 1905 1929 0 0 0 0 0 0 0 0 0 0 0 0 0 0 0 0 0 0 2878 2903 2927 2907 2921 2922 2890 2913 2892 2862 2846 2914 2878 2900 2930 2880 2906 2909 2881 0 0 0 0 0 0 0 0 0 0 0 0 0 0 0 0 0 0 0 0 0 0 0 0 0 0 0 0 0 0 0 0 0 0 0 0 0 0 0 0 0 0 0 0 0 0 0 0 0 0 0 0 0 0
583 579 584 599 607 626 620 659 695 0 0 0 0 0 0 0 0 0 0 0 0 0 0 0 0 0 0 0 0 0 0 0 0 0 0 0 0 0 0 0 0 0 0 0 0 0 0 2942 2931 2919 2903 2942 2941 2917 2916 2949 2898 2889 2923 2908 2920 2938 2949 2926 2895 0 0 0 0 0 0 0 0 0 0 0 0 0 0 0 0 0 0 0 0 0 0 0 0 0 0 0 0 0 0 0 0 0 0 0 0 0 0 0 0 0 0 0 0 0 0 0 0 0 0 0 0 0 0 0
595 583 598 594 613 613 623 659 662 647 674 684 0 0 0 0 0 0 0 0 0 0 0 0 0 0 0 0 0 0 0 0 0 0 0 0 0 0 0 0 0 0 0 0 0 0 0 2916 2884 2930 2902 2906 2928 2911 2930 2875 2878 2921 2907 2881 2921 2913 2905 2916 2911 0 0 0 0 0 0 0 0 0 0 0 0 0 0 0 0 0 0 0 0 0 0 0 0 0 0 0 0 0 0 0 0 0 0 0 0 0 0 0 0 0 0 0 0 0 0 0 0 0 0 0 0 0 0 0
646 607 615 637 616 622 625 614 661 667 679 704 715 747 726 0 0 0 0 0 0 0 0 0 0 0 0 0 0 0 0 0 0 0 0 0 0 0 0 0 0 0 0 0 0 0 0 2941 2884 2925 2911 2937 2950 2865 2961 2913 2938 2909 2907 2857 2877 2879 2905 2851 2918 2832 0 0 0 0 0 0 0 0 0 0 0 0 0 0 0 0 0 0 0 0 0 0 0 0 0 0 0 0 0 0 0 0 0 0 0 0 0 0 0 0 0 0 0 0 1761 0 0 0 0 0 0 0 0 0
758 793 784 751 731 664 665 672 659 674 685 701 712 724 724 754 793 790 0 0 0 0 0 0 0 0 0 0 0 0 0 0 0 0 0 0 0 0 0 0 0 0 0 0 0 0 0 2893 2894 2927 2861 2931 2929 2915 2928 2952 2887 2888 2932 2930 2907 2976 2911 2861 2917 2926 0 0 0 0 0 0 0 0 0 0 0 0 0 0 0 0 0 0 0 0 0 0 0 0 0 0 0 0 0 0 0 0 0 0 0 0 0 0 0 0 0 0 0 0 0 0 0 0 0 0 0 0 0 0
790 801 808 815 812 834 831 867 836 786 753 743 747 752 733 755 753 738 792 817 831 0 0 0 0 0 0 0 0 0 0 0 0 0 0 0 0 0 0 0 0 0 0 0 0 0 0 2941 2882 2922 2935 2853 2888 2944 2900 2903 2898 2929 2906 2879 2944 2935 2852 2847 2917 2905 0 0 0 0 0 0 0 0 0 0 0 0 0 0 0 0 0 0 0 0 0 0 0 0 0 0 0 0 0 0 0 0 0 0 0 0 0 0 0 0 0 0 0 0 0 0 0 0 0 0 0 0 0 0
747 811 827 812 841 883 882 905 891 908 908 931 933 908 870 799 794 797 801 814 832 847 868 904 0 0 0 0 0 0 0 0 0 0 0 0 0 0 0 0 0 0 0 0 0 0 0 2919 2937 2886 2897 2927 2899 2908 2919 2901 2885 2861 2903 2941 2874 2824 2867 2913 2897 2891 0 0 0 0 0 0 0 0 0 0 0 0 0 0 0 0 0 0 0 0 0 0 0 0 0 0 0 0 0 0 0 0 0 0 0 0 0 0 0 0 0 0 0 0 0 0 0 0 0 0 0 0 0 0
631 0 850 847 821 861 871 891 917 912 942 937 948 959 945 953 950 914 892 888 832 843 882 886 903 933 0 0 0 0 0 0 0 0 0 0 0 0 0 0 0 0 0 0 0 0 0 2922 2924 2927 2905 2967 2922 2876 2903 2922 2870 2888 2883 2897 2860 2875 2887 2906 2855 2893 0 0 0 0 0 0 0 0 0 0 0 0 0 0 0 0 0 0 0 0 0 0 0 0 0 0 0 0 0 0 0 0 0 0 0 0 0 0 0 0 0 0 0 0 0 0 0 0 0 0 0 0 0 0
666 906 943 944 929 913 924 894 907 917 943 930 945 953 956 939 946 951 962 946 937 937 897 892 903 908 931 986 1009 0 0 0 0 0 0 0 0 0 0 0 0 0 0 0 0 0 0 2929 2952 2976 2976 2969 2958 2949 2937 2902 2927 2903 2904 2865 2881 2892 2880 2917 2947 0 0 0 0 0 0 0 0 0 0 0 0 0 0 0 0 0 0 0 0 0 0 0 0 0 0 0 0 0 0 0 0 0 0 0 0 0 0 0 0 0 0 0 0 0 0 0 0 0 0 0 0 0 0 0
592 722 0 0 0 0 0 0 0 983 972 963 971 992 950 954 973 951 948 944 927 937 954 951 967 984 968 1010 997 1041 1074 0 0 0 0 0 0 0 0 0 0 0 0 0 0 0 0 2922 2934 2928 2923 2965 2891 2909 2914 2909 2876 2891 2878 2889 2911 2945 2949 2889 2908 2844 0 0 0 0 0 0 0 0 0 0 0 0 0 0 0 0 0 0 0 0 0 0 0 0 0 0 0 0 0 0 0 0 0 0 0 0 0 0 0 0 0 0 0 0 0 0 0 0 0 0 0 0 0 0
580 606 591 0 1124 1139 1153 1134 1136 1139 1141 1131 1144 1136 1135 1149 1117 1020 0 991 1015 1055 1066 964 977 1019 1145 1109 1102 1067 1070 0 0 0 0 0 0 0 0 0 0 0 0 0 0 0 0 2895 2940 2937 2899 2958 2920 2905 2955 2886 2919 2909 2905 2871 2930 2931 2878 2892 2896 2858 0 0 0 0 0 0 0 0 0 0 0 0 0 0 0 0 0 0 0 0 0 0 0 0 0 0 0 0 0 0 0 0 0 0 0 0 0 0 0 0 0 0 0 0 0 0 0 0 0 0 0 0 0 0
614 582 599 642 0 0 0 0 0 0 0 0 0 0 0 0 1405 1027 956 0 0 1134 1108 0 0 1118 1151 1179 1141 1150 1143 0 0 0 0 0 0 0 0 0 0 0 0 0 0 0 0 2881 2876 2883 2915 2934 2907 2910 2933 2907 2843 2856 2894 2905 2885 2921 2874 2848 2914 2930 0 0 0 0 0 0 0 0 0 0 0 0 0 0 0 0 0 0 0 0 0 0 0 0 0 0 0 0 0 0 0 0 0 0 0 0 0 0 0 0 0 0 0 0 0 0 0 0 0 0 0 0 0 0
634 615 603 612 647 0 0 0 0 0 0 0 0 0 0 0 0 1011 1040 0 0 0 0 0 0 0 0 0 0 0 0 0 0 0 0 0 0 0 0 0 0 0 0 0 0 0 0 2926 2920 2885 2914 2859 2870 2964 2889 2908 2867 2935 2937 2911 2875 2922 2896 2917 2888 2869 0 0 0 0 0 0 0 0 0 0 0 0 0 0 0 0 0 0 0 0 0 0 0 0 0 0 0 0 0 0 0 0 0 0 0 0 0 0 0 0 0 0 0 0 0 0 0 0 0 0 0 0 0 0
594 584 603 595 628 664 0 0 0 0 0 0 0 0 0 0 0 0 0 0 0 0 0 0 0 0 0 0 0 0 0 0 0 0 0 0 0 0 0 0 0 0 0 0 0 0 0 2928 2898 2911 2920 2879 2885 2927 2867 2930 2908 2906 2894 2920 2915 2887 2879 2883 2914 0 0 0 0 0 0 0 0 0 0 0 0 0 0 0 0 0 0 0 0 0 0 0 0 0 0 0 0 0 0 0 0 0 0 0 0 0 0 0 0 0 0 0 0 0 0 0 0 0 0 0 0 0 0 0
602 611 639 644 595 647 0 0 0 0 0 0 0 0 0 0 0 0 0 0 0 0 0 0 0 0 0 0 0 0 0 0 0 0 0 0 0 0 0 0 0 0 0 0 0 0 0 2904 2882 2929 2879 2883 2893 2863 2891 2877 2866 2915 2911 2909 2871 2937 2868 2842 2874 2888 0 0 0 0 0 0 0 0 0 0 0 0 0 0 0 0 0 0 0 0 0 0 0 0 0 0 0 0 0 0 0 0 0 0 0 0 0 0 0 0 0 0 0 0 0 0 0 0 0 0 0 0 0 0
595 610 597 606 590 616 624 0 0 0 0 0 0 0 0 0 0 0 0 0 0 0 0 0 0 0 0 0 0 0 0 0 0 0 0 0 0 0 0 0 0 0 0 0 0 0 0 2880 2974 2952 2900 2938 2900 2919 2884 2887 2903 2916 2927 2922 2880 2914 2905 2889 2910 0 0 0 0 0 0 0 0 0 0 0 0 0 0 0 0 0 0 0 0 0 0 0 0 0 0 0 0 0 0 0 0 0 0 0 0 0 0 0 0 0 0 0 0 0 0 0 0 0 0 0 0 0 0 0
578 604 611 582 609 612 561 0 0 0 0 0 0 0 0 0 0 0 0 0 0 0 0 0 0 0 0 0 0 0 0 0 0 0 0 0 0 0 0 0 0 0 0 0 0 0 0 2887 2914 2858 2897 2910 2909 2888 2905 2874 2870 2910 2879 2843 2906 2880 2871 2895 2876 0 0 0 0 0 0 0 0 0 0 0 0 0 0 0 0 0 0 0 0 0 0 0 0 0 0 0 0 0 0 0 0 0 0 0 0 0 0 0 0 0 0 0 0 0 0 0 0 0 0 0 0 0 0 0
591 603 582 579 592 618 621 0 0 0 0 0 0 0 0 0 2300 0 0 0 0 0 930 983 0 0 0 0 0 0 0 0 0 0 0 0 0 0 0 0 0 0 0 0 0 0 0 2896 2916 2938 2916 2898 2889 2929 2951 2930 2930 2936 2883 2880 2922 2859 2897 2902 2833 2878 0 0 0 0 0 0 0 0 0 0 0 0 0 0 0 0 0 0 0 0 0 0 0 0 0 0 0 0 0 0 0 0 0 0 0 0 0 0 0 0 0 0 0 0 0 0 0 0 0 0 0 0 0 0
578 583 593 581 596 609 621 0 0 0 0 0 0 0 0 0 0 0 0 0 0 0 0 0 0 0 0 0 0 0 0 0 0 0 0 0 0 0 0 0 0 0 0 0 0 0 0 2894 2912 2899 2940 2882 2936 2973 2885 2884 2915 2843 2900 2896 2885 2876 2912 2895 2864 2903 0 0 0 0 0 0 0 0 0 0 0 0 0 0 0 0 0 0 0 0 0 0 0 0 0 0 0 0 0 0 0 0 0 0 0 0 0 0 0 0 0 0 0 0 0 0 0 0 0 0 0 0 0 0
577 590 602 619 596 595 0 0 0 0 0 0 0 0 0 0 0 0 0 0 0 0 0 0 0 0 0 0 0 0 0 0 0 0 0 0 0 0 0 0 0 0 0 0 0 0 0 0 0 0 0 0 0 0 0 0 0 0 0 0 0 2936 2994 2874 2903 0 0 0 0 0 0 0 0 0 0 0 0 0 0 0 0 0 0 0 0 0 0 0 0 0 0 0 0 0 0 0 0 0 0 0 0 0 0 0 0 0 0 0 0 0 0 0 0 0 0 0 0 0 0 0
587 603 622 620 607 582 0 0 0 0 0 0 0 0 0 0 0 0 0 0 0 0 0 0 0 0 0 0 0 0 0 0 0 0 0 0 0 0 0 0 0 0 0 0 0 0 0 0 0 0 0 0 0 0 0 0 0 0 0 0 0 0 0 0 0 0 0 0 0 0 0 0 0 0 0 0 0 0 0 0 0 0 0 0 0 0 0 0 0 0 0 0 0 0 0 0 0 0 0 0 0 0 0 0 0 0 0 0 0 0 0 0 0 0 0 0 0 0 0 0
590 579 622 609 606 654 0 0 0 0 0 0 0 0 0 0 0 0 0 0 0 0 0 0 0 0 0 0 0 0 0 0 0 0 0 0 0 0 0 0 0 0 0 0 0 0 0 0 0 0 0 0 0 0 0 0 0 0 0 0 0 0 0 0 0 0 0 0 0 0 0 0 0 0 0 0 0 0 0 0 0 0 0 0 0 0 0 0 0 0 0 0 0 0 0 0 0 0 0 0 0 0 0 0 0 0 0 0 0 0 0 0 0 0 0 0 0 0 0 0
625 570 590 585 553 0 0 0 0 0 0 0 0 0 0 0 0 0 0 0 0 0 0 0 0 0 0 0 0 0 0 0 0 0 0 0 0 0 0 0 0 0 0 0 0 0 0 0 0 0 0 0 0 0 0 0 0 0 0 0 0 0 0 0 0 0 0 0 0 0 0 0 0 0 0 0 0 0 0 0 0 0 0 0 0 0 0 0 0 0 0 0 0 0 0 0 0 0 0 0 0 0 0 0 0 0 0 0 0 0 0 0 0 0 0 0 0 0 0 0
593 573 614 616 0 0 0 0 0 0 0 0 0 0 0 0 0 0 0 0 0 0 0 0 0 0 899 886 924 900 923 883 0 913 901 924 918 915 913 961 876 917 0 0 0 0 0 0 0 0 0 0 0 0 0 0 0 0 0 0 0 0 0 0 0 0 0 0 0 0 0 0 0 0 0 0 0 0 0 0 0 0 0 0 0 0 0 0 0 0 0 0 0 0 0 0 0 0 0 0 0 0 0 0 0 0 0 0 0 0 0 0 0 0 0 0 0 0 0 0
617 614 597 0 0 673 0 700 676 733 714 672 715 670 708 690 709 651 722 710 684 742 706 689 736 765 684 672 725 715 715 714 752 725 753 754 708 709 732 747 754 736 750 735 761 810 726 767 735 757 741 755 766 770 790 767 745 741 762 754 782 758 726 816 822 808 754 827 735 733 781 836 788 0 764 0 0 0 0 0 0 0 0 0 0 0 0 0 0 0 0 0 0 0 0 0 0 0 0 0 0 0 0 0 0 0 0 0 0 0 0 0 0 0 0 0 0 0 0 0
532 591 572 531 526 576 590 563 568 575 579 605 596 589 584 586 596 581 624 595 564 591 594 582 591 600 573 581 613 586 575 612 602 598 543 603 576 641 595 614 624 634 602 598 631 583 632 633 642 633 611 650 614 632 655 634 643 649 635 627 648 619 610 633 646 620 661 638 628 630 641 677 640 658 682 698 715 662 672 702 660 679 626 681 666 666 695 631 649 699 660 705 672 690 710 0 678 698 710 0 679 720 0 0 0 0 0 0 0 0 0 0 0 0 0 0 0 0 0 0
506 484 483 472 533 516 512 482 512 497 510 515 496 503 505 514 467 495 509 505 498 503 505 523 493 514 511 511 531 532 500 510 522 507 537 518 507 505 519 532 523 536 511 527 490 512 535 516 519 529 523 524 537 546 529 526 530 524 525 553 532 536 559 532 552 544 546 560 535 551 505 544 557 576 539 540 566 538 550 551 544 557 558 536 554 568 566 524 555 547 581 578 553 567 585 554 576 601 618 564 609 600 610 609 0 607 0 620 619 583 0 0 0 0 0 0 0 0 0 0
425 412 429 429 438 441 431 451 440 443 430 441 466 448 451 447 453 446 445 462 468 448 462 453 448 460 444 442 443 457 466 445 470 457 452 470 463 462 475 464 465 471 471 475 484 477 465 466 477 472 472 474 482 465 489 487 484 492 485 488 476 472 490 487 489 467 511 481 474 487 485 491 506 483 479 486 467 490 490 497 477 490 486 488 480 485 481 515 534 484 474 505 507 501 492 472 537 487 491 509 493 475 518 499 504 470 522 535 507 527 553 548 0 0 0 0 0 0 0 0
392 415 397 397 391 395 393 412 387 397 413 392 402 416 402 412 410 397 400 407 406 412 411 406 417 413 408 406 403 405 393 416 410 420 427 416 429 417 413 416 416 420 432 429 427 417 424 417 427 421 431 439 418 428 428 430 429 429 432 427 431 433 426 427 421 423 418 427 431 429 456 426 441 428 438 430 437 440 443 429 452 428 434 429 431 435 438 443 431 429 448 462 448 429 440 438 431 435 434 457 431 443 447 453 458 457 445 451 452 438 455 428 429 450 0 0 0 0 0 0
367 354 351 354 357 371 373 356 362 362 375 349 366 376 364 374 379 361 371 366 373 369 367 372 367 367 368 379 376 374 380 370 368 374 373 376 372 377 373 366 371 376 371 370 379 369 386 369 382 382 371 386 387 367 376 377 377 372 378 381 388 384 388 382 384 390 395 394 394 390 395 388 387 395 385 401 403 379 410 405 380 388 404 382 396 389 391 389 391 401 393 402 388 394 398 398 408 399 400 406 398 399 414 400 409 395 386 394 390 391 374 399 403 408 398 395 0 0 0 0
318 320 352 319 331 304 340 345 337 333 345 330 343 349 331 350 343 343 344 340 342 345 335 357 353 341 345 339 325 348 332 342 342 337 340 356 352 345 325 344 339 351 343 351 334 332 341 357 353 347 351 335 338 336 339 333 361 347 344 348 356 352 343 346 350 350 346 345 340 351 359 355 351 358 353 344 347 356 363 350 341 365 348 358 343 356 358 338 354 358 343 347 353 366 348 349 353 354 373 355 347 363 364 378 346 365 359 373 360 358 363 362 329 352 385 349 389 0 0 0
292 288 298 287 303 303 304 299 302 312 310 290 298 305 303 288 313 295 302 305 304 307 303 306 293 300 302 301 294 310 312 311 297 316 315 312 304 315 313 305 305 313 317 306 308 311 316 315 318 307 317 313 318 315 318 318 318 317 313 316 315 309 317 315 313 311 318 315 317 319 311 327 317 317 309 331 313 312 322 313 321 323 318 330 319 336 307 317 325 320 330 322 322 331 324 330 320 330 316 334 330 314 335 328 310 322 308 362 334 337 329 338 341 329 335 327 345 342 358 0
277 279 272 272 284 273 284 275 277 292 275 272 282 278 282 284 276 278 271 287 281 274 276 285 279 273 280 269 287 277 276 283 280 283 283 285 283 280 284 291 289 282 284 288 283 289 290 286 280 287 292 293 293 283 291 289 285 293 283 288 286 284 282 289 289 290 286 289 289 289 285 298 295 288 295 295 298 285 293 295 290 287 284 288 297 294 293 296 298 304 293 289 297 302 304 288 292 291 298 295 292 300 304 308 287 299 292 310 311 304 289 299 306 312 293 309 307 288 257 280
253 248 256 262 261 258 256 252 256 251 246 255 255 257 263 259 260 260 258 252 257 262 258 255 260 256 258 267 253 259 259 257 266 265 265 260 265 268 270 262 265 259 260 261 256 265 258 267 267 270 264 265 268 273 271 261 268 266 261 272 255 269 268 266 274 266 263 264 266 267 268 269 266 263 265 272 267 262 268 260 261 263 254 275 271 272 268 269 273 265 269 266 272 264 266 267 271 278 275 284 275 264 268 281 273 287 272 281 295 272 255 283 269 253 287 282 252 285 293 263
238 229 234 242 242 236 242 227 234 235 229 240 234 252 243 241 244 239 246 245 234 245 246 246 246 239 245 247 239 246 247 246 250 237 247 258 240 255 251 243 248 252 245 245 255 250 252 249 245 251 250 251 251 249 249 249 244 250 252 244 257 247 252 253 250 251 249 252 248 250 243 243 252 253 256 256 252 254 246 249 253 249 247 245 257 253 249 248 249 257 246 248 251 252 253 254 249 253 253 251 256 248 253 256 256 248 252 261 255 254 259 252 266 261 251 248 262 264 270 254
213 219 222 219 219 223 222 220 219 220 222 220 227 227 222 222 223 226 225 226 229 222 230 226 229 231 229 230 224 230 234 230 228 224 225 228 229 224 230 228 232 234 229 229 237 228 229 242 235 233 237 229 229 235 232 232 231 229 240 232 231 237 239 232 235 236 235 236 234 232 236 233 235 230 232 239 228 238 236 234 231 225 234 233 237 233 239 237 233 228 227 234 234 232 233 232 230 233 235 242 240 234 238 237 235 242 235 239 238 240 237 249 239 227 236 227 249 213 201 231
203 208 217 225 218 205 209 209 205 214 211 210 216 224 210 210 215 214 208 213 212 207 215 210 210 219 212 215 209 214 221 216 214 212 218 212 216 218 196 217 224 223 217 198 216 224 222 220 222 222 216 232 225 201 222 221 226 226 223 223 220 218 226 233 222 217 225 218 225 223 226 227 204 219 218 224 225 215 217 220 218 231 225 231 225 223 227 221 217 216 227 226 222 217 219 218 226 229 231 232 226 219 227 224 229 228 221 230 230 231 227 222 235 225 223 234 216 231 227 227
195 182 196 200 208 200 206 188 187 196 185 185 180 193 190 202 193 189 195 206 191 191 193 194 188 190 190 190 190 197 190 197 194 190 198 211 187 190 187 196 193 189 186 196 199 194 198 190 196 200 198 197 190 199 201 197 200 201 194 203 203 201 201 201 191 195 199 190 196 195 191 197 194 194 195 193 197 190 192 199 195 192 197 197 213 203 196 188 198 213 208 199 207 211 209 188 187 209 214 208 210 208 212 191 208 224 209 211 209 213 208 201 204 214 206 198 208 207 175 172
181 182 189 177 192 178 184 185 179 187 184 178 177 177 184 181 183 180 179 185 185 186 181 188 192 183 192 194 186 183 192 189 184 191 185 190 193 189 192 195 196 195 198 191 200 195 195 197 198 197 195 196 194 198 197 197 200 200 196 198 198 199 202 201 191 194 195 199 190 198 196 193 195 196 195 191 199 198 189 195 194 188 188 186 186 188 192 192 188 183 181 183 184 181 191 182 191 182 188 184 190 189 186 202 184 185 188 187 203 204 205 199 189 195 186 202 183 172 166 186
175 177 178 171 177 174 179 184 173 177 180 182 177 183 176 184 182 188 182 189 185 181 181 189 182 186 189 190 191 184 179 182 187 184 183 180 183 184 188 180 192 182 195 186 194 189 189 189 190 189 191 190 192 184 187 193 190 194 187 197 188 193 190 192 189 188 191 188 193 184 192 190 187 188 185 189 192 189 185 191 190 191 188 187 189 191 188 185 189 194 188 194 188 183 190 191 187 190 187 189 185 176 186 186 177 177 181 177 185 174 178 173 188 182 180 180 177 185 179 169
169 169 159 168 168 169 168 176 169 174 172 178 173 172 177 177 176 175 175 179 179 176 172 169 172 171 176 174 175 180 183 174 178 170 182 173 179 179 178 171 176 180 181 180 179 184 177 182 181 184 181 186 173 183 179 181 179 179 174 174 182 177 182 182 176 180 179 183 180 176 183 178 177 185 178 175 180 185 182 181 182 182 181 174 175 178 184 179 182 183 176 174 178 174 173 175 182 183 181 179 181 178 180 178 175 181 179 173 170 175 171 174 177 168 174 168 175 176 174 168
161 165 164 168 158 162 161 163 165 169 170 169 162 169 166 169 169 170 174 171 173 163 170 165 166 162 173 170 166 173 173 172 167 165 167 166 171 169 173 164 170 172 170 172 175 176 168 172 174 170 174 173 173 175 170 170 170 181 172 172 172 176 177 172 174 169 173 168 177 176 172 173 174 171 168 174 173 178 173 175 170 173 167 171 167 172 176 171 178 166 170 173 169 170 171 161 174 173 171 177 171 176 174 173 181 176 180 166 168 171 169 170 173 180 173 177 172 172 163 173
159 161 161 166 166 163 163 158 157 163 162 157 160 158 163 165 161 163 166 165 159 165 167 164 160 162 162 160 161 161 164 167 164 166 159 162 164 158 160 160 164 166 163 165 165 167 163 162 163 168 164 168 167 163 164 167 165 165 165 168 161 164 168 166 169 168 165 167 170 164 159 161 168 163 164 169 168 167 167 170 164 160 166 163 165 166 165 160 167 167 160 166 166 157 165 167 161 164 169 168 164 165 160 175 160 168 171 165 163 159 168 174 169 161 170 159 156 153 165 154
139 144 151 147 150 151 150 148 155 155 146 153 149 148 154 152 155 162 160 160 153 156 163 155 157 153 153 159 157 158 157 154 153 158 153 158 152 157 153 164 152 153 159 161 157 151 156 153 152 160 157 161 158 160 158 155 159 159 159 165 161 158 161 164 158 163 160 157 158 157 155 158 161 162 156 162 167 154 160 155 158 161 159 153 159 157 157 162 162 156 156 158 156 155 157 159 157 158 154 159 153 154 157 156 163 154 153 151 156 155 155 160 151 153 164 145 160 164 161 158
137 142 146 138 148 152 142 148 148 145 151 148 150 145 146 143 147 151 147 154 145 150 157 152 151 154 154 154 149 145 155 148 150 148 150 148 149 151 149 152 154 153 150 153 147 150 146 151 152 155 151 151 150 150 154 148 150 152 155 155 154 150 153 155 147 149 146 155 152 151 150 153 152 158 151 152 158 161 157 153 150 151 147 147 147 152 151 151 151 152 150 153 158 149 157 151 145 148 159 156 153 156 154 155 153 149 147 150 146 142 159 149 156 140 156 144 155 155 148 131
136 135 139 138 139 135 138 143 140 138 141 143 143 143 142 140 145 138 143 149 146 143 146 153 145 142 147 141 143 146 142 131 144 140 143 140 145 141 147 146 144 142 147 145 147 147 141 140 135 142 144 145 143 148 143 144 148 155 146 146 145 146 146 146 150 146 150 148 146 146 146 147 148 143 147 149 148 152 151 146 145 148 146 143 145 140 148 145 153 149 149 151 142 145 150 147 145 144 149 156 148 152 147 146 146 143 142 141 143 150 143 149 141 138 140 152 135 154 135 135
128 135 132 132 135 142 138 141 139 139 136 0 133 143 134 136 141 141 139 137 145 144 143 136 140 142 146 140 138 138 142 138 143 140 140 140 140 128 140 129 141 146 146 143 140 142 130 132 139 130 133 143 135 142 136 145 144 143 135 143 135 134 141 146 145 128 131 140 143 139 131 143 141 142 141 146 146 144 143 143 146 142 139 130 140 145 143 138 140 144 138 146 144 147 139 140 143 143 144 142 140 143 140 144 139 141 137 141 141 136 139 134 139 132 129 145 149 128 143 130
132 129 125 131 134 135 140 133 134 135 135 134 143 139 139 134 128 139 136 126 140 142 142 139 142 138 140 137 140 125 135 128 139 127 129 136 127 130 125 129 140 141 140 129 0 139 129 126 128 124 130 139 132 133 0 134 0 132 128 129 133 127 141 133 129 126 143 126 142 130 126 126 139 138 131 139 132 128 130 130 127 143 128 138 127 125 137 126 130 141 135 141 140 141 136 128 142 143 141 140 135 136 135 136 137 133 130 133 134 133 140 135 127 141 137 139 129 152 149 148
125 107 113 107 127 126 137 132 115 117 121 117 117 124 126 127 124 132 121 124 121 126 125 136 123 129 136 140 0 131 127 125 118 126 121 117 132 125 126 120 125 130 126 131 0 0 131 128 131 123 124 124 131 130 127 129 131 130 126 118 129 126 127 124 126 128 131 126 123 130 126 124 127 128 120 120 120 131 122 125 125 123 129 125 120 124 122 128 128 126 123 128 134 125 123 120 126 138 136 132 120 119 119 126 117 117 116 118 121 130 127 132 133 139 128 114 135 126 123 121
107 116 112 123 109 117 127 119 118 119 119 114 120 121 119 112 115 130 120 115 133 122 127 120 125 121 131 126 126 122 138 0 126 126 119 117 119 119 0 117 128 127 0 0 0 0 125 126 126 119 128 124 125 125 124 126 120 123 121 121 122 121 114 124 123 126 129 126 118 122 122 120 128 119 118 118 118 125 126 126 118 119 122 123 118 117 123 123 128 126 120 120 118 124 120 121 126 123 117 121 121 118 122 118 111 118 114 115 117 134 128 129 119 134 123 120 126 130 125 120
108 103 114 115 113 109 116 127 118 108 123 116 112 107 112 109 116 115 109 123 116 113 113 118 120 115 120 115 115 122 123 0 120 121 117 113 117 0 117 115 122 0 0 118 124 0 120 117 111 115 114 117 119 122 121 120 121 118 116 118 123 120 125 118 121 123 119 122 121 115 117 122 115 120 118 110 119 115 117 121 114 116 117 117 117 113 117 116 112 118 118 120 116 111 107 119 121 123 110 121 118 121 117 114 116 113 115 123 125 122 112 126 116 133 122 135 117 115 91 132
95 100 104 102 98 108 113 110 105 112 109 108 104 110 120 116 111 113 104 102 116 114 114 102 106 113 116 116 115 117 119 116 111 114 114 111 108 114 0 114 116 112 114 109 108 117 118 0 114 0 115 111 119 116 0 0 111 113 116 114 119 117 106 109 110 115 112 111 120 107 118 107 112 102 106 113 107 111 102 111 109 106 104 111 108 114 109 110 108 112 109 116 99 112 116 118 111 111 114 109 106 112 109 112 106 106 102 113 108 116 99 112 109 116 93 102 114 106 98 105
105 101 107 110 106 106 112 111 110 110 105 111 111 109 116 116 107 111 115 100 103 104 99 100 118 109 109 112 105 114 111 108 107 108 115 115 114 0 106 106 110 106 108 98 107 110 108 109 115 0 111 113 113 114 108 114 109 108 111 109 109 111 117 0 113 112 109 114 111 112 96 103 107 114 102 102 99 103 101 109 109 103 104 110 101 103 102 110 104 98 100 105 101 101 96 109 106 104 110 102 102 115 105 113 112 100 107 107 90 109 106 102 123 98 111 111 105 98 120 134
96 93 108 107 98 92 99 97 97 93 104 100 101 102 105 102 97 102 101 103 102 101 101 101 105 100 103 98 98 109 106 106 105 102 107 102 108 107 101 106 106 103 99 99 98 102 107 101 106 102 104 105 104 106 107 105 102 102 107 101 105 107 103 0 108 106 0 111 107 107 104 104 100 109 104 106 100 105 0 106 0 102 95 98 98 103 98 97 98 99 104 102 97 93 99 97 99 100 101 96 103 99 101 101 104 100 105 100 90 84 91 101 93 107 101 94 96 109 102 149
95 98 82 94 95 102 97 93 98 95 104 98 99 103 102 99 96 98 110 96 100 93 92 90 101 93 103 98 103 103 108 104 105 102 100 103 101 101 100 96 104 101 101 98 97 102 107 105 102 105 109 98 100 104 96 99 102 108 103 101 105 99 107 102 111 105 108 108 108 99 103 103 103 104 99 96 101 99 99 96 0 107 96 92 100 100 99 109 96 100 104 96 96 99 95 103 93 93 87 107 106 90 97 88 99 103 101 97 94 106 85 91 107 85 89 115 111 88 101 133
89 97 90 98 93 92 91 84 85 91 94 91 94 92 90 92 95 92 109 100 103 94 81 97 91 92 100 98 93 105 100 101 101 100 92 102 96 99 97 105 95 99 93 95 103 95 102 101 96 100 101 95 84 92 95 100 94 92 98 96 91 100 104 0 98 100 99 94 98 98 102 96 103 97 89 102 98 101 104 104 97 100 89 108 94 101 94 92 94 97 93 99 97 94 89 89 94 83 102 91 88 100 102 94 97 98 100 88 92 93 94 90 102 87 90 94 105 98 94 87
87 79 78 89 89 85 90 90 87 79 86 90 96 87 88 81 86 86 86 80 92 93 92 90 92 94 94 87 90 95 88 87 98 98 90 92 90 93 90 94 86 85 96 98 89 86 89 90 91 97 99 95 99 95 97 92 98 96 85 87 91 92 90 88 94 89 98 89 93 97 88 94 89 91 85 93 94 89 87 94 91 92 91 93 92 84 92 89 93 96 93 90 96 93 90 91 90 90 90 89 82 88 86 80 83 79 82 86 89 88 87 84 89 89 87 87 82 86 84 81
95 79 84 83 91 89 94 102 84 91 86 94 89 88 87 90 84 92 95 89 82 93 94 87 90 88 95 92 89 87 91 94 95 90 102 97 94 91 92 96 89 94 87 92 96 97 92 97 88 96 98 98 99 99 95 96 95 91 91 98 92 93 93 89 96 95 87 90 85 96 89 91 94 92 98 92 94 100 84 87 101 89 93 94 96 91 94 96 92 89 97 101 99 89 91 94 90 82 88 98 89 97 91 99 84 93 91 78 88 87 88 84 86 101 98 98 85 87 0 0
86 90 88 87 94 90 87 90 86 0 85 91 91 89 83 79 89 94 86 89 92 84 88 102 81 90 95 94 90 95 89 94 92 95 93 90 92 90 91 96 86 88 98 86 87 93 88 97 88 97 90 98 93 95 94 89 96 96 96 93 96 96 95 98 93 90 96 93 94 96 97 97 98 93 93 90 88 91 90 97 94 92 90 93 90 86 82 93 105 93 92 96 102 91 86 87 91 84 88 84 85 91 84 92 86 84 92 88 93 85 86 82 84 83 73 86 87 118 95 0
76 82 75 86 85 85 92 86 86 78 83 86 87 89 87 90 85 85 86 83 86 91 91 86 87 86 94 87 94 87 88 88 90 87 91 91 95 89 91 90 90 84 93 95 87 87 95 97 91 95 96 96 95 85 95 86 93 93 93 96 92 94 90 90 91 92 90 90 85 95 87 87 93 93 90 85 87 85 96 95 89 89 93 91 93 91 94 90 93 85 94 91 88 89 86 82 88 88 85 88 80 86 91 90 87 85 94 83 75 85 82 98 86 95 81 81 79 58 0 0
84 77 81 83 85 81 89 94 80 89 81 90 81 82 92 88 84 91 90 89 91 90 91 83 75 90 89 91 85 93 92 83 93 85 91 88 88 87 88 95 92 85 91 93 97 88 89 89 94 96 92 91 90 90 88 88 90 97 92 94 93 92 87 96 90 81 90 91 90 93 89 89 92 87 96 91 93 92 96 85 93 92 90 85 94 91 94 85 94 90 89 87 81 86 89 80 91 90 91 86 83 89 80 87 80 88 84 90 84 70 86 82 92 81 75 94 0 0 0 0
79 65 63 65 79 81 89 83 84 77 83 80 80 89 80 82 81 78 78 76 90 80 79 79 75 74 79 81 86 80 90 74 84 86 89 76 81 82 85 81 88 81 79 71 84 85 84 86 86 84 85 80 75 87 85 88 86 87 87 76 87 78 80 75 79 83 80 79 80 82 80 80 80 78 86 81 79 81 91 88 73 83 70 80 73 89 82 79 71 82 85 71 83 78 85 78 79 87 73 85 74 77 74 62 69 80 81 76 73 86 66 71 71 85 83 81 0 0 0 0
71 67 81 81 71 79 86 88 82 78 81 87 73 77 78 83 82 88 75 78 83 86 74 83 93 85 78 69 84 87 90 81 80 83 85 72 80 76 82 80 86 84 83 84 88 92 83 79 85 84 89 76 82 81 88 88 85 82 85 78 78 81 87 86 86 76 76 80 93 70 81 82 89 79 85 79 82 87 86 90 86 86 80 84 75 81 82 71 95 87 67 81 73 75 85 76 87 79 72 74 90 76 72 71 69 80 73 86 78 78 73 65 78 105 94 0 0 0 0 0
