0 0 0 0 0 0 0 0 0 0 0 0 0 0 0 0 0 0 0 0 0 0 0 0 0 0 0 0 0 0 0 0 0 0 0 0 0 0 0 0 0 0 0 0 0 0 0 0 0 0 0 0 0 0 0 0 0 0 0 0 0 0 0 0 0 0 0 0 0 0 0 0 0 0 0 0 0 0 0 0 0 0 0 0 0 0 0 0 0 0 0 0 0 0 0 0 0 0 0 0 0 0 0 0 0 0 0 0 0 0 0 0 0 0 0 0 0 0 0 0
0 0 0 0 0 0 0 0 0 0 0 0 0 0 0 0 0 0 0 0 0 0 0 0 0 0 0 0 0 0 0 0 0 0 0 0 0 0 0 0 0 0 0 0 0 0 0 0 0 0 0 0 0 0 0 0 0 0 0 0 0 0 0 0 0 0 0 0 0 0 0 0 0 0 0 0 0 0 0 0 0 0 0 0 0 0 0 0 0 0 0 0 0 0 0 0 0 0 0 0 0 0 0 0 0 0 0 0 0 0 0 0 0 0 0 0 0 0 0 0
0 0 0 0 0 0 0 0 0 0 0 1128 0 0 0 0 0 1260 0 0 0 0 1224 0 0 0 0 0 0 0 0 0 0 0 0 0 0 0 0 0 0 0 0 0 0 0 0 0 0 0 0 0 0 0 0 0 0 0 0 0 0 0 0 0 0 0 0 0 0 0 0 0 0 0 0 0 0 0 0 0 0 0 0 0 0 0 0 0 0 0 0 0 0 0 0 0 0 0 0 0 0 0 0 0 0 0 0 0 0 0 0 0 0 0 0 0 0 0 0 0
0 0 0 0 0 0 0 0 0 0 0 1132 1161 1119 1185 0 1258 1276 1250 0 0 0 1257 0 0 0 0 0 0 0 0 0 0 0 0 0 0 0 0 0 0 0 0 0 0 0 0 0 0 0 0 0 0 0 0 0 0 0 0 0 0 0 0 0 0 0 0 0 0 0 0 0 0 0 0 0 0 0 0 0 0 0 0 0 0 0 0 0 0 0 0 0 0 0 0 0 0 0 0 0 0 0 0 0 0 0 0 0 0 0 0 0 0 0 0 0 0 0 0 0
0 0 0 0 0 0 0 0 1110 1143 1139 1129 1140 1145 1169 1165 1253 1274 1307 0 1248 1217 1282 0 0 0 0 0 0 0 0 0 0 0 0 0 0 0 0 0 0 0 0 0 0 0 0 0 0 0 0 0 0 0 0 0 0 0 0 0 0 0 0 0 0 0 0 0 0 0 0 0 0 0 0 0 0 0 0 0 0 0 0 0 0 0 0 0 0 0 0 0 0 0 0 0 0 0 0 0 0 0 0 0 0 0 0 0 0 0 0 0 0 0 0 0 0 0 0 0
0 0 0 0 0 0 0 1111 1144 1096 0 0 1148 1138 1170 1228 1271 1275 1225 1241 1224 1280 1297 1276 0 0 0 0 0 0 0 0 0 0 0 0 0 0 0 0 0 0 0 0 0 0 0 0 0 0 0 0 0 0 0 0 0 0 0 0 0 0 0 0 0 0 0 0 0 0 0 0 0 0 0 0 0 0 0 0 0 0 0 0 0 0 0 0 0 0 0 0 0 0 0 0 0 0 0 0 0 0 0 0 0 0 0 0 0 0 0 0 0 0 0 0 0 0 0 0
0 0 0 0 0 0 0 0 0 0 0 0 1233 1231 1250 1282 1253 1282 1279 1285 1276 1257 1236 1276 1305 0 0 0 0 0 0 1401 0 0 0 0 0 0 0 0 0 0 0 0 0 0 0 0 0 0 0 0 0 0 0 0 0 0 0 0 0 0 0 0 0 0 0 0 0 0 0 0 0 0 0 0 0 0 0 0 0 0 0 0 0 0 0 0 0 0 0 0 0 0 0 0 0 0 0 0 0 0 0 0 0 0 0 0 0 0 0 0 0 0 0 0 0 0 0 0
0 0 0 0 0 0 0 0 0 0 0 0 1267 1281 1272 1278 1304 1303 1283 1274 1270 1237 1251 1279 1252 1325 1332 1336 1344 1372 0 1448 0 0 0 0 0 0 0 0 0 0 0 0 0 0 0 0 0 0 0 0 0 0 0 0 0 0 0 0 0 0 0 0 0 0 0 0 0 0 0 0 0 0 0 0 0 0 0 0 0 0 0 0 0 0 0 0 0 0 0 0 0 0 0 0 0 0 0 0 0 0 0 0 0 0 0 0 0 0 0 0 0 0 0 0 0 0 0 0
0 0 0 0 0 0 0 0 0 0 0 0 1266 1276 1276 1270 1294 1258 1262 1265 1281 1268 1284 1309 0 0 1348 1337 1353 1324 1346 1403 0 0 0 0 0 0 0 0 0 0 0 0 0 0 0 0 0 0 0 0 0 0 0 0 0 0 0 0 0 0 0 0 0 0 0 0 0 0 0 0 0 0 0 0 0 0 0 0 0 0 0 0 0 0 0 0 0 0 0 0 0 0 0 0 0 0 0 0 0 0 0 0 0 0 0 0 0 0 0 0 0 0 0 0 0 0 0 0
0 0 0 0 0 0 0 0 0 0 0 0 0 1319 1272 1279 1289 1300 1302 1274 1259 1247 1269 1272 1279 0 0 1339 1350 1350 1344 1419 0 0 0 0 0 0 0 0 0 0 0 0 0 0 0 0 0 0 0 0 0 0 0 0 0 0 0 0 0 0 0 0 0 0 0 0 0 0 0 0 0 0 0 0 0 0 0 0 0 0 0 0 0 0 0 0 0 0 0 0 0 0 0 0 0 0 0 0 0 0 0 0 0 0 0 0 0 0 0 0 0 0 0 0 0 0 0 0
0 0 0 0 0 0 0 0 0 0 0 0 0 0 0 0 0 0 0 0 0 1319 1261 1293 1291 0 0 1365 1344 1347 1378 1415 1440 0 0 0 0 0 0 0 0 0 0 0 0 0 0 0 0 0 0 0 0 0 0 0 0 0 0 0 0 0 0 0 0 0 0 0 0 0 0 0 0 0 0 0 0 0 0 0 0 0 0 0 0 0 0 0 0 0 0 0 0 0 0 0 0 0 0 0 0 0 0 0 0 0 0 0 0 0 0 0 0 0 0 0 0 0 0 0
0 0 0 0 0 0 0 0 0 0 0 0 0 0 0 0 0 0 0 0 0 0 0 1361 1316 0 0 0 1321 1352 1337 1413 1391 0 0 0 0 0 0 0 0 0 0 0 0 0 0 0 0 0 0 0 0 0 0 0 0 0 0 0 0 0 0 0 0 0 0 0 0 0 0 0 0 0 0 0 0 0 0 0 0 0 0 0 0 0 0 0 0 0 0 0 0 0 0 0 0 0 0 0 0 0 0 0 0 0 0 1747 0 0 0 0 0 0 0 0 0 0 0 0
0 0 0 0 0 0 0 0 0 0 0 0 0 0 0 0 0 0 0 0 0 0 0 1383 1391 1293 1287 1296 1341 1347 1337 1380 1396 0 0 0 0 0 0 0 0 0 0 0 0 0 0 0 0 0 0 0 0 0 0 0 0 0 0 0 0 0 0 0 0 0 0 0 0 0 0 0 0 0 0 0 0 0 0 0 0 0 0 0 0 0 0 0 0 0 0 0 0 0 0 0 0 0 0 0 0 0 0 0 0 0 1738 1728 0 0 0 0 0 0 0 0 0 0 0 0
0 0 0 0 0 0 0 0 0 0 0 0 0 0 0 0 0 0 0 0 0 0 0 1371 1380 1377 1328 1322 1356 1371 1380 1405 1438 0 0 0 0 0 0 0 0 0 0 0 0 0 0 0 0 0 0 0 0 0 0 0 0 0 0 0 0 0 0 0 0 0 0 0 0 0 0 0 0 0 0 0 0 0 0 0 0 0 0 0 0 0 0 0 0 0 0 0 0 0 0 0 0 0 0 0 0 0 0 0 0 1719 1714 1721 1679 0 0 0 0 0 0 0 0 0 0 0
0 0 0 0 0 0 0 0 0 0 0 0 0 0 0 0 0 0 0 0 0 0 0 1386 1401 1380 1369 1335 1331 1333 1352 1409 1454 0 0 0 0 0 0 0 0 0 0 0 0 0 0 0 0 0 0 0 0 0 0 0 0 0 0 0 0 0 0 0 0 0 0 0 0 0 0 0 0 0 0 0 0 0 0 0 0 0 0 0 0 0 0 0 0 0 0 0 0 0 0 0 0 0 0 0 0 0 0 0 0 1722 1732 0 0 0 0 0 0 0 0 0 0 0 0 0
0 0 0 0 0 0 0 0 0 0 0 0 0 0 0 0 0 0 0 0 0 0 0 1332 1369 1384 1377 1365 1358 1339 1347 1419 1453 0 0 0 0 0 0 0 0 0 0 0 0 0 0 0 0 0 0 0 0 0 0 0 0 0 0 0 0 0 0 0 0 0 0 0 0 0 0 0 0 0 0 0 0 0 0 0 0 0 0 0 0 0 0 0 0 0 0 0 0 0 0 0 0 0 0 0 0 0 0 0 0 1725 0 1707 0 0 0 0 0 0 0 0 0 0 0 0
1260 1275 1263 1271 1255 1279 1298 0 0 0 0 0 0 0 0 0 0 0 0 0 0 0 0 0 1363 1368 1361 1383 1382 1352 1357 1427 1424 0 0 0 0 0 0 0 0 0 0 0 0 0 0 0 0 0 0 0 0 0 0 0 0 0 0 0 0 0 0 0 0 0 0 0 0 0 0 0 0 0 0 0 0 0 0 0 0 0 0 0 0 0 0 0 0 0 0 0 0 0 0 0 0 0 0 0 0 0 0 0 0 1805 1746 1667 1747 1726 0 0 1693 0 0 0 0 0 0 0
1252 1252 1258 1284 1273 1281 1307 1322 1330 1335 1340 0 0 0 0 0 0 0 0 0 0 0 0 1393 1364 1353 1368 1371 1385 1388 1366 1432 1437 0 0 0 0 0 0 0 0 0 0 0 0 0 0 0 0 0 0 0 0 0 0 0 0 0 0 0 0 0 0 0 0 0 0 0 0 0 0 0 0 0 0 0 0 0 0 0 0 0 0 0 0 0 0 0 0 0 0 0 0 0 0 0 0 0 0 0 0 0 0 1770 1747 1763 1725 1726 1704 1636 1689 1676 1610 0 0 0 0 0 0 0
1221 1236 1277 1278 1281 1310 1312 1320 1329 1343 1351 1343 1333 1380 1421 1432 1414 0 0 0 0 0 0 0 0 1357 0 0 1364 0 0 1433 1429 0 0 0 0 0 0 0 0 0 0 0 0 0 0 0 0 0 0 0 0 0 0 0 0 0 0 0 0 0 0 0 0 0 0 0 0 0 0 0 0 0 0 0 0 0 0 0 0 0 0 0 0 0 0 0 0 0 0 0 0 0 0 0 0 0 0 0 0 0 0 1749 1743 1752 1719 1748 1715 1706 1681 1682 0 0 0 0 0 0 0 0
0 0 0 0 1298 1278 1298 1314 1331 1352 1340 1343 1343 1355 1373 1379 1399 1420 1433 1459 0 0 0 0 0 0 0 0 0 0 0 1433 1426 1425 0 0 0 0 0 0 0 0 0 0 0 0 0 0 0 0 0 0 0 0 0 0 0 0 0 0 0 0 0 0 0 0 0 0 0 0 0 0 0 0 0 0 0 0 0 0 0 0 0 0 0 0 0 0 0 0 0 0 0 0 0 0 0 0 0 0 0 0 1739 1785 1738 1754 1721 1700 1661 1630 0 0 0 0 0 0 0 0 0 0
0 0 0 0 0 0 0 0 0 1352 1362 1345 1361 1368 1384 1373 1407 1401 1449 1449 1475 1507 0 0 0 0 0 0 0 0 0 1466 1471 1444 0 0 0 0 0 0 0 0 0 0 0 0 0 0 0 0 0 0 0 0 0 0 0 0 0 0 0 0 0 0 0 0 0 0 0 0 0 0 0 0 0 0 0 0 0 0 0 0 0 0 0 0 0 0 0 0 0 0 0 0 0 0 0 0 0 0 0 0 0 1771 1664 1663 1576 1624 1603 1577 1637 1586 1628 1586 0 0 0 0 0 0
0 0 0 0 0 0 0 0 0 0 0 0 0 0 0 1395 1404 1421 1436 1430 1454 1480 0 0 0 0 0 0 0 0 0 0 1497 0 0 0 0 0 0 0 0 0 0 0 0 0 0 0 0 0 0 0 0 0 0 0 0 0 0 0 0 0 0 0 0 0 0 0 0 0 0 0 0 0 0 0 0 0 0 0 0 0 0 0 0 0 0 0 0 0 0 0 0 0 0 0 0 0 0 0 0 1701 1660 1594 1605 1595 1606 1591 1583 1611 1594 1648 1586 1614 1576 0 0 0 0 0
0 0 0 0 0 0 0 0 0 0 0 0 0 0 0 0 0 0 0 0 0 1468 0 0 0 0 0 0 0 0 0 0 0 0 0 0 0 0 0 0 0 0 0 0 0 0 0 0 0 0 0 0 0 0 0 0 0 0 0 0 0 0 0 0 0 0 0 0 0 0 0 0 0 0 0 0 0 0 0 0 0 0 0 0 0 0 0 0 0 0 0 0 0 0 0 0 0 0 0 0 0 1589 1572 1606 1579 1612 1578 1615 1591 1617 1567 1568 1561 1600 0 0 0 0 0 0
0 0 0 0 0 0 0 0 0 0 0 0 0 0 0 0 0 0 0 0 0 0 0 0 0 0 0 0 0 0 0 0 0 0 0 0 0 0 0 0 0 0 0 0 0 0 0 0 0 0 0 0 0 0 0 0 0 0 0 0 0 0 0 0 0 0 0 0 0 0 0 0 0 0 0 0 0 0 0 0 0 0 0 0 0 0 0 0 0 0 0 0 0 0 0 0 0 0 0 0 0 0 0 1579 1642 1579 1595 1605 1583 1604 1592 1591 0 0 0 0 0 0 0 0
0 0 0 0 0 0 0 0 0 0 0 0 0 0 0 0 0 0 0 0 0 0 0 0 0 0 0 0 0 0 0 0 0 0 0 0 0 0 0 0 0 0 0 0 0 0 0 0 0 0 0 0 0 0 0 0 0 0 0 0 0 0 0 0 0 0 0 0 0 0 0 0 0 0 0 0 0 0 0 0 0 0 0 0 0 0 0 0 0 0 0 0 0 0 0 0 0 0 0 0 0 0 0 0 0 0 0 1580 1565 0 0 0 0 0 0 0 0 0 0 0
0 0 0 0 0 0 0 0 0 0 0 0 0 0 0 0 0 0 0 0 0 0 0 0 0 0 0 0 0 0 0 0 0 0 0 0 0 0 0 0 0 0 0 0 0 0 0 0 0 0 0 0 0 0 0 0 0 0 0 0 0 0 0 0 0 0 0 0 0 0 0 0 0 0 0 0 0 0 0 0 0 0 0 0 0 0 0 0 0 0 0 0 0 0 0 0 0 0 0 0 0 0 0 0 0 0 0 0 0 0 0 0 0 0 0 0 0 0 0 0
550 579 0 0 0 0 0 0 0 0 0 0 0 0 0 0 0 0 0 0 0 0 0 0 0 1859 1904 0 0 0 0 0 0 0 0 0 0 0 0 0 0 0 0 0 0 0 0 2944 2971 2909 2889 2878 2867 2851 2883 2868 2952 2892 2973 2919 2899 2907 2942 2878 2886 2895 0 0 0 0 0 0 0 0 0 0 0 0 0 0 0 0 0 0 0 0 0 0 0 0 0 0 0 0 0 1775 1732 0 0 0 0 0 0 0 0 0 0 0 0 0 0 0 0 0 0 0 0 0 0 0
576 579 591 597 647 643 0 0 0 0 0 0 0 0 0 0 0 0 0 0 0 0 0 0 0 0 0 1923 1982 0 0 0 0 0 0 0 0 0 0 0 0 0 0 0 0 0 0 2898 2872 2910 2923 2914 2921 2892 2979 2926 2899 2925 2907 2924 2936 2898 2928 2925 2895 2893 0 0 0 0 0 0 0 0 0 0 0 0 0 0 0 0 0 0 0 0 0 0 0 0 0 0 0 0 0 0 0 0 0 0 0 0 0 0 0 0 0 0 0 0 0 0 0 0 0 0 0 0 0 0
579 593 600 589 612 611 653 675 640 0 0 0 0 0 0 0 0 0 0 0 0 0 0 0 0 0 0 0 0 0 0 0 0 0 0 0 0 0 0 0 0 0 0 0 0 0 0 2912 2914 2917 2884 2907 2943 2875 2909 2913 2904 2910 2906 2948 2971 2896 2864 2895 2895 2864 0 0 0 0 0 0 0 0 0 0 0 0 0 0 0 0 0 0 0 0 0 0 0 0 0 0 0 0 0 0 0 0 0 0 0 0 0 0 0 0 0 0 0 0 0 0 0 0 0 0 0 0 0 0
565 582 596 605 620 628 636 649 683 668 671 678 0 0 0 0 0 0 0 0 0 0 0 0 0 0 0 0 0 0 0 0 0 0 0 0 0 0 0 0 0 0 0 0 0 0 0 2949 2919 2928 2898 2936 2876 2909 2921 2905 2894 2953 2927 2918 2895 2944 2888 2919 2915 0 0 0 0 0 0 0 0 0 0 0 0 0 0 0 0 0 0 0 0 0 0 0 0 0 0 0 0 0 0 0 0 0 0 0 0 0 0 0 0 0 0 0 0 0 0 0 0 0 0 0 0 0 0 0
589 598 577 621 616 640 627 641 672 670 682 667 706 697 732 0 0 0 0 0 0 0 0 0 0 0 0 0 0 0 0 0 0 0 0 0 0 0 0 0 0 0 0 0 0 0 0 2936 2931 2951 2980 2962 2875 2924 2893 2887 2948 2944 2960 2919 2925 2933 2910 2943 2923 2878 0 0 0 0 0 0 0 0 0 0 0 0 0 0 0 0 0 0 0 0 0 0 0 0 0 0 0 0 0 0 0 0 0 0 0 0 0 0 0 0 0 0 0 0 0 0 0 0 0 0 0 0 0 0
760 768 771 740 710 693 654 672 666 672 681 694 695 735 733 740 770 830 0 0 0 0 0 0 0 0 0 0 0 0 0 0 0 0 0 0 0 0 0 0 0 0 0 0 0 0 0 2917 2908 2893 2883 2935 2911 2906 2898 2923 2898 2878 2898 2925 2896 2899 2873 2838 2894 2870 0 0 0 0 0 0 0 0 0 0 0 0 0 0 0 0 0 0 0 0 0 0 0 0 0 0 0 0 0 0 0 0 0 0 0 0 0 0 0 0 0 0 0 0 0 0 0 0 0 0 0 0 0 0
800 806 826 809 827 840 849 841 835 791 744 744 728 725 719 749 774 767 797 804 827 0 0 0 0 0 0 0 0 0 0 0 0 0 0 0 0 0 0 0 0 0 0 0 0 0 0 2902 2858 2899 2888 2905 2910 2890 2873 2941 2923 2899 2904 2889 2879 2951 2922 2959 2910 2879 0 0 0 0 0 0 0 0 0 0 0 0 0 0 0 0 0 0 0 0 0 0 0 0 0 0 0 0 0 0 0 0 0 0 0 0 0 0 0 0 0 0 0 0 0 0 0 0 0 0 0 0 0 0
742 805 819 807 837 856 884 875 897 906 918 912 930 893 839 776 784 777 787 825 826 867 870 867 0 0 0 0 0 0 0 0 0 0 0 0 0 0 0 0 0 0 0 0 0 0 0 2902 2959 2951 2913 2915 2919 2901 2956 2892 2882 2909 2952 2929 2881 2851 2924 2923 2883 2871 0 0 0 0 0 0 0 0 0 0 0 0 0 0 0 0 0 0 0 0 0 0 0 0 0 0 0 0 0 0 0 0 0 0 0 0 0 0 0 0 0 0 0 0 0 0 0 0 0 0 0 0 0 0
682 0 857 821 862 874 880 878 899 923 928 945 956 950 953 954 951 932 905 876 868 854 897 882 932 944 0 0 0 0 0 0 0 0 0 0 0 0 0 0 0 0 0 0 0 0 0 2923 2940 2833 2883 2874 2875 2908 2888 2874 2902 2880 2917 2929 2881 2888 2881 2884 2886 0 0 0 0 0 0 0 0 0 0 0 0 0 0 0 0 0 0 0 0 0 0 0 0 0 0 0 0 0 0 0 0 0 0 0 0 0 0 0 0 0 0 0 0 0 0 0 0 0 0 0 0 0 0 0
642 926 951 930 977 937 921 909 928 923 939 960 951 956 948 947 961 958 950 962 943 916 921 886 933 945 959 999 1026 0 0 0 0 0 0 0 0 0 0 0 0 0 0 0 0 0 0 2920 2932 2907 2884 2893 2926 2902 2932 2903 2904 2861 2893 2938 2855 2913 2916 2886 2876 2920 0 0 0 0 0 0 0 0 0 0 0 0 0 0 0 0 0 0 0 0 0 0 0 0 0 0 0 0 0 0 0 0 0 0 0 0 0 0 0 0 0 0 0 0 0 0 0 0 0 0 0 0 0 0
581 710 0 0 0 0 0 0 0 0 942 984 965 972 996 967 979 967 955 952 952 956 951 928 965 958 951 986 1030 1031 0 0 0 0 0 0 0 0 0 0 0 0 0 0 0 0 0 2884 2936 2908 2944 2919 2949 2920 2892 2912 2922 2893 2878 2934 2920 2885 2877 2917 2892 2875 0 0 0 0 0 0 0 0 0 0 0 0 0 0 0 0 0 0 0 0 0 0 0 0 0 0 0 0 0 0 0 0 0 0 0 0 0 0 0 0 0 0 0 0 0 0 0 0 0 0 0 0 0 0
593 583 637 0 1130 1137 1152 1155 1142 1150 1130 1134 1136 1151 1133 1150 1124 1058 0 0 1013 1072 1070 986 1030 1039 1144 1137 1111 1087 1101 0 0 0 0 0 0 0 0 0 0 0 0 0 0 0 0 2907 2938 2936 2918 2926 2944 2858 2916 2827 2886 2870 2958 2910 2908 2867 2895 2881 2918 2861 0 0 0 0 0 0 0 0 0 0 0 0 0 0 0 0 0 0 0 0 0 0 0 0 0 0 0 0 0 0 0 0 0 0 0 0 0 0 0 0 0 0 0 0 0 0 0 0 0 0 0 0 0 0
582 595 601 606 0 0 0 0 0 0 0 0 0 0 0 0 1395 1005 990 0 0 1120 1081 0 0 1103 1147 1138 1131 1136 1123 0 0 0 0 0 0 0 0 0 0 0 0 0 0 0 0 2914 2899 2879 2908 2883 2883 2890 2936 2931 2848 2869 2906 2914 2892 2899 2920 2889 2878 2917 0 0 0 0 0 0 0 0 0 0 0 0 0 0 0 0 0 0 0 0 0 0 0 0 0 0 0 0 0 0 0 0 0 0 0 0 0 0 0 0 0 0 0 0 0 0 0 0 0 0 0 0 0 0
599 599 612 606 616 0 0 0 0 0 0 0 0 0 0 0 0 969 1014 0 0 0 0 0 0 0 0 0 0 0 0 0 0 0 0 0 0 0 0 0 0 0 0 0 0 0 0 2947 2914 2911 2882 2909 2939 2877 2925 2907 2862 2880 2871 2898 2898 2843 2873 2840 2904 2878 0 0 0 0 0 0 0 0 0 0 0 0 0 0 0 0 0 0 0 0 0 0 0 0 0 0 0 0 0 0 0 0 0 0 0 0 0 0 0 0 0 0 0 0 0 0 0 0 0 0 0 0 0 0
603 603 588 594 645 611 0 0 0 0 0 0 0 0 0 0 0 0 0 0 0 0 0 0 0 0 0 0 0 0 0 0 0 0 0 0 0 0 0 0 0 0 0 0 0 0 0 2916 2923 2943 2913 2933 2934 2884 2899 2885 2900 2895 2924 2864 2850 2927 2873 2853 2907 2882 0 0 0 0 0 0 0 0 0 0 0 0 0 0 0 0 0 0 0 0 0 0 0 0 0 0 0 0 0 0 0 0 0 0 0 0 0 0 0 0 0 0 0 0 0 0 0 0 0 0 0 0 0 0
595 617 606 619 611 650 0 0 0 0 0 0 0 0 0 0 0 0 0 0 0 0 934 0 0 0 0 0 0 0 0 0 0 0 0 0 0 0 0 0 0 0 0 0 0 0 0 2913 2893 2873 2942 2906 2919 2941 2933 2901 2915 2896 2961 2899 2910 2865 2899 2904 2845 2906 0 0 0 0 0 0 0 0 0 0 0 0 0 0 0 0 0 0 0 0 0 0 0 0 0 0 0 0 0 0 0 0 0 0 0 0 0 0 0 0 0 0 0 0 0 0 0 0 0 0 0 0 0 0
600 578 630 572 618 621 0 0 0 0 0 0 0 0 0 0 0 0 0 0 0 0 986 0 0 0 0 0 0 0 0 0 0 0 0 0 0 0 0 0 0 0 0 0 0 0 0 2932 2906 2892 2895 2934 2910 2896 2926 2906 2918 2864 2863 2876 2885 2910 2890 2872 2884 2933 0 0 0 0 0 0 0 0 0 0 0 0 0 0 0 0 0 0 0 0 0 0 0 0 0 0 0 0 0 0 0 0 0 0 0 0 0 0 0 0 0 0 0 0 0 0 0 0 0 0 0 0 0 0
582 609 611 623 601 597 615 0 0 0 0 0 0 0 0 0 0 0 0 0 0 0 0 0 0 0 0 0 0 0 0 0 0 0 0 0 0 0 0 0 0 0 0 0 0 0 0 2889 2897 2919 2883 2866 2885 2895 2868 2867 2873 2914 2921 2878 2852 2876 2902 2847 2866 2834 0 0 0 0 0 0 0 0 0 0 0 0 0 0 0 0 0 0 0 0 0 0 0 0 0 0 0 0 0 0 0 0 0 0 0 0 0 0 0 0 0 0 0 0 0 0 0 0 0 0 0 0 0 0
582 607 615 615 613 622 605 0 0 0 0 0 0 0 0 0 0 0 0 0 925 0 969 939 0 0 0 0 0 0 0 0 0 0 0 0 0 0 0 0 0 0 0 0 0 0 0 2889 2885 2959 2922 2901 2900 2894 2875 2909 2924 2865 2920 2883 2857 2895 2850 2877 2866 2870 0 0 0 0 0 0 0 0 0 0 0 0 0 0 0 0 0 0 0 0 0 0 0 0 0 0 0 0 0 0 0 0 0 0 0 0 0 0 0 0 0 0 0 0 0 0 0 0 0 0 0 0 0 0
576 591 612 605 618 624 611 0 0 0 0 0 0 0 0 0 0 0 0 0 0 0 0 0 0 0 0 0 0 0 0 0 0 0 0 0 0 0 0 0 0 0 0 0 0 0 0 2919 2876 2932 2921 2903 2923 2887 2918 2927 2917 2891 2902 2914 2874 2887 2892 2912 2893 2852 0 0 0 0 0 0 0 0 0 0 0 0 0 0 0 0 0 0 0 0 0 0 0 0 0 0 0 0 0 0 0 0 0 0 0 0 0 0 0 0 0 0 0 0 0 0 0 0 0 0 0 0 0 0
605 621 629 623 617 608 0 0 0 0 0 0 0 0 0 0 0 0 0 0 0 0 0 0 0 0 0 0 0 0 0 0 0 0 0 0 0 0 0 0 0 0 0 0 0 0 0 0 0 0 0 0 0 0 0 0 0 0 0 0 0 2921 3007 2922 2909 0 0 0 0 0 0 0 0 0 0 0 0 0 0 0 0 0 0 0 0 0 0 0 0 0 0 0 0 0 0 0 0 0 0 0 0 0 0 0 0 0 0 0 0 0 0 0 0 0 0 0 0 0 0 0
569 590 603 615 579 595 0 0 0 0 0 0 0 0 0 0 0 0 0 0 0 0 0 0 0 0 0 0 0 0 0 0 0 0 0 0 0 0 0 0 0 0 0 0 0 0 0 0 0 0 0 0 0 0 0 0 0 0 0 0 0 0 0 0 0 0 0 0 0 0 0 0 0 0 0 0 0 0 0 0 0 0 0 0 0 0 0 0 0 0 0 0 0 0 0 0 0 0 0 0 0 0 0 0 0 0 0 0 0 0 0 0 0 0 0 0 0 0 0 0
611 616 597 615 636 0 0 0 0 0 0 0 0 0 0 0 0 0 0 0 0 0 0 0 0 0 0 0 0 0 0 0 0 0 0 0 0 0 0 0 0 0 0 0 0 0 0 0 0 0 0 0 0 0 0 0 0 0 0 0 0 0 0 0 0 0 0 0 0 0 0 0 0 0 0 0 0 0 0 0 0 0 0 0 0 0 0 0 0 0 0 0 0 0 0 0 0 0 0 0 0 0 0 0 0 0 0 0 0 0 0 0 0 0 0 0 0 0 0 0
554 578 599 589 614 0 0 0 0 0 0 0 0 0 0 0 0 0 0 0 0 0 0 0 0 0 0 0 0 0 0 0 0 0 0 0 0 0 0 0 0 0 0 0 0 0 0 0 0 0 0 0 0 0 0 0 0 0 0 0 0 0 0 0 0 0 0 0 0 0 0 0 0 0 0 0 0 0 0 0 0 0 0 0 0 0 0 0 0 0 0 0 0 0 0 0 0 0 0 0 0 0 0 0 0 0 0 0 0 0 0 0 0 0 0 0 0 0 0 0
591 635 616 588 0 0 0 0 0 0 0 0 0 0 0 0 0 0 0 0 0 0 0 0 0 0 907 891 916 913 891 916 883 853 932 889 0 935 911 935 899 894 0 0 0 0 0 0 0 0 0 0 0 0 0 0 0 0 0 0 0 0 0 0 0 0 0 0 0 0 0 0 0 0 0 0 0 0 0 0 0 0 0 0 0 0 0 0 0 0 0 0 0 0 0 0 0 0 0 0 0 0 0 0 0 0 0 0 0 0 0 0 0 0 0 0 0 0 0 0
583 585 0 0 0 0 0 672 683 689 704 707 654 701 690 698 710 728 701 664 699 709 729 715 716 654 696 703 741 684 691 745 706 709 716 754 745 742 770 707 726 750 750 734 770 712 760 783 747 814 780 734 791 763 768 776 798 749 810 782 760 759 809 811 780 817 840 807 787 768 808 822 831 0 0 0 0 0 0 0 0 0 0 0 0 0 0 0 0 0 0 0 0 0 0 0 0 0 0 0 0 0 0 0 0 0 0 0 0 0 0 0 0 0 0 0 0 0 0 0
566 580 595 558 590 605 589 587 585 558 587 590 591 613 572 599 591 589 604 620 563 595 570 612 595 585 600 640 582 596 591 637 615 611 615 633 627 622 624 620 589 638 620 638 608 629 639 629 613 608 615 631 627 677 660 644 649 677 659 644 628 636 663 658 659 645 695 655 646 657 682 643 686 699 674 681 648 654 658 676 728 705 637 665 685 690 672 716 681 682 679 699 672 707 683 0 0 757 719 0 735 737 0 0 0 0 0 0 0 0 0 0 0 0 0 0 0 0 0 0
504 525 516 491 500 506 494 484 493 514 516 504 499 481 507 518 502 512 497 506 508 511 509 500 508 503 519 500 516 530 513 533 530 521 524 518 550 537 519 511 545 539 522 520 517 544 527 516 504 536 549 539 556 533 527 556 537 533 542 518 563 545 541 567 538 557 549 565 561 566 539 563 556 538 551 584 565 549 549 569 584 573 576 533 554 562 609 556 569 546 603 583 556 552 571 562 568 578 604 604 628 597 567 567 0 578 0 630 623 582 0 0 0 0 0 0 0 0 0 0
435 429 413 435 438 451 434 441 460 447 440 441 467 466 448 450 432 453 442 431 455 453 458 450 448 457 448 437 467 473 449 446 445 450 473 462 449 471 456 465 459 452 464 461 479 469 467 462 485 471 456 479 483 467 476 462 482 468 474 457 477 474 474 488 460 487 487 494 480 490 489 494 502 494 463 511 477 482 491 482 482 491 499 478 497 474 490 480 494 485 493 494 501 469 475 475 509 471 510 508 501 492 466 454 504 496 458 513 504 507 569 529 0 0 0 0 0 0 0 0
389 413 385 394 395 389 390 406 393 396 403 393 408 406 406 400 399 392 391 411 387 407 414 420 419 419 409 412 388 413 396 412 406 412 417 415 418 414 428 406 422 413 419 401 410 425 416 408 409 425 420 437 424 425 440 425 428 415 432 426 428 425 424 420 422 418 418 437 435 439 431 430 435 417 433 400 442 449 427 436 425 435 442 432 430 430 432 431 442 431 417 438 430 432 437 450 440 431 426 442 440 428 444 440 429 430 429 423 451 430 461 442 396 438 0 0 0 0 0 0
338 360 348 351 358 365 349 357 355 353 370 352 351 372 361 368 375 371 363 361 355 359 368 377 365 360 372 365 365 357 359 397 381 362 367 365 385 374 381 365 376 375 372 373 351 366 377 375 383 379 374 385 381 374 386 374 385 391 378 381 385 386 386 382 383 397 401 386 386 387 393 392 389 394 395 392 393 396 380 397 388 390 407 385 382 383 388 392 391 402 386 410 376 393 396 387 397 397 418 389 383 402 404 388 409 393 398 404 388 395 407 399 398 371 416 376 0 0 0 0
317 327 324 331 326 326 331 344 337 338 345 345 334 351 340 331 351 332 336 339 343 338 327 348 347 349 328 342 334 337 338 334 339 351 350 350 345 341 329 340 342 340 343 343 341 337 343 359 340 361 347 342 341 343 341 345 344 342 344 345 347 349 345 342 354 351 347 345 337 346 357 349 346 346 356 340 352 343 358 348 355 363 352 355 351 347 352 350 347 356 356 353 350 356 339 358 343 349 337 349 355 344 336 362 368 356 367 348 365 343 371 351 373 361 353 340 359 0 0 0
292 302 296 289 300 307 303 324 293 306 308 285 292 292 304 293 325 307 310 317 303 307 296 309 289 304 303 297 305 317 301 301 308 297 303 303 322 304 301 307 311 309 312 312 315 311 312 316 310 321 304 309 316 319 320 308 316 313 310 311 328 304 316 317 311 312 328 326 321 311 308 324 309 315 309 315 308 317 321 319 327 321 311 321 324 339 313 324 332 325 337 317 328 316 324 331 321 338 323 341 325 312 339 333 335 335 327 328 313 338 322 349 344 338 344 342 351 323 342 0
277 273 272 280 287 283 278 280 286 297 282 288 283 289 289 288 285 283 286 282 275 283 273 272 283 277 279 286 280 275 277 278 284 275 280 281 278 282 281 288 290 286 280 286 287 287 286 287 286 287 282 285 285 289 286 292 283 292 284 285 292 290 277 290 295 289 288 287 300 283 287 286 295 286 290 289 296 288 292 289 294 297 293 297 294 290 294 289 284 295 294 298 292 295 302 287 299 291 297 286 303 296 295 294 290 290 301 313 288 319 300 300 303 299 324 311 321 305 282 296
263 252 258 259 252 260 252 263 263 253 253 249 251 259 264 260 256 264 263 258 259 266 262 256 256 252 258 265 251 257 255 262 259 263 256 268 264 267 263 268 266 267 270 267 265 267 261 253 269 272 265 275 269 267 272 265 265 271 264 268 275 268 270 266 272 266 265 261 275 263 272 264 264 277 271 261 270 263 274 259 262 261 265 270 274 263 274 264 272 273 266 266 275 267 263 268 269 276 276 287 279 274 267 273 272 281 271 275 277 275 271 283 291 270 300 281 258 266 278 289
233 236 239 232 250 239 238 234 243 238 228 236 250 246 236 243 240 244 247 238 245 235 243 249 245 241 239 236 243 247 240 251 244 246 241 254 242 242 247 250 243 240 249 247 252 254 249 245 249 255 245 253 246 249 250 254 257 244 251 252 254 249 248 246 250 254 248 253 249 245 247 246 251 251 249 260 245 255 250 252 251 255 251 258 251 251 253 258 247 252 250 258 252 252 253 252 250 255 250 253 256 250 258 255 240 247 257 250 257 260 251 245 258 250 244 234 245 269 262 270
216 222 216 211 218 226 223 217 219 223 223 224 227 231 224 222 221 226 226 221 223 225 229 226 227 229 225 224 229 229 230 232 229 230 227 237 230 223 233 234 229 233 226 238 239 235 229 234 237 234 235 230 231 234 231 237 228 236 236 238 231 233 231 235 234 243 236 242 239 235 231 235 239 236 227 245 232 234 229 229 241 236 236 234 235 228 237 241 234 228 233 239 241 237 235 239 245 246 239 242 233 232 241 238 232 230 234 239 243 244 235 244 248 246 240 232 220 227 199 233
207 207 219 213 218 202 205 211 212 212 212 209 215 219 210 209 216 210 211 216 214 210 212 211 209 215 217 214 217 213 223 217 217 212 217 215 213 214 217 221 216 223 191 217 223 219 216 220 218 218 215 218 219 223 223 216 216 219 217 224 221 208 220 219 202 223 226 224 222 219 207 224 224 217 216 220 225 200 227 220 217 227 226 226 222 222 222 228 219 217 222 218 220 213 221 222 225 223 224 223 217 214 232 224 220 220 214 220 228 228 225 229 221 207 233 222 193 213 207 216
192 198 193 202 209 208 204 201 198 184 201 187 189 195 191 205 206 194 209 192 191 192 197 191 183 188 190 193 194 197 197 198 195 190 195 192 193 197 188 198 197 190 189 190 198 193 197 192 193 194 194 194 193 196 191 198 194 197 192 200 203 199 205 203 194 203 202 193 196 196 198 201 200 194 194 196 197 200 201 193 191 195 216 201 215 199 214 193 195 215 215 198 193 212 210 184 194 209 217 213 214 215 210 209 218 207 209 217 217 206 216 208 219 207 213 210 212 224 220 205
176 178 196 193 194 180 180 185 183 186 182 179 177 178 183 181 184 189 181 178 191 189 183 188 180 192 193 194 188 193 194 187 195 193 192 197 198 193 193 197 194 198 197 197 197 196 194 201 201 191 196 195 194 201 199 197 198 197 194 202 201 202 197 203 203 197 195 199 197 198 199 198 197 197 194 194 191 196 197 195 193 194 197 197 189 187 189 189 194 192 189 184 192 180 192 189 182 186 188 182 192 189 183 203 184 186 201 204 206 189 206 176 205 197 187 205 188 176 208 171
178 170 179 177 176 172 176 183 183 183 184 176 184 185 181 183 182 186 186 187 190 183 187 183 182 184 187 187 190 191 188 184 192 178 184 184 187 183 181 186 185 183 187 193 189 188 188 189 191 191 192 187 193 184 185 197 191 192 188 194 184 189 190 190 187 190 191 188 187 188 192 187 189 191 186 185 190 193 184 191 194 193 189 184 195 196 190 187 186 192 187 192 186 186 188 188 187 186 179 181 187 185 180 176 180 181 185 182 182 177 184 178 183 180 178 172 180 204 172 174
173 164 159 172 173 169 166 173 167 167 169 170 175 172 177 177 174 179 180 180 175 179 172 172 171 173 178 174 176 182 174 176 178 174 176 170 174 176 176 171 174 177 182 177 178 178 186 184 177 186 182 185 179 183 178 177 183 182 179 182 179 174 185 181 181 178 183 179 179 184 180 178 179 183 178 182 182 181 182 179 180 182 179 176 180 175 180 182 179 180 178 176 176 173 176 172 177 180 179 183 178 186 187 182 175 175 170 177 171 172 181 178 177 167 197 175 170 176 169 166
162 165 164 167 162 167 160 160 161 166 166 167 163 169 165 170 170 172 174 171 170 168 172 167 168 161 170 170 169 171 173 170 168 170 169 170 169 171 174 169 171 170 177 168 173 174 168 174 175 172 177 172 173 175 172 171 179 179 173 170 172 171 175 172 174 174 176 168 175 171 170 174 175 174 172 175 177 180 171 174 169 172 174 167 165 173 175 175 172 174 166 171 175 164 172 167 176 168 172 174 167 180 170 176 172 170 171 165 165 164 177 179 175 173 165 175 179 169 175 177
159 157 169 165 169 160 164 156 158 158 162 159 160 161 159 169 163 165 170 166 161 165 166 162 165 166 163 158 164 166 166 169 164 166 161 163 161 166 163 162 158 165 166 162 160 167 166 165 164 162 162 168 167 160 165 163 164 167 164 171 169 172 163 168 168 164 165 165 167 162 163 160 168 166 167 167 171 169 168 169 169 167 170 166 164 169 168 164 168 161 164 164 159 161 170 165 163 161 168 162 172 164 157 165 164 163 167 162 165 160 156 166 162 156 177 162 177 151 158 166
147 149 150 149 152 149 146 156 159 157 144 152 150 151 152 154 150 161 155 164 156 155 151 153 153 155 148 154 158 161 160 156 151 153 152 158 151 156 151 163 157 153 155 158 160 152 162 154 152 158 153 158 160 158 159 158 160 158 162 163 164 160 161 160 160 161 159 157 158 154 158 157 160 160 156 162 162 161 162 152 156 160 160 158 154 156 158 158 163 158 160 161 154 161 158 156 155 154 152 158 157 158 156 158 160 149 156 153 156 152 153 155 149 154 159 147 149 155 166 139
140 142 148 144 148 141 139 148 152 149 152 148 146 147 149 148 146 149 143 150 154 144 149 153 153 152 148 148 149 147 147 148 146 151 147 143 151 150 147 144 155 151 148 154 151 149 148 146 148 151 148 157 154 149 157 147 149 153 151 157 150 152 153 154 150 152 150 156 152 150 152 153 152 156 155 154 155 155 157 154 152 151 149 145 152 149 156 156 154 152 151 154 153 154 155 151 152 150 156 152 151 158 157 152 155 146 146 152 149 148 151 149 149 150 156 143 142 147 155 109
139 137 140 138 143 136 137 141 142 138 143 144 143 142 140 144 146 141 139 148 145 144 132 145 144 141 147 147 145 140 140 141 144 144 143 142 131 147 143 149 148 149 153 146 146 148 144 145 145 151 146 149 135 145 146 144 150 151 145 147 143 143 144 148 146 147 147 147 146 150 149 148 151 150 147 155 150 152 150 147 142 143 142 148 144 146 151 146 151 146 152 147 148 147 147 151 143 145 150 146 148 147 149 140 142 146 140 144 141 149 141 148 148 147 149 155 147 139 151 138
134 131 130 131 137 140 135 139 139 139 138 0 132 136 134 136 140 142 139 142 143 142 142 135 140 141 146 139 140 141 139 130 129 131 140 140 134 130 140 131 141 146 140 142 139 130 143 132 129 141 140 141 136 142 145 144 142 143 136 133 132 131 132 146 145 142 142 134 148 141 128 143 146 147 142 143 142 142 142 145 150 131 139 128 147 140 141 142 140 132 139 142 144 145 142 145 140 142 144 143 141 143 138 137 143 127 138 136 145 141 132 133 134 131 138 147 128 132 130 129
133 128 130 133 134 138 142 134 134 135 139 135 139 140 138 134 134 140 136 134 143 140 142 142 139 137 133 141 138 124 127 139 138 129 128 126 128 132 125 130 147 141 130 140 0 142 132 131 129 124 127 125 131 133 0 142 0 131 132 141 132 130 134 132 131 129 149 128 133 130 134 130 132 128 130 142 134 129 133 128 138 140 127 128 130 130 129 124 131 144 136 137 138 138 140 125 139 143 141 140 139 134 136 142 139 133 132 139 137 139 140 140 141 135 133 146 125 151 136 140
118 103 126 108 126 129 142 122 110 116 124 118 117 125 127 124 133 125 124 123 132 125 129 128 127 136 135 139 0 132 126 119 118 118 120 120 124 127 125 122 132 131 129 129 0 0 132 126 128 122 121 122 127 127 126 127 132 131 129 126 125 126 131 129 125 129 127 132 124 125 126 124 120 125 115 123 125 131 125 132 127 125 123 125 117 131 125 125 126 126 128 137 126 135 125 117 133 141 137 126 131 116 118 125 115 123 118 119 123 129 116 135 141 120 143 101 136 142 126 79
111 118 107 115 109 117 129 120 119 123 115 117 123 120 119 116 114 122 121 120 124 122 125 121 127 118 131 126 126 121 130 0 121 123 117 116 124 120 0 121 130 126 0 0 0 0 124 128 121 123 124 125 128 122 122 126 123 123 121 121 129 125 115 126 124 127 128 122 122 121 122 125 124 122 123 123 123 125 124 124 119 116 123 123 119 119 121 119 129 119 117 117 120 125 120 122 134 125 120 123 119 115 122 111 110 117 117 117 124 130 115 129 118 112 125 119 129 110 112 150
107 100 116 113 113 108 114 119 111 109 117 112 113 110 112 116 112 116 110 125 116 112 111 119 116 110 121 118 117 124 123 0 120 116 114 109 118 0 114 117 121 0 0 120 123 0 120 120 112 112 119 114 120 118 121 123 117 118 115 119 120 124 122 118 121 122 120 118 119 115 117 116 113 114 118 118 118 115 115 121 116 116 119 118 116 115 115 114 118 117 116 121 122 115 107 119 122 116 110 116 117 117 115 109 115 116 113 119 124 118 125 123 115 117 119 126 112 105 90 99
99 103 110 104 102 101 114 111 102 112 111 108 114 117 120 119 116 112 106 109 115 107 110 110 106 111 115 121 115 118 121 115 115 118 114 112 108 115 110 116 115 112 111 110 109 116 117 0 115 0 120 110 121 116 0 0 107 107 115 113 123 116 109 109 113 112 111 112 116 110 115 105 108 102 108 105 109 106 105 114 115 105 106 113 111 111 123 111 109 114 108 111 99 114 106 118 113 116 114 105 108 113 112 104 112 112 109 112 117 110 115 119 109 116 112 114 95 96 94 136
101 101 110 112 109 104 113 107 109 107 97 116 112 113 116 120 112 112 114 99 109 96 104 105 114 110 108 112 107 119 109 108 104 107 114 111 114 0 105 107 110 108 111 101 104 105 107 107 114 0 109 109 109 114 113 112 104 111 113 110 101 106 112 0 116 110 107 111 113 112 105 99 105 117 105 103 104 102 104 111 111 104 108 105 97 111 104 111 106 108 107 110 104 105 100 105 109 110 109 108 103 117 107 114 107 106 103 106 98 109 99 101 120 105 110 112 90 119 118 121
93 95 105 105 99 95 98 89 98 91 98 99 101 101 101 103 100 107 100 108 108 101 98 104 106 104 106 101 97 109 106 108 103 96 106 102 103 111 107 108 104 104 102 100 98 103 109 104 106 104 105 102 107 106 107 110 96 105 108 103 104 106 104 0 110 104 0 112 104 107 104 108 102 109 103 108 96 104 0 102 0 103 99 102 100 100 100 97 101 98 99 104 97 98 99 94 99 99 100 102 95 101 106 102 100 106 107 97 101 89 102 97 106 111 91 93 96 99 95 112
92 93 86 95 99 96 99 93 96 93 97 102 95 98 100 95 95 100 103 95 101 95 92 85 97 105 99 102 99 94 108 105 106 101 100 105 101 99 99 100 105 102 98 97 101 96 104 104 102 104 106 99 99 101 99 99 102 107 104 101 102 99 106 100 110 106 105 105 106 101 104 103 98 102 101 97 104 98 100 98 0 107 92 91 99 96 100 113 90 100 107 101 102 96 99 103 91 96 86 104 96 93 101 88 97 103 99 97 99 96 93 88 103 83 95 112 106 84 80 109
95 98 97 93 88 93 96 82 88 96 92 96 94 93 95 89 89 88 108 108 103 95 93 91 95 91 99 95 95 102 98 102 103 99 97 102 102 101 96 104 96 95 90 92 104 93 100 102 88 101 101 96 86 96 92 101 96 94 100 98 94 98 101 0 94 104 92 94 97 96 96 100 100 103 89 103 97 100 100 103 98 98 93 107 100 93 91 91 91 94 90 95 101 83 91 90 91 90 106 88 90 102 94 94 102 101 105 77 89 85 102 84 96 85 100 90 131 113 124 90
85 88 78 80 91 85 78 88 88 81 85 92 94 89 93 90 87 93 86 92 94 91 92 94 94 88 97 89 90 93 91 85 100 94 90 94 88 92 93 94 85 96 98 98 93 95 93 90 92 89 99 98 93 94 94 98 98 99 99 90 88 95 100 90 96 94 91 90 93 99 100 90 90 91 98 95 99 98 96 98 88 90 92 94 92 97 83 97 94 91 92 95 91 92 92 91 94 92 92 86 89 84 89 91 88 82 92 94 89 91 78 85 84 87 86 90 84 69 86 88
90 83 81 86 90 86 94 102 83 90 88 89 88 91 92 87 89 91 95 94 93 92 90 88 92 91 96 89 91 88 90 89 97 91 103 85 87 91 98 96 91 96 97 94 96 94 95 89 90 93 97 99 95 99 94 96 97 98 90 99 98 89 98 94 88 92 89 97 90 95 91 88 98 94 92 90 94 95 84 96 96 93 96 95 94 87 93 95 93 92 98 102 94 91 95 91 95 82 93 96 87 90 88 98 84 98 86 90 89 84 81 91 81 79 96 87 90 106 0 0
85 91 86 86 88 94 84 90 84 0 84 84 90 88 83 90 87 91 86 93 95 93 92 95 90 89 91 84 91 96 85 96 96 96 90 93 94 93 94 90 98 92 97 88 96 87 91 96 87 87 89 99 96 92 94 98 89 92 89 97 96 95 93 98 97 100 95 93 95 97 89 83 98 94 96 90 99 92 90 84 94 94 90 90 94 94 96 98 99 92 94 100 102 88 85 86 87 92 89 89 83 88 86 85 89 87 92 89 93 87 86 88 75 89 82 77 100 80 128 0
80 82 81 83 85 85 96 86 86 79 84 83 90 89 87 91 82 91 81 93 85 92 94 83 87 87 92 89 91 87 85 86 92 92 92 97 89 93 89 91 87 88 93 96 88 85 97 93 91 94 98 87 91 87 94 98 91 93 93 92 94 98 91 86 91 95 91 81 91 94 92 87 90 94 96 86 92 96 95 90 93 89 91 93 90 86 92 92 89 84 95 93 85 87 88 83 89 89 89 90 83 78 90 88 90 85 91 88 73 77 77 90 85 96 83 99 81 86 0 0
81 79 77 80 86 83 89 96 84 90 91 90 85 82 88 85 84 87 89 90 93 91 86 81 81 88 90 88 91 92 92 86 95 90 87 88 92 90 86 90 93 81 84 95 95 88 89 93 96 86 94 91 85 81 84 94 87 94 86 98 93 94 86 97 89 95 91 91 90 94 88 89 93 92 93 89 92 92 97 86 92 95 91 89 91 96 92 93 92 91 91 92 82 82 88 88 94 94 82 84 86 93 90 86 80 88 81 95 88 76 88 91 96 84 96 117 0 0 0 0
77 70 65 61 79 77 82 85 86 79 82 76 77 91 84 80 79 80 78 79 88 76 85 84 74 73 75 86 87 83 91 74 81 82 89 76 82 84 83 80 85 82 79 74 79 83 82 89 89 83 88 75 76 79 84 77 89 85 88 78 88 85 79 81 78 90 81 83 83 77 85 86 83 79 81 80 82 84 89 88 77 77 75 80 73 88 80 79 77 83 87 72 83 78 81 78 76 86 73 79 77 75 74 59 76 79 70 74 77 81 76 81 76 82 72 68 0 0 0 0
71 65 77 81 69 82 86 87 82 82 82 90 77 78 84 80 80 85 76 80 75 77 77 77 84 82 76 70 87 84 79 79 77 88 84 68 80 78 82 80 95 82 84 88 87 90 80 78 85 81 81 80 74 76 87 89 80 79 84 74 84 77 80 76 79 78 81 75 91 74 83 81 86 79 81 81 78 88 84 84 85 80 82 83 69 82 81 72 81 88 64 84 73 72 83 80 86 84 78 81 86 71 74 70 72 83 69 81 81 75 86 51 70 89 80 0 0 0 0 0
