0 0 0 0 0 0 0 0 0 0 0 0 0 0 0 0 0 0 0 0 0 0 0 0 0 0 0 0 0 0 0 0 0 0 0 0 0 0 0 0 0 0 0 0 0 0 0 0 0 0 0 0 0 0 0 0 0 0 0 0 0 0 0 0 0 0 0 0 0 0 0 0 0 0 0 0 0 0 0 0 0 0 0 0 0 0 0 0 0 0 0 0 0 0 0 0 0 0 0 0 0 0 0 0 0 0 0 0 0 0 0 0 0 0 0 0 0 0 0 0
0 0 0 0 0 0 0 0 0 0 0 0 0 0 0 0 0 0 0 0 0 0 0 0 0 0 0 0 0 0 0 0 0 0 0 0 0 0 0 0 0 0 0 0 0 0 0 0 0 0 0 0 0 0 0 0 0 0 0 0 0 0 0 0 0 0 0 0 0 0 0 0 0 0 0 0 0 0 0 0 0 0 0 0 0 0 0 0 0 0 0 0 0 0 0 0 0 0 0 0 0 0 0 0 0 0 0 0 0 0 0 0 0 0 0 0 0 0 0 0
0 0 0 0 0 0 0 0 0 0 0 0 0 0 0 0 1332 1296 0 0 0 0 0 0 0 0 0 0 0 0 0 0 0 0 0 0 0 0 0 0 0 0 0 0 0 0 0 0 0 0 0 0 0 0 0 0 0 0 0 0 0 0 0 0 0 0 0 0 0 0 0 0 0 0 0 0 0 0 0 0 0 0 0 0 0 0 0 0 0 0 0 0 0 0 0 0 0 0 0 0 0 0 0 0 0 0 0 0 0 0 0 0 0 0 0 0 0 0 0 0
0 0 0 0 0 0 0 0 0 0 0 1151 1107 1145 0 0 1296 1304 1269 0 0 1282 1244 0 0 0 0 0 0 0 0 0 0 0 0 0 0 0 0 0 0 0 0 0 0 0 0 0 0 0 0 0 0 0 0 0 0 0 0 0 0 0 0 0 0 0 0 0 0 0 0 0 0 0 0 0 0 0 0 0 0 0 0 0 0 0 0 0 0 0 0 0 0 0 0 0 0 0 0 0 0 0 0 0 0 0 0 0 0 0 0 0 0 0 0 0 0 0 0 0
0 0 0 0 0 0 0 0 1104 1153 1136 1120 1142 1186 1165 1201 1257 1269 1290 0 1279 1265 1254 0 0 0 0 0 0 0 0 0 0 0 0 0 0 0 0 0 0 0 0 0 0 0 0 0 0 0 0 0 0 0 0 0 0 0 0 0 0 0 0 0 0 0 0 0 0 0 0 0 0 0 0 0 0 0 0 0 0 0 0 0 0 0 0 0 0 0 0 0 0 0 0 0 0 0 0 0 0 0 0 0 0 0 0 0 0 0 0 0 0 0 0 0 0 0 0 0
0 0 0 0 0 0 0 1106 1131 1155 1152 0 1158 1150 1194 1224 1283 1310 1294 1263 1263 1265 1271 1302 0 0 0 0 0 0 0 0 0 0 0 0 0 0 0 0 0 0 0 0 0 0 0 0 0 0 0 0 0 0 0 0 0 0 0 0 0 0 0 0 0 0 0 0 0 0 0 0 0 0 0 0 0 0 0 0 0 0 0 0 0 0 0 0 0 0 0 0 0 0 0 0 0 0 0 0 0 0 0 0 0 0 0 0 0 0 0 0 0 0 0 0 0 0 0 0
0 0 0 0 0 0 0 0 0 0 0 0 1202 1224 1219 1255 1255 1280 1297 1278 1242 1254 1251 1271 0 0 0 0 1325 0 0 1410 0 0 0 0 0 0 0 0 0 0 0 0 0 0 0 0 0 0 0 0 0 0 0 0 0 0 0 0 0 0 0 0 0 0 0 0 0 0 0 0 0 0 0 0 0 0 0 0 0 0 0 0 0 0 0 0 0 0 0 0 0 0 0 0 0 0 0 0 0 0 0 0 0 0 0 0 0 0 0 0 0 0 0 0 0 0 0 0
0 0 0 0 0 0 0 0 0 0 0 0 1289 1275 1290 1285 1296 1266 1289 1257 1281 1273 1239 1293 1303 1352 1361 1384 1368 1360 0 1424 0 0 0 0 0 0 0 0 0 0 0 0 0 0 0 0 0 0 0 0 0 0 0 0 0 0 0 0 0 0 0 0 0 0 0 0 0 0 0 0 0 0 0 0 0 0 0 0 0 0 0 0 0 0 0 0 0 0 0 0 0 0 0 0 0 0 0 0 0 0 0 0 0 0 0 0 0 0 0 0 0 0 0 0 0 0 0 0
0 0 0 0 0 0 0 0 0 0 0 0 1250 1262 1247 1288 1296 1272 1277 1287 1250 1264 1283 1280 0 0 1361 1329 1333 1348 1341 1406 0 0 0 0 0 0 0 0 0 0 0 0 0 0 0 0 0 0 0 0 0 0 0 0 0 0 0 0 0 0 0 0 0 0 0 0 0 0 0 0 0 0 0 0 0 0 0 0 0 0 0 0 0 0 0 0 0 0 0 0 0 0 0 0 0 0 0 0 0 0 0 0 0 0 0 0 0 0 0 0 0 0 0 0 0 0 0 0
0 0 0 0 0 0 0 0 0 0 0 0 0 0 1265 1279 1283 1286 1258 1267 1235 1265 1239 1261 0 0 0 1340 1340 1369 1361 1386 0 0 0 0 0 0 0 0 0 0 0 0 0 0 0 0 0 0 0 0 0 0 0 0 0 0 0 0 0 0 0 0 0 0 0 0 0 0 0 0 0 0 0 0 0 0 0 0 0 0 0 0 0 0 0 0 0 0 0 0 0 0 0 0 0 0 0 0 0 0 0 0 0 0 0 0 0 0 0 0 0 0 0 0 0 0 0 0
0 0 0 0 0 0 0 0 0 0 0 0 0 0 0 0 0 0 0 0 0 1284 1247 1268 1311 0 0 1329 1304 1374 1368 1403 1412 0 0 0 0 0 0 0 0 0 0 0 0 0 0 0 0 0 0 0 0 0 0 0 0 0 0 0 0 0 0 0 0 0 0 0 0 0 0 0 0 0 0 0 0 0 0 0 0 0 0 0 0 0 0 0 0 0 0 0 0 0 0 0 0 0 0 0 0 0 0 0 0 0 0 0 0 0 0 0 0 0 0 0 0 0 0 0
0 0 0 0 0 0 0 0 0 0 0 0 0 0 0 0 0 0 0 0 0 0 0 1350 1317 0 0 1360 1368 1356 1346 1407 1439 0 0 0 0 0 0 0 0 0 0 0 0 0 0 0 0 0 0 0 0 0 0 0 0 0 0 0 0 0 0 0 0 0 0 0 0 0 0 0 0 0 0 0 0 0 0 0 0 0 0 0 0 0 0 0 0 0 0 0 0 0 0 0 0 0 0 0 0 0 0 0 0 0 1722 1703 0 0 0 0 0 0 0 0 0 0 0 0
0 0 0 0 0 0 0 0 0 0 0 0 0 0 0 0 0 0 0 0 0 0 0 1414 1398 1316 1341 1321 1343 1353 1344 1388 1434 0 0 0 0 0 0 0 0 0 0 0 0 0 0 0 0 0 0 0 0 0 0 0 0 0 0 0 0 0 0 0 0 0 0 0 0 0 0 0 0 0 0 0 0 0 0 0 0 0 0 0 0 0 0 0 0 0 0 0 0 0 0 0 0 0 0 0 0 0 0 0 1769 1744 1745 1682 0 0 0 0 0 0 0 0 0 0 0 0
0 0 0 0 0 0 0 0 0 0 0 0 0 0 0 0 0 0 0 0 0 0 0 1366 1358 1380 1321 1308 1344 1333 1379 1438 1404 0 0 0 0 0 0 0 0 0 0 0 0 0 0 0 0 0 0 0 0 0 0 0 0 0 0 0 0 0 0 0 0 0 0 0 0 0 0 0 0 0 0 0 0 0 0 0 0 0 0 0 0 0 0 0 0 0 0 0 0 0 0 0 0 0 0 0 0 0 0 0 0 1749 1722 0 1753 0 0 0 0 0 0 0 0 0 0 0
0 0 0 0 0 0 0 0 0 0 0 0 0 0 0 0 0 0 0 0 0 0 0 1346 1342 1360 1371 1309 1306 1295 1360 1409 1419 0 0 0 0 0 0 0 0 0 0 0 0 0 0 0 0 0 0 0 0 0 0 0 0 0 0 0 0 0 0 0 0 0 0 0 0 0 0 0 0 0 0 0 0 0 0 0 0 0 0 0 0 0 0 0 0 0 0 0 0 0 0 0 0 0 0 0 0 0 0 0 0 1729 0 1707 0 1646 0 0 0 0 0 0 0 0 0 0
0 0 0 0 0 0 0 0 0 0 0 0 0 0 0 0 0 0 0 0 0 0 0 1349 1362 1358 1376 1382 1363 1345 1344 1435 1466 0 0 0 0 0 0 0 0 0 0 0 0 0 0 0 0 0 0 0 0 0 0 0 0 0 0 0 0 0 0 0 0 0 0 0 0 0 0 0 0 0 0 0 0 0 0 0 0 0 0 0 0 0 0 0 0 0 0 0 0 0 0 0 0 0 0 0 0 0 1792 1790 0 0 1736 1731 1752 1687 0 0 0 0 0 0 0 0 0 0
1241 1269 1257 1265 1296 1304 1307 0 0 0 0 0 0 0 0 0 0 0 0 0 0 0 0 0 1354 1358 1379 1371 1353 1344 1342 1426 1427 0 0 0 0 0 0 0 0 0 0 0 0 0 0 0 0 0 0 0 0 0 0 0 0 0 0 0 0 0 0 0 0 0 0 0 0 0 0 0 0 0 0 0 0 0 0 0 0 0 0 0 0 0 0 0 0 0 0 0 0 0 0 0 0 0 0 0 0 0 1776 0 0 0 1739 1694 1694 1686 1669 0 0 0 0 0 0 0 0 0
1261 1246 1252 1290 1271 1308 1297 1320 1324 1332 1328 0 0 0 0 0 0 0 0 0 0 0 0 1379 1348 1357 1362 1375 1374 1384 1370 1399 1412 0 0 0 0 0 0 0 0 0 0 0 0 0 0 0 0 0 0 0 0 0 0 0 0 0 0 0 0 0 0 0 0 0 0 0 0 0 0 0 0 0 0 0 0 0 0 0 0 0 0 0 0 0 0 0 0 0 0 0 0 0 0 0 0 0 0 0 0 0 1816 1738 0 0 1693 1681 1696 1696 1618 1670 1621 0 0 0 0 0 0 0
1253 1285 1279 1279 1282 1295 1295 1327 1327 1333 1329 1381 1374 1389 1388 1431 1430 0 0 0 0 0 0 0 0 1418 1411 0 1386 0 0 1428 1447 0 0 0 0 0 0 0 0 0 0 0 0 0 0 0 0 0 0 0 0 0 0 0 0 0 0 0 0 0 0 0 0 0 0 0 0 0 0 0 0 0 0 0 0 0 0 0 0 0 0 0 0 0 0 0 0 0 0 0 0 0 0 0 0 0 0 0 0 1864 1781 1774 1750 1702 1696 1679 1726 1670 1669 1679 0 0 0 0 0 0 0 0
0 0 0 0 1327 1293 1302 1293 1318 1333 1320 1339 1360 1369 1363 1389 1410 1429 1438 1421 1452 0 0 0 0 0 0 0 0 0 0 1433 1425 1434 0 0 0 0 0 0 0 0 0 0 0 0 0 0 0 0 0 0 0 0 0 0 0 0 0 0 0 0 0 0 0 0 0 0 0 0 0 0 0 0 0 0 0 0 0 0 0 0 0 0 0 0 0 0 0 0 0 0 0 0 0 0 0 0 0 0 0 0 1793 1759 1714 1689 1601 1642 1601 1625 1584 1528 0 0 0 0 0 0 0 0
0 0 0 0 0 0 0 0 0 1339 1313 1306 1358 1371 1379 1380 1418 1400 1422 1446 1467 1454 0 0 0 0 0 0 0 0 0 1421 1499 1475 0 0 0 0 0 0 0 0 0 0 0 0 0 0 0 0 0 0 0 0 0 0 0 0 0 0 0 0 0 0 0 0 0 0 0 0 0 0 0 0 0 0 0 0 0 0 0 0 0 0 0 0 0 0 0 0 0 0 0 0 0 0 0 0 0 0 0 1739 1667 1681 1625 1631 1604 1582 1591 1622 1583 0 0 0 0 0 0 0 0 0
0 0 0 0 0 0 0 0 0 0 0 0 0 0 1376 1397 1384 1441 1438 1445 1469 1472 0 0 0 0 0 0 0 0 0 0 1489 0 0 0 0 0 0 0 0 0 0 0 0 0 0 0 0 0 0 0 0 0 0 0 0 0 0 0 0 0 0 0 0 0 0 0 0 0 0 0 0 0 0 0 0 0 0 0 0 0 0 0 0 0 0 0 0 0 0 0 0 0 0 0 0 0 0 1640 1622 1612 1643 1638 1637 1613 1603 1627 1581 1631 0 0 0 0 0 0 0 0 0 0
0 0 0 0 0 0 0 0 0 0 0 0 0 0 0 0 0 0 0 0 0 1464 0 0 0 0 0 0 0 0 0 0 0 0 0 0 0 0 0 0 0 0 0 0 0 0 0 0 0 0 0 0 0 0 0 0 0 0 0 0 0 0 0 0 0 0 0 0 0 0 0 0 0 0 0 0 0 0 0 0 0 0 0 0 0 0 0 0 0 0 0 0 0 0 0 0 0 1644 1647 1648 1645 1664 1637 1612 1631 1608 1626 1579 0 0 0 0 0 0 1473 1549 0 0 0 0
0 0 0 0 0 0 0 0 0 0 0 0 0 0 0 0 0 0 0 0 0 0 0 0 0 0 0 0 0 0 0 0 0 0 0 0 0 0 0 0 0 0 0 0 0 0 0 0 0 0 0 0 0 0 0 0 0 0 0 0 0 0 0 0 0 0 0 0 0 0 0 0 0 0 0 0 0 0 0 0 0 0 0 0 0 0 0 0 0 0 0 0 0 0 0 0 1683 1639 1673 1649 1632 1642 1641 1617 1618 1645 1609 0 0 0 0 0 0 1597 1526 1549 0 0 0 0
0 0 0 0 0 0 0 0 0 0 0 0 0 0 0 0 0 0 0 0 0 0 0 0 0 0 0 0 0 0 0 0 0 0 0 0 0 0 0 0 0 0 0 0 0 0 0 0 0 0 0 0 0 0 0 0 0 0 0 0 0 0 0 0 0 0 0 0 0 0 0 0 0 0 0 0 0 0 0 0 0 0 0 0 0 0 0 0 0 0 0 0 0 0 0 0 0 1693 1659 1673 1653 1644 1643 1616 1634 0 0 0 0 0 0 0 0 0 0 0 0 0 0 0
0 0 0 0 0 0 0 0 0 0 0 0 0 0 0 0 0 0 0 0 0 0 0 0 0 0 0 0 0 0 0 0 0 0 0 0 0 0 0 0 0 0 0 0 0 0 0 0 0 0 0 0 0 0 0 0 0 0 0 0 0 0 0 0 0 0 0 0 0 0 0 0 0 0 0 0 0 0 0 0 0 0 0 0 0 0 0 0 0 0 0 0 0 0 0 0 0 0 0 0 0 0 0 0 0 0 0 0 0 0 0 0 0 0 0 0 0 0 0 0
582 598 0 0 0 0 0 0 0 0 0 0 0 0 0 0 0 0 0 0 0 0 0 0 0 1864 1902 0 0 0 0 0 0 0 0 0 0 0 0 0 0 0 0 0 0 0 0 2869 2831 2864 2873 2925 2914 2914 2900 2845 2837 2859 2899 2827 2856 2923 2893 2846 2886 2890 0 0 0 0 0 0 0 0 0 0 0 0 0 0 0 0 0 0 0 0 0 0 0 0 0 0 0 0 0 0 0 0 0 0 0 0 0 0 0 0 0 0 0 0 0 0 0 0 0 0 0 0 0 0
580 590 601 587 636 666 0 0 0 0 0 0 0 0 0 0 0 0 0 0 0 0 0 0 0 0 1876 1832 1905 0 0 0 0 0 0 0 0 0 0 0 0 0 0 0 0 0 0 2858 2902 2901 2902 2868 2857 2898 2836 2901 2885 2834 2890 2886 2927 2870 2873 2911 2858 2870 0 0 0 0 0 0 0 0 0 0 0 0 0 0 0 0 0 0 0 0 0 0 0 0 0 0 0 0 0 0 0 0 0 0 0 0 0 0 0 0 0 0 0 0 0 0 0 0 0 0 0 0 0 0
586 573 578 612 619 618 635 641 647 0 0 0 0 0 0 0 0 0 0 0 0 0 0 0 0 0 0 0 0 0 0 0 0 0 0 0 0 0 0 0 0 0 0 0 0 0 0 2875 2885 2887 2891 2912 2892 2867 2901 2912 2862 2896 2840 2903 2892 2875 2859 2876 2874 0 0 0 0 0 0 0 0 0 0 0 0 0 0 0 0 0 0 0 0 0 0 0 0 0 0 0 0 0 0 0 0 0 0 0 0 0 0 0 0 0 0 0 0 0 0 0 0 0 0 0 0 0 0 0
587 599 613 611 639 628 636 676 677 690 704 722 0 0 0 0 0 0 0 0 0 0 0 0 0 0 0 0 0 0 0 0 0 0 0 0 0 0 0 0 0 0 0 0 0 0 0 2939 2891 2910 2912 2872 2861 2837 2880 2849 2898 2889 2893 2930 2872 2871 2892 2815 2850 0 0 0 0 0 0 0 0 0 0 0 0 0 0 0 0 0 0 0 0 0 0 0 0 0 0 0 0 0 0 0 0 0 0 0 0 0 0 0 0 0 0 0 0 0 0 0 0 0 0 0 0 0 0 0
565 594 575 585 620 624 636 655 661 652 682 696 709 701 725 0 0 0 0 0 0 0 0 0 0 0 0 0 0 0 0 0 0 0 0 0 0 0 0 0 0 0 0 0 0 0 0 2913 2939 2887 2918 2972 2941 2965 2928 2912 2923 2907 2891 2964 2932 2880 2912 2872 2904 0 0 0 0 0 0 0 0 0 0 0 0 0 0 0 0 0 0 0 0 0 0 0 0 0 0 0 0 0 0 0 0 0 0 0 0 0 0 0 0 0 0 0 0 0 0 0 0 0 0 0 0 0 0 0
736 744 765 733 709 661 635 669 647 653 664 691 704 749 753 751 771 784 0 0 0 0 0 0 0 0 0 0 0 0 0 0 0 0 0 0 0 0 0 0 0 0 0 0 0 0 0 2994 2938 2945 2934 2933 2918 2958 2943 2954 2969 2937 2920 2954 2924 2908 2872 2924 2942 2926 0 0 0 0 0 0 0 0 0 0 0 0 0 0 0 0 0 0 0 0 0 0 0 0 0 0 0 0 0 0 0 0 0 0 0 0 0 0 0 0 0 0 0 0 0 0 0 0 0 0 0 0 0 0
764 810 811 811 816 826 812 858 833 793 761 700 699 713 723 761 758 777 791 833 838 0 0 0 0 0 0 0 0 0 0 0 0 0 0 0 0 0 0 0 0 0 0 0 0 0 0 2945 2955 2941 2921 2943 2894 2903 2949 2891 2888 2916 2912 2907 2889 2899 2868 2933 2896 2870 0 0 0 0 0 0 0 0 0 0 0 0 0 0 0 0 0 0 0 0 0 0 0 0 0 0 0 0 0 0 0 0 0 0 0 0 0 0 0 0 0 0 0 0 0 0 0 0 0 0 0 0 0 0
727 788 799 825 842 843 857 869 881 905 900 923 925 894 831 769 759 769 781 817 839 814 870 863 0 0 0 0 0 0 0 0 0 0 0 0 0 0 0 0 0 0 0 0 0 0 0 2941 2935 2931 2966 2910 2933 2908 2929 2931 2964 2910 2933 2918 2969 2911 2948 2917 2907 2920 0 0 0 0 0 0 0 0 0 0 0 0 0 0 0 0 0 0 0 0 0 0 0 0 0 0 0 0 0 0 0 0 0 0 0 0 0 0 0 0 0 0 0 0 0 0 0 0 0 0 0 0 0 0
675 0 874 868 868 870 906 898 917 941 945 963 966 970 957 968 952 944 916 886 859 858 902 920 949 957 1007 0 0 0 0 0 0 0 0 0 0 0 0 0 0 0 0 0 0 0 0 2874 2879 2851 2889 2837 2875 2839 2885 2858 2843 2845 2838 2844 2811 2838 2883 2840 2876 2860 0 0 0 0 0 0 0 0 0 0 0 0 0 0 0 0 0 0 0 0 0 0 0 0 0 0 0 0 0 0 0 0 0 0 0 0 0 0 0 0 0 0 0 0 0 0 0 0 0 0 0 0 0 0
672 925 932 934 927 977 895 907 909 947 935 951 952 960 963 951 948 962 949 958 945 937 924 917 907 947 951 976 987 0 0 0 0 0 0 0 0 0 0 0 0 0 0 0 0 0 0 2876 2904 2916 2884 2871 2885 2834 2830 2872 2845 2873 2906 2869 2870 2865 2880 2888 2860 0 0 0 0 0 0 0 0 0 0 0 0 0 0 0 0 0 0 0 0 0 0 0 0 0 0 0 0 0 0 0 0 0 0 0 0 0 0 0 0 0 0 0 0 0 0 0 0 0 0 0 0 0 0 0
573 703 0 0 0 0 0 0 0 0 972 1012 968 973 972 982 971 949 943 960 956 951 968 949 946 972 1003 991 978 1048 1046 0 0 0 0 0 0 0 0 0 0 0 0 0 0 0 0 2913 2884 2895 2891 2932 2915 2932 2841 2919 2858 2889 2915 2908 2880 2889 2924 2883 2889 2836 0 0 0 0 0 0 0 0 0 0 0 0 0 0 0 0 0 0 0 0 0 0 0 0 0 0 0 0 0 0 0 0 0 0 0 0 0 0 0 0 0 0 0 0 0 0 0 0 0 0 0 0 0 0
604 602 660 0 1128 1145 1160 1151 1152 1138 1157 1149 1156 1160 1158 1144 1131 1049 0 0 1025 1084 1070 1003 1036 1032 1121 1130 1101 1099 1118 0 0 0 0 0 0 0 0 0 0 0 0 0 0 0 0 2917 2892 2891 2878 2880 2900 2905 2849 2844 2864 2879 2871 2854 2912 2856 2850 2850 2862 0 0 0 0 0 0 0 0 0 0 0 0 0 0 0 0 0 0 0 0 0 0 0 0 0 0 0 0 0 0 0 0 0 0 0 0 0 0 0 0 0 0 0 0 0 0 0 0 0 0 0 0 0 0 0
601 574 594 604 0 0 0 0 0 0 0 0 0 0 0 0 1383 979 996 0 1101 1140 1094 0 0 1082 1144 1150 1144 1153 1098 0 0 0 0 0 0 0 0 0 0 0 0 0 0 0 0 2914 2900 2828 2918 2932 2889 2885 2931 2862 2891 2904 2889 2844 2877 2900 2884 2878 2903 2953 0 0 0 0 0 0 0 0 0 0 0 0 0 0 0 0 0 0 0 0 0 0 0 0 0 0 0 0 0 0 0 0 0 0 0 0 0 0 0 0 0 0 0 0 0 0 0 0 0 0 0 0 0 0
571 602 580 602 598 0 0 0 0 0 0 0 0 0 0 0 0 964 972 0 0 0 0 0 0 0 0 0 0 0 0 0 0 0 0 0 0 0 0 0 0 0 0 0 0 0 0 2924 2960 2923 2976 2957 2971 2978 2913 2888 2903 2952 2915 2934 2907 2945 2924 2908 2927 0 0 0 0 0 0 0 0 0 0 0 0 0 0 0 0 0 0 0 0 0 0 0 0 0 0 0 0 0 0 0 0 0 0 0 0 0 0 0 0 0 0 0 0 0 0 0 0 0 0 0 0 0 0 0
570 565 581 605 624 570 0 0 0 0 0 0 0 0 0 0 0 0 0 0 0 0 0 0 0 0 0 0 0 0 0 0 0 0 0 0 0 0 0 0 0 0 0 0 0 0 0 2920 2936 2879 2949 2966 2923 2956 2946 2938 2928 2952 2936 2923 2968 2975 2883 2935 2917 0 0 0 0 0 0 0 0 0 0 0 0 0 0 0 0 0 0 0 0 0 0 0 0 0 0 0 0 0 0 0 0 0 0 0 0 0 0 0 0 0 0 0 0 0 0 0 0 0 0 0 0 0 0 0
588 581 585 600 580 579 0 0 0 0 0 0 0 0 0 0 0 0 0 0 0 0 930 0 0 0 0 0 0 0 0 0 0 0 0 0 0 0 0 0 0 0 0 0 0 0 0 2915 2953 2975 2981 2909 2936 2919 2880 2896 2961 2894 2935 2896 2923 2893 2930 2924 2896 0 0 0 0 0 0 0 0 0 0 0 0 0 0 0 0 0 0 0 0 0 0 0 0 0 0 0 0 0 0 0 0 0 0 0 0 0 0 0 0 0 0 0 0 0 0 0 0 0 0 0 0 0 0 0
613 614 583 601 608 582 634 0 0 0 0 0 0 0 0 0 0 0 0 0 0 0 0 0 0 0 0 0 0 0 0 0 0 0 0 0 0 0 0 0 0 0 0 0 0 0 0 2900 2893 2894 2885 2952 2914 2906 2938 2946 2853 2910 2884 2898 2854 2901 2885 2935 2847 0 0 0 0 0 0 0 0 0 0 0 0 0 0 0 0 0 0 0 0 0 0 0 0 0 0 0 0 0 0 0 0 0 0 0 0 0 0 0 0 0 0 0 0 0 0 0 0 0 0 0 0 0 0 0
587 583 584 612 618 610 596 0 0 0 0 0 0 0 0 0 0 0 0 0 0 0 0 0 0 0 0 0 0 0 0 0 0 0 0 0 0 0 0 0 0 0 0 0 0 0 0 2889 2867 2930 2881 2880 2898 2835 2874 2937 2875 2888 2887 2913 2858 2864 2871 2890 2872 2838 0 0 0 0 0 0 0 0 0 0 0 0 0 0 0 0 0 0 0 0 0 0 0 0 0 0 0 0 0 0 0 0 0 0 0 0 0 0 0 0 0 0 0 0 0 0 0 0 0 0 0 0 0 0
594 592 615 600 605 573 600 0 0 0 0 0 0 0 0 0 2297 0 0 0 0 0 937 967 0 0 0 0 0 0 0 0 0 0 0 0 0 0 0 0 0 0 0 0 0 0 0 2890 2938 2912 2866 2906 2916 2899 2843 2868 2844 2881 2905 2882 2889 2882 2896 2873 2845 2828 0 0 0 0 0 0 0 0 0 0 0 0 0 0 0 0 0 0 0 0 0 0 0 0 0 0 0 0 0 0 0 0 0 0 0 0 0 0 0 0 0 0 0 0 0 0 0 0 0 0 0 0 0 0
589 574 608 603 616 648 648 0 0 0 0 0 0 0 0 0 0 0 0 0 0 0 0 0 0 0 0 0 0 0 0 0 0 0 0 0 0 0 0 0 0 0 0 0 0 0 0 2916 2874 2888 2909 2921 2900 2906 2846 2844 2892 2864 2885 2898 2863 2862 2859 2890 2867 2848 0 0 0 0 0 0 0 0 0 0 0 0 0 0 0 0 0 0 0 0 0 0 0 0 0 0 0 0 0 0 0 0 0 0 0 0 0 0 0 0 0 0 0 0 0 0 0 0 0 0 0 0 0 0
603 565 599 642 579 599 0 0 0 0 0 0 0 0 0 0 0 0 0 0 0 0 0 0 0 0 0 0 0 0 0 0 0 0 0 0 0 0 0 0 0 0 0 0 0 0 0 0 0 0 0 0 0 0 0 0 0 0 0 0 0 0 3012 2898 2918 0 0 0 0 0 0 0 0 0 0 0 0 0 0 0 0 0 0 0 0 0 0 0 0 0 0 0 0 0 0 0 0 0 0 0 0 0 0 0 0 0 0 0 0 0 0 0 0 0 0 0 0 0 0 0
620 587 585 591 583 569 0 0 0 0 0 0 0 0 0 0 0 0 0 0 0 0 0 0 0 0 0 0 0 0 0 0 0 0 0 0 0 0 0 0 0 0 0 0 0 0 0 0 0 0 0 0 0 0 0 0 0 0 0 0 0 0 0 0 0 0 0 0 0 0 0 0 0 0 0 0 0 0 0 0 0 0 0 0 0 0 0 0 0 0 0 0 0 0 0 0 0 0 0 0 0 0 0 0 0 0 0 0 0 0 0 0 0 0 0 0 0 0 0 0
578 590 589 577 591 0 0 0 0 0 0 0 0 0 0 0 0 0 0 0 0 0 0 0 0 0 0 0 0 0 0 0 0 0 0 0 0 0 0 0 0 0 0 0 0 0 0 0 0 0 0 0 0 0 0 0 0 0 0 0 0 0 0 0 0 0 0 0 0 0 0 0 0 0 0 0 0 0 0 0 0 0 0 0 0 0 0 0 0 0 0 0 0 0 0 0 0 0 0 0 0 0 0 0 0 0 0 0 0 0 0 0 0 0 0 0 0 0 0 0
601 587 570 594 554 0 0 0 0 0 0 0 0 0 0 0 0 0 0 0 0 0 0 0 0 0 0 0 0 0 0 0 0 0 0 0 0 0 0 0 0 0 0 0 0 0 0 0 0 0 0 0 0 0 0 0 0 0 0 0 0 0 0 0 0 0 0 0 0 0 0 0 0 0 0 0 0 0 0 0 0 0 0 0 0 0 0 0 0 0 0 0 0 0 0 0 0 0 0 0 0 0 0 0 0 0 0 0 0 0 0 0 0 0 0 0 0 0 0 0
609 587 653 622 0 0 0 0 0 0 0 0 0 0 0 0 0 0 0 0 0 0 0 0 0 0 893 926 914 897 921 891 866 883 907 925 0 938 932 939 0 950 0 0 0 0 0 0 0 0 0 0 0 0 0 0 0 0 0 0 0 0 0 0 0 0 0 0 0 0 0 0 0 0 0 0 0 0 0 0 0 0 0 0 0 0 0 0 0 0 0 0 0 0 0 0 0 0 0 0 0 0 0 0 0 0 0 0 0 0 0 0 0 0 0 0 0 0 0 0
569 622 0 0 0 0 0 738 717 707 660 727 709 729 726 703 703 693 678 742 745 736 714 690 716 722 725 762 739 699 751 752 711 694 776 747 752 741 739 758 781 743 758 778 776 769 751 759 740 806 756 756 796 770 775 798 818 818 809 768 798 809 793 809 797 758 812 789 825 784 806 795 806 0 0 0 0 0 0 772 0 0 0 0 0 0 0 0 0 0 0 0 0 0 0 0 0 0 0 0 0 0 0 0 0 0 0 0 0 0 0 0 0 0 0 0 0 0 0 0
566 552 588 575 578 558 571 579 586 558 555 584 560 622 567 593 559 601 584 605 597 591 588 592 591 595 591 617 615 589 586 620 621 612 624 611 622 617 594 606 611 625 594 599 631 639 616 635 625 637 644 641 628 668 675 623 629 632 671 642 605 668 605 642 658 688 660 623 661 657 680 662 683 690 639 659 641 704 658 715 653 684 670 698 660 697 701 681 717 667 673 719 680 764 700 0 715 692 711 708 711 694 0 0 0 0 0 0 0 0 0 0 0 0 0 0 0 0 0 0
506 520 494 514 542 506 509 515 497 493 494 512 502 512 499 523 498 510 521 521 509 511 522 521 511 529 526 513 507 527 513 510 531 527 543 531 533 521 537 521 526 545 534 517 567 523 532 531 554 528 527 539 548 537 552 561 519 544 546 539 535 562 570 557 560 566 534 579 539 560 547 564 562 562 554 540 565 556 564 568 546 575 562 562 563 621 620 586 631 570 566 566 597 589 624 603 604 569 591 624 605 603 607 638 0 639 0 569 635 611 0 0 0 0 0 0 0 0 0 0
371 379 423 425 430 417 441 417 433 446 438 430 446 452 453 429 427 446 430 457 453 458 446 455 447 466 447 459 453 454 451 449 474 455 457 468 452 451 463 465 475 468 474 467 458 476 467 458 466 475 473 457 472 475 482 454 475 472 465 486 474 458 472 467 473 456 470 478 484 475 489 490 492 488 481 481 482 475 475 478 494 485 489 455 478 471 473 488 526 513 491 493 500 479 477 492 463 494 480 501 465 487 485 478 477 499 495 497 495 527 501 496 460 0 0 0 0 0 0 0
375 381 377 387 375 392 384 374 393 386 393 393 398 394 403 390 386 389 409 406 406 405 404 398 415 402 408 404 401 417 404 415 404 419 416 419 400 411 423 409 409 405 405 419 433 411 411 410 424 418 426 423 417 421 425 415 425 434 416 423 423 421 416 417 426 417 405 420 428 424 431 429 431 409 423 409 419 430 410 416 423 422 415 439 427 421 430 424 415 422 419 428 426 429 435 440 435 436 444 445 417 434 422 411 418 434 413 427 430 433 432 390 434 400 0 0 0 0 0 0
351 351 345 347 356 358 351 355 355 345 370 345 359 365 349 357 351 365 360 351 370 369 362 366 363 362 375 359 362 356 376 380 353 368 374 367 380 366 361 369 372 362 370 383 365 366 381 377 376 394 387 385 384 370 374 381 369 374 359 403 381 382 376 382 380 387 396 384 396 383 386 383 379 397 374 385 388 384 380 387 403 381 385 384 385 397 366 400 390 392 389 397 396 389 392 394 387 408 380 378 391 382 396 388 399 378 397 383 407 378 389 396 395 380 400 376 0 0 0 0
312 318 320 328 332 313 325 320 335 330 324 324 340 309 336 338 322 328 326 322 331 328 328 338 336 332 326 324 336 345 329 331 323 340 328 340 334 334 337 339 332 332 335 333 332 325 335 339 337 349 338 338 336 347 338 346 341 337 347 347 344 349 336 337 348 328 337 339 333 348 354 359 344 340 349 335 335 340 344 349 339 339 348 349 336 354 348 343 341 346 347 351 356 344 347 355 324 355 338 345 343 345 338 373 342 347 363 363 372 355 347 346 352 354 361 315 294 0 0 0
285 302 299 296 300 298 300 300 300 303 300 305 300 307 310 300 313 308 309 296 295 286 302 319 292 306 307 302 294 321 305 303 305 304 310 303 311 299 313 309 312 320 309 310 313 307 309 313 317 308 302 315 326 302 314 315 318 312 316 314 312 301 309 317 306 322 318 317 314 312 314 310 315 320 312 331 310 306 316 324 326 323 319 325 310 336 322 331 319 316 325 325 320 326 330 329 322 347 340 331 335 324 353 350 330 332 335 335 321 344 332 314 352 318 320 348 351 306 345 0
290 266 279 282 289 281 277 280 276 287 277 288 278 293 286 285 282 281 280 288 287 281 285 279 280 274 287 287 293 277 273 287 286 278 284 274 287 283 291 291 283 287 286 276 283 285 292 289 276 287 289 290 291 284 286 283 286 291 286 293 288 287 293 293 289 287 295 293 292 293 289 291 296 288 296 294 282 285 287 298 297 291 292 296 296 297 290 304 296 307 302 291 299 303 302 311 287 297 299 293 301 305 300 305 297 301 304 317 315 306 308 314 313 316 323 302 324 330 343 337
253 252 258 263 256 252 254 250 249 256 250 260 245 256 255 255 263 254 258 261 258 258 257 254 257 259 262 254 251 251 262 266 260 261 251 258 260 260 266 261 262 256 262 264 265 269 263 263 271 268 267 262 263 269 269 263 266 266 264 267 268 264 259 264 272 266 263 259 271 268 271 265 266 269 268 264 271 267 270 267 262 263 272 267 265 270 275 270 260 262 263 265 271 271 263 268 270 273 269 266 273 269 278 273 290 293 281 274 269 280 270 278 279 313 259 259 260 263 291 236
238 235 247 238 234 231 235 237 236 228 236 246 238 248 246 243 242 235 252 245 231 242 247 237 241 243 234 244 240 241 245 244 246 246 241 251 245 244 243 252 249 239 244 250 250 251 248 246 242 250 248 254 248 255 248 245 246 249 251 261 247 256 252 251 250 252 252 250 246 252 256 252 248 250 255 254 247 247 245 251 256 258 248 248 249 259 249 248 243 253 255 252 253 249 260 261 250 248 248 260 261 250 263 252 254 259 258 260 255 250 255 256 269 269 241 230 283 263 294 234
214 217 217 213 216 230 224 218 220 214 218 223 224 235 220 233 216 228 225 223 225 224 226 231 225 225 223 221 230 223 222 227 234 230 235 231 230 228 229 244 229 230 227 227 227 234 230 240 231 236 232 229 230 235 230 229 229 230 242 230 236 231 232 231 235 232 232 234 230 234 235 231 230 232 229 244 238 229 235 234 234 231 228 233 236 229 229 237 236 232 232 233 237 232 223 226 230 243 239 234 239 234 233 243 240 235 231 237 230 243 230 237 233 240 237 227 243 235 212 229
202 211 217 217 215 200 200 206 208 211 210 208 206 218 206 210 206 208 215 216 215 207 215 210 213 211 209 199 213 199 215 215 198 212 217 198 221 223 196 198 199 197 214 218 202 198 203 205 215 205 202 217 222 199 204 217 220 202 219 220 221 207 222 220 202 222 218 219 206 225 200 216 218 219 217 221 217 196 218 217 219 215 221 229 214 218 220 212 219 212 215 217 216 210 220 210 225 217 211 217 220 218 216 216 226 216 218 219 225 210 213 216 226 222 200 207 194 205 228 219
190 194 199 197 203 205 202 200 186 180 182 186 186 194 189 203 192 189 193 187 188 193 195 186 187 183 194 191 186 190 193 211 189 184 195 189 191 188 194 194 199 193 198 198 197 192 190 190 197 192 192 194 191 199 195 200 194 202 204 193 196 193 196 200 192 197 197 202 198 194 191 200 198 194 195 189 198 193 197 195 189 196 201 198 215 200 196 189 191 222 191 197 190 191 191 192 208 208 210 196 213 208 207 208 211 208 209 211 204 212 202 209 202 207 213 209 208 205 209 203
174 175 190 191 175 177 179 181 180 177 181 179 186 180 184 183 181 185 189 188 189 186 182 186 179 189 189 191 186 192 194 183 189 193 194 192 194 190 188 187 195 194 198 199 187 197 191 195 194 199 192 196 194 198 190 199 190 196 198 191 192 198 195 197 195 196 200 196 198 198 197 194 190 199 192 196 198 191 195 191 195 197 189 196 187 187 191 190 184 185 189 184 189 191 191 186 191 181 186 181 181 185 188 185 184 181 188 181 192 204 183 174 178 172 184 182 205 191 196 174
176 169 175 178 180 180 174 189 173 183 183 178 182 185 183 180 184 186 184 185 187 182 188 187 183 187 185 189 189 192 186 187 185 187 186 185 182 187 186 185 184 185 190 191 188 187 185 194 188 186 188 188 189 188 193 191 190 195 185 185 182 188 189 190 192 194 188 190 187 187 192 187 192 188 185 185 186 190 193 193 195 189 187 190 193 190 185 187 188 193 185 192 190 190 180 190 188 187 186 186 185 181 185 180 177 185 185 177 185 176 179 172 186 199 179 180 181 196 179 197
170 171 160 173 167 169 167 174 170 169 171 177 176 173 172 175 177 177 181 182 179 175 173 172 171 167 182 175 174 179 175 182 173 174 176 173 181 172 178 171 176 180 187 183 183 186 181 183 186 185 184 180 185 184 181 183 186 183 178 178 178 181 185 177 177 180 185 187 182 178 181 180 180 187 182 182 183 182 181 184 183 186 178 181 180 180 177 177 185 183 182 176 182 179 177 176 177 181 182 180 182 182 187 178 183 177 173 178 180 178 179 177 175 173 177 170 169 191 172 181
162 166 163 164 161 168 159 160 168 166 170 167 165 173 165 170 175 169 174 168 167 168 166 168 166 162 168 170 174 175 178 170 170 169 168 166 170 165 169 169 167 172 172 173 179 169 168 169 179 172 171 170 172 178 170 171 169 172 175 173 168 171 169 173 174 176 178 171 171 166 172 172 168 172 174 176 172 178 174 175 171 169 174 169 166 172 175 170 174 170 171 172 166 174 166 170 169 175 167 181 172 170 179 178 184 172 167 172 168 170 170 172 177 176 165 178 169 170 151 168
157 161 165 157 160 160 163 157 158 158 164 156 163 163 158 164 163 164 167 169 159 168 167 164 162 160 160 157 162 163 163 168 162 164 159 159 160 159 161 157 163 169 162 166 162 165 166 161 167 169 164 166 167 161 168 168 164 165 165 170 161 166 164 164 168 162 165 167 170 163 164 163 167 164 168 167 169 165 166 173 161 162 167 168 158 169 168 162 166 162 165 167 162 164 165 170 160 157 164 166 165 166 159 173 160 161 160 161 162 160 165 174 173 160 174 164 173 159 175 158
142 146 149 143 148 151 146 150 145 154 149 146 150 153 155 148 149 158 160 162 154 155 151 153 150 163 151 158 154 158 154 158 159 155 158 159 156 155 149 156 156 157 157 152 158 153 157 153 154 160 153 159 157 160 162 155 155 158 163 160 162 157 154 159 162 156 157 158 156 158 158 158 160 155 160 161 163 160 160 150 159 158 151 150 149 156 153 156 160 160 155 152 154 155 161 154 152 152 154 159 152 153 156 158 156 153 154 155 155 161 151 152 144 162 154 162 152 148 155 145
135 139 143 144 147 142 140 140 145 144 146 147 144 142 141 146 142 150 141 149 151 145 153 150 149 148 147 152 148 148 146 141 149 146 149 150 150 154 146 148 151 155 150 150 146 145 148 151 148 150 153 148 153 152 152 150 148 151 158 155 152 152 147 152 150 150 150 153 153 150 149 149 146 153 154 152 156 155 154 153 152 152 150 149 146 157 151 151 155 150 152 152 151 152 159 147 144 152 148 151 153 149 154 153 152 144 145 147 150 145 148 142 152 146 150 137 149 146 148 130
133 137 133 140 136 137 135 141 139 138 142 142 142 137 139 143 144 138 143 143 140 144 143 147 137 141 150 144 141 140 138 141 138 144 140 141 131 142 146 145 143 148 147 148 148 145 141 141 146 144 143 147 146 147 142 146 144 146 146 149 147 141 142 147 148 145 147 142 142 144 147 145 140 149 147 149 149 154 150 147 141 143 146 140 143 142 147 147 151 146 148 146 144 146 150 148 139 142 150 146 142 144 148 139 137 145 144 142 143 144 136 142 141 136 145 150 147 135 140 140
131 135 130 133 133 140 137 140 135 138 137 0 132 134 134 139 139 137 140 138 145 141 138 139 140 143 147 139 141 139 138 138 133 128 131 139 132 128 128 130 130 142 140 139 139 141 127 141 128 127 132 141 143 140 145 145 145 144 143 132 130 131 133 150 143 130 142 143 135 138 129 131 127 142 141 145 144 142 140 147 146 138 140 130 142 141 141 137 139 132 128 141 145 138 140 141 139 140 140 144 138 140 142 138 136 131 130 139 147 136 135 134 136 135 134 141 134 130 128 138
130 125 130 132 138 136 143 131 132 139 134 134 139 136 138 135 129 140 137 132 141 143 137 139 142 139 141 138 137 124 127 124 129 128 127 128 125 131 127 130 141 131 139 139 0 139 128 130 129 126 126 142 131 132 0 141 0 131 132 129 136 125 135 128 130 130 140 126 142 128 126 121 127 129 126 128 134 131 130 125 123 139 126 138 138 139 140 126 141 143 134 139 138 136 136 124 142 143 143 141 141 122 127 143 127 135 134 133 135 135 135 134 138 137 142 139 128 139 109 140
117 106 111 106 126 133 144 131 126 116 122 117 120 132 125 125 121 124 123 122 120 126 124 126 125 141 128 137 0 129 126 122 116 122 118 119 126 125 124 122 125 131 128 132 0 0 128 125 130 120 125 121 130 126 124 129 131 129 129 122 121 121 126 125 126 128 128 133 120 124 128 129 121 127 117 123 119 131 125 126 124 124 121 124 119 120 124 127 123 129 122 123 123 134 122 119 125 139 127 128 131 119 120 132 114 116 114 116 115 130 126 130 144 138 149 134 114 135 141 138
108 126 121 108 110 117 129 112 128 109 122 117 114 122 119 114 112 122 121 120 123 122 126 119 120 118 125 127 124 123 126 0 123 124 114 116 118 120 0 121 128 126 0 0 0 0 121 125 122 124 120 119 121 122 123 124 121 121 123 121 124 120 117 122 124 126 123 121 121 118 119 120 126 119 118 115 115 126 124 125 116 116 122 122 117 118 127 118 122 121 119 114 117 119 120 115 126 125 124 123 117 117 122 117 111 113 124 115 118 134 114 134 132 132 112 120 120 105 106 115
110 99 114 116 115 109 116 116 110 108 120 114 111 111 114 115 115 118 117 117 115 112 113 117 115 113 121 115 118 118 124 0 118 116 109 112 112 0 118 117 121 0 0 121 125 0 124 118 114 111 117 117 120 119 118 118 123 115 116 118 122 118 121 118 117 121 120 121 116 118 116 117 113 112 120 118 117 118 115 120 113 119 116 118 117 112 117 119 113 123 114 116 122 118 107 120 125 121 110 115 117 120 119 110 118 109 127 115 108 119 126 115 136 116 138 133 115 115 110 139
95 101 104 102 96 103 112 109 101 111 108 106 107 115 119 115 117 107 105 108 115 113 113 106 108 109 114 119 114 111 116 115 110 113 116 110 105 113 0 112 117 113 109 106 108 111 118 0 115 0 113 109 117 116 0 0 107 110 119 114 122 116 106 107 105 111 108 109 117 113 110 107 106 100 103 105 105 107 111 114 108 107 105 112 113 105 110 110 105 115 105 102 96 111 113 112 113 107 104 104 106 107 113 108 109 112 101 110 111 118 105 117 97 117 102 123 98 83 110 90
101 96 104 104 104 105 110 108 108 105 109 109 111 110 116 113 107 105 110 102 106 92 105 107 114 110 109 112 102 119 110 107 105 104 111 111 113 0 105 107 104 107 111 102 104 107 105 107 112 0 110 113 110 115 109 113 109 104 110 110 106 109 113 0 113 106 109 109 110 105 103 100 104 110 102 98 101 99 102 108 107 103 107 109 101 104 97 107 106 101 100 113 101 101 98 106 99 106 112 110 103 110 104 114 107 101 106 104 90 104 99 108 112 101 99 97 103 96 96 134
82 89 111 107 98 92 94 93 93 89 102 100 96 96 101 103 99 104 103 96 106 101 92 99 98 104 104 97 99 106 109 104 102 102 104 99 104 106 107 100 105 103 101 96 90 100 102 104 101 100 104 104 103 107 106 103 98 103 104 103 101 107 106 0 111 104 0 111 102 104 101 100 98 107 102 108 98 103 0 98 0 106 95 98 97 102 94 99 98 99 98 102 96 96 96 90 95 98 104 98 99 100 96 99 97 104 86 92 86 86 98 90 93 117 104 81 88 104 102 113
84 93 82 91 92 92 95 88 97 87 96 98 98 95 98 94 95 93 104 99 99 89 92 95 94 95 102 101 100 98 102 105 104 103 103 102 98 101 102 98 102 99 101 93 102 98 101 101 100 102 106 98 99 103 92 103 96 104 104 98 110 100 111 103 111 100 104 106 103 101 104 100 100 101 100 97 103 98 100 100 0 103 93 89 95 97 98 109 95 98 103 93 101 98 97 98 92 94 87 103 92 94 102 88 98 101 99 96 102 94 91 84 101 89 89 114 105 87 82 97
90 99 91 99 91 98 92 87 91 91 92 91 97 90 96 91 91 92 101 107 103 95 82 89 96 93 97 96 88 98 93 101 102 97 97 100 97 99 97 106 96 93 95 88 99 94 97 99 92 101 98 96 99 91 93 102 91 96 96 101 98 98 103 0 99 101 95 99 97 93 95 104 102 103 89 105 98 95 100 100 88 99 87 104 101 101 97 94 90 93 90 92 94 80 88 87 95 89 105 90 88 95 96 95 95 99 104 77 91 89 84 90 95 84 103 92 109 111 90 77
86 80 80 89 77 87 87 87 84 81 84 88 96 90 86 93 89 91 81 94 87 93 90 86 90 94 97 94 91 96 93 92 99 95 88 92 86 91 93 96 96 86 88 86 94 94 88 89 91 99 93 93 99 98 89 89 96 93 98 93 91 92 97 93 94 91 93 90 92 89 98 96 91 90 98 96 91 87 90 95 95 91 93 89 91 85 85 96 94 92 85 89 96 90 91 94 84 94 85 92 94 85 93 82 92 85 92 88 88 90 87 77 89 89 80 81 76 98 83 100
94 77 88 82 92 83 92 99 90 90 90 89 90 90 91 91 92 91 92 87 93 95 87 95 90 91 93 87 89 87 90 91 93 88 94 85 93 90 88 93 92 98 97 94 95 95 93 91 91 93 100 98 95 91 96 92 99 89 94 91 90 88 90 90 97 97 88 98 89 93 99 86 93 90 96 97 94 94 83 94 95 85 94 97 96 88 91 93 92 90 94 94 102 89 90 96 90 93 87 101 88 92 92 93 85 92 98 88 88 86 85 86 82 83 89 92 83 115 0 0
78 89 85 87 94 95 90 85 85 0 84 81 85 88 81 84 91 85 86 84 91 94 87 90 88 94 95 88 93 94 90 93 93 96 91 90 86 95 95 95 85 88 94 87 97 87 94 97 88 85 99 96 89 96 98 97 88 95 95 94 91 96 93 98 90 99 97 95 94 96 98 84 85 85 94 90 85 93 96 96 94 92 90 92 94 88 95 97 99 93 85 101 104 84 88 90 88 94 91 87 83 88 92 88 82 87 96 87 99 80 89 88 86 86 88 80 108 99 106 0
77 78 76 88 81 91 90 85 83 78 81 80 89 91 89 87 84 85 81 92 87 89 89 85 84 79 88 84 93 88 87 86 92 89 87 91 92 88 86 89 90 88 97 96 97 88 92 91 90 87 94 91 92 88 95 94 95 95 97 97 86 91 89 89 88 94 85 84 93 91 92 98 91 93 87 86 91 96 89 90 88 91 93 91 85 90 90 88 89 93 93 90 87 87 85 78 89 82 92 90 80 80 86 88 84 82 89 81 74 79 83 93 88 84 86 82 76 115 0 0
78 75 82 79 86 85 86 94 78 89 89 88 85 91 78 88 81 90 87 89 89 92 87 82 80 94 86 82 87 92 86 86 89 88 93 83 86 90 85 90 97 85 84 95 91 91 94 90 89 94 89 87 92 86 82 84 92 91 81 86 89 89 84 97 88 91 89 89 90 93 88 85 93 90 94 84 86 92 94 83 87 86 86 82 91 88 90 92 95 91 89 87 77 88 85 82 87 90 84 78 83 89 88 82 75 93 90 85 83 77 81 90 90 88 79 0 0 0 0 0
76 67 65 56 76 77 88 82 84 76 86 72 72 81 84 77 80 76 73 78 85 76 82 72 73 75 76 84 77 77 90 73 76 80 83 74 81 77 81 76 82 80 81 71 79 83 80 86 85 78 86 76 75 86 77 76 89 84 80 76 87 75 77 81 80 81 69 78 77 79 83 79 80 73 76 77 77 83 87 84 75 81 71 79 72 85 82 76 80 82 81 69 83 74 79 79 69 87 59 75 61 74 74 60 71 70 85 78 71 87 74 51 73 70 70 52 0 0 0 0
70 66 78 79 63 81 84 86 83 77 80 84 68 75 75 80 88 83 76 78 83 83 71 80 86 78 73 69 79 84 83 90 72 84 80 74 75 76 82 79 85 81 85 85 84 82 77 79 81 83 84 78 75 78 86 82 81 81 86 74 84 77 81 76 78 66 84 82 87 70 78 74 86 80 81 81 79 86 84 84 81 70 78 77 69 75 82 73 84 88 62 79 73 69 83 74 82 74 70 66 89 67 67 70 69 77 72 84 81 79 67 61 59 65 72 0 0 0 0 0
