0 0 0 0 0 0 0 0 0 0 0 0 0 0 0 0 0 0 0 0 0 0 0 0 0 0 0 0 0 0 0 0 0 0 0 0 0 0 0 0 0 0 0 0 0 0 0 0 0 0 0 0 0 0 0 0 0 0 0 0 0 0 0 0 0 0 0 0 0 0 0 0 0 0 0 0 0 0 0 0 0 0 0 0 0 0 0 0 0 0 0 0 0 0 0 0 0 0 0 0 0 0 0 0 0 0 0 0 0 0 0 0 0 0 0 0 0 0 0 0
0 0 0 0 0 0 0 0 0 0 0 0 0 0 0 0 0 0 0 0 0 0 0 0 0 0 0 0 0 0 0 0 0 0 0 0 0 0 0 0 0 0 0 0 0 0 0 0 0 0 0 0 0 0 0 0 0 0 0 0 0 0 0 0 0 0 0 0 0 0 0 0 0 0 0 0 0 0 0 0 0 0 0 0 0 0 0 0 0 0 0 0 0 0 0 0 0 0 0 0 0 0 0 0 0 0 0 0 0 0 0 0 0 0 0 0 0 0 0 0
0 0 0 0 0 0 0 0 0 0 0 0 0 0 0 0 0 1296 0 0 0 0 1295 0 0 0 0 0 0 0 0 0 0 0 0 0 0 0 0 0 0 0 0 0 0 0 0 0 0 0 0 0 0 0 0 0 0 0 0 0 0 0 0 0 0 0 0 0 0 0 0 0 0 0 0 0 0 0 0 0 0 0 0 0 0 0 0 0 0 0 0 0 0 0 0 0 0 0 0 0 0 0 0 0 0 0 0 0 0 0 0 0 0 0 0 0 0 0 0 0
0 0 0 0 0 0 0 0 0 0 0 1127 1141 1164 0 0 1303 1283 1282 0 0 0 1273 0 0 0 0 0 0 0 0 0 0 0 0 0 0 0 0 0 0 0 0 0 0 0 0 0 0 0 0 0 0 0 0 0 0 0 0 0 0 0 0 0 0 0 0 0 0 0 0 0 0 0 0 0 0 0 0 0 0 0 0 0 0 0 0 0 0 0 0 0 0 0 0 0 0 0 0 0 0 0 0 0 0 0 0 0 0 0 0 0 0 0 0 0 0 0 0 0
0 0 0 0 0 0 0 1114 1151 1150 1170 1139 1160 1155 1183 1197 1317 1305 1280 0 1283 1247 1272 0 0 0 0 0 0 0 0 0 0 0 0 0 0 0 0 0 0 0 0 0 0 0 0 0 0 0 0 0 0 0 0 0 0 0 0 0 0 0 0 0 0 0 0 0 0 0 0 0 0 0 0 0 0 0 0 0 0 0 0 0 0 0 0 0 0 0 0 0 0 0 0 0 0 0 0 0 0 0 0 0 0 0 0 0 0 0 0 0 0 0 0 0 0 0 0 0
0 0 0 0 0 0 0 1135 1112 1149 0 0 1145 1136 1202 1205 1275 1274 1258 1279 1245 1279 1276 1279 0 0 0 0 0 0 0 0 0 0 0 0 0 0 0 0 0 0 0 0 0 0 0 0 0 0 0 0 0 0 0 0 0 0 0 0 0 0 0 0 0 0 0 0 0 0 0 0 0 0 0 0 0 0 0 0 0 0 0 0 0 0 0 0 0 0 0 0 0 0 0 0 0 0 0 0 0 0 0 0 0 0 0 0 0 0 0 0 0 0 0 0 0 0 0 0
0 0 0 0 0 0 0 0 0 0 0 0 1202 1245 1260 1260 1254 1282 1269 1251 1270 1261 1248 1280 0 0 0 0 0 0 0 1377 0 0 0 0 0 0 0 0 0 0 0 0 0 0 0 0 0 0 0 0 0 0 0 0 0 0 0 0 0 0 0 0 0 0 0 0 0 0 0 0 0 0 0 0 0 0 0 0 0 0 0 0 0 0 0 0 0 0 0 0 0 0 0 0 0 0 0 0 0 0 0 0 0 0 0 0 0 0 0 0 0 0 0 0 0 0 0 0
0 0 0 0 0 0 0 0 0 0 0 0 1280 1263 1280 1280 1317 1299 1294 1274 1273 1253 1301 1285 1272 1312 1377 1367 1351 1387 0 1432 0 0 0 0 0 0 0 0 0 0 0 0 0 0 0 0 0 0 0 0 0 0 0 0 0 0 0 0 0 0 0 0 0 0 0 0 0 0 0 0 0 0 0 0 0 0 0 0 0 0 0 0 0 0 0 0 0 0 0 0 0 0 0 0 0 0 0 0 0 0 0 0 0 0 0 0 0 0 0 0 0 0 0 0 0 0 0 0
0 0 0 0 0 0 0 0 0 0 0 0 1250 1253 1282 1283 1279 1260 1255 1245 1265 1279 1251 1277 0 0 1334 1346 1324 1336 1357 1419 0 0 0 0 0 0 0 0 0 0 0 0 0 0 0 0 0 0 0 0 0 0 0 0 0 0 0 0 0 0 0 0 0 0 0 0 0 0 0 0 0 0 0 0 0 0 0 0 0 0 0 0 0 0 0 0 0 0 0 0 0 0 0 0 0 0 0 0 0 0 0 0 0 0 0 0 0 0 0 0 0 0 0 0 0 0 0 0
0 0 0 0 0 0 0 0 0 0 0 0 0 0 1288 1302 1275 1249 1286 1264 1258 1272 1260 1287 1271 0 0 1353 1363 1364 1366 1416 0 0 0 0 0 0 0 0 0 0 0 0 0 0 0 0 0 0 0 0 0 0 0 0 0 0 0 0 0 0 0 0 0 0 0 0 0 0 0 0 0 0 0 0 0 0 0 0 0 0 0 0 0 0 0 0 0 0 0 0 0 0 0 0 0 0 0 0 0 0 0 0 0 0 0 0 0 0 0 0 0 0 0 0 0 0 0 0
0 0 0 0 0 0 0 0 0 0 0 0 0 0 0 0 0 0 0 0 0 1266 1276 1270 1330 0 0 1380 1377 1368 1347 1407 1453 0 0 0 0 0 0 0 0 0 0 0 0 0 0 0 0 0 0 0 0 0 0 0 0 0 0 0 0 0 0 0 0 0 0 0 0 0 0 0 0 0 0 0 0 0 0 0 0 0 0 0 0 0 0 0 0 0 0 0 0 0 0 0 0 0 0 0 0 0 0 0 0 0 0 0 0 0 0 0 0 0 0 0 0 0 0 0
0 0 0 0 0 0 0 0 0 0 0 0 0 0 0 0 0 0 0 0 0 0 0 1357 1315 0 0 0 1351 1349 1360 1450 1400 0 0 0 0 0 0 0 0 0 0 0 0 0 0 0 0 0 0 0 0 0 0 0 0 0 0 0 0 0 0 0 0 0 0 0 0 0 0 0 0 0 0 0 0 0 0 0 0 0 0 0 0 0 0 0 0 0 0 0 0 0 0 0 0 0 0 0 0 0 0 0 0 0 0 1793 0 0 0 0 0 0 0 0 0 0 0 0
0 0 0 0 0 0 0 0 0 0 0 0 0 0 0 0 0 0 0 0 0 0 0 1393 1393 1319 1341 1313 1320 1352 1365 1385 1425 0 0 0 0 0 0 0 0 0 0 0 0 0 0 0 0 0 0 0 0 0 0 0 0 0 0 0 0 0 0 0 0 0 0 0 0 0 0 0 0 0 0 0 0 0 0 0 0 0 0 0 0 0 0 0 0 0 0 0 0 0 0 0 0 0 0 0 0 0 0 0 0 0 1755 1747 0 0 0 0 0 0 0 0 0 0 0 0
0 0 0 0 0 0 0 0 0 0 0 0 0 0 0 0 0 0 0 0 0 0 0 1387 1385 1376 1330 1301 1351 1309 1352 1379 1418 0 0 0 0 0 0 0 0 0 0 0 0 0 0 0 0 0 0 0 0 0 0 0 0 0 0 0 0 0 0 0 0 0 0 0 0 0 0 0 0 0 0 0 0 0 0 0 0 0 0 0 0 0 0 0 0 0 0 0 0 0 0 0 0 0 0 0 0 0 0 0 0 1737 1769 1740 1726 0 0 0 0 0 0 0 0 0 0 0
0 0 0 0 0 0 0 0 0 0 0 0 0 0 0 0 0 0 0 0 0 0 0 1320 1385 1376 1375 1339 1319 1335 1360 1413 1424 0 0 0 0 0 0 0 0 0 0 0 0 0 0 0 0 0 0 0 0 0 0 0 0 0 0 0 0 0 0 0 0 0 0 0 0 0 0 0 0 0 0 0 0 0 0 0 0 0 0 0 0 0 0 0 0 0 0 0 0 0 0 0 0 0 0 0 0 0 0 0 0 1764 1704 0 0 0 0 0 0 0 0 0 0 0 0 0
0 0 0 0 0 0 0 0 0 0 0 0 0 0 0 0 0 0 0 0 0 0 0 1383 1377 1392 1374 1378 1376 1318 1368 1408 1440 0 0 0 0 0 0 0 0 0 0 0 0 0 0 0 0 0 0 0 0 0 0 0 0 0 0 0 0 0 0 0 0 0 0 0 0 0 0 0 0 0 0 0 0 0 0 0 0 0 0 0 0 0 0 0 0 0 0 0 0 0 0 0 0 0 0 0 0 0 0 0 0 0 0 1685 1726 0 0 0 0 1587 0 0 0 0 0 0
1248 1256 1238 1256 1306 1276 1329 0 0 0 0 0 0 0 0 0 0 0 0 0 0 0 0 0 1370 1372 1364 1370 1369 1375 1351 1393 1431 0 0 0 0 0 0 0 0 0 0 0 0 0 0 0 0 0 0 0 0 0 0 0 0 0 0 0 0 0 0 0 0 0 0 0 0 0 0 0 0 0 0 0 0 0 0 0 0 0 0 0 0 0 0 0 0 0 0 0 0 0 0 0 0 0 0 0 0 0 0 0 1732 1798 1707 1754 1716 1648 0 1690 1662 0 0 0 0 0 0 0
1254 1268 1268 1282 1284 1315 1315 1308 1319 1347 1328 0 0 0 0 0 0 0 0 0 0 0 0 1346 1364 1359 1384 1373 1381 1359 1412 1428 1435 0 0 0 0 0 0 0 0 0 0 0 0 0 0 0 0 0 0 0 0 0 0 0 0 0 0 0 0 0 0 0 0 0 0 0 0 0 0 0 0 0 0 0 0 0 0 0 0 0 0 0 0 0 0 0 0 0 0 0 0 0 0 0 0 0 0 0 0 0 0 1816 1786 1755 1784 1714 1712 1716 1649 0 0 0 0 0 0 0 0 0
1239 1274 1273 1286 1293 1301 1322 1316 1318 1331 1338 1348 1341 1384 1398 1451 1417 0 0 0 0 0 0 0 0 1366 0 0 1409 0 0 1422 1450 0 0 0 0 0 0 0 0 0 0 0 0 0 0 0 0 0 0 0 0 0 0 0 0 0 0 0 0 0 0 0 0 0 0 0 0 0 0 0 0 0 0 0 0 0 0 0 0 0 0 0 0 0 0 0 0 0 0 0 0 0 0 0 0 0 0 0 0 0 0 1787 1741 1722 1741 1652 1698 1724 1676 1695 0 0 0 0 0 0 0 0
0 0 0 0 1296 1304 1295 1319 1309 1325 1336 1352 1360 1387 1361 1416 1422 1448 1472 1445 0 0 0 0 0 0 0 0 0 0 0 1428 1441 1427 0 0 0 0 0 0 0 0 0 0 0 0 0 0 0 0 0 0 0 0 0 0 0 0 0 0 0 0 0 0 0 0 0 0 0 0 0 0 0 0 0 0 0 0 0 0 0 0 0 0 0 0 0 0 0 0 0 0 0 0 0 0 0 0 0 0 0 0 1811 1794 1788 1759 1726 1686 1706 1677 0 0 0 0 0 0 0 0 0 0
0 0 0 0 0 0 0 0 0 1305 1333 1349 1365 1354 1384 1399 1409 1412 1456 1452 1459 1495 0 0 0 0 0 0 0 0 0 1424 1482 1509 0 0 0 0 0 0 0 0 0 0 0 0 0 0 0 0 0 0 0 0 0 0 0 0 0 0 0 0 0 0 0 0 0 0 0 0 0 0 0 0 0 0 0 0 0 0 0 0 0 0 0 0 0 0 0 0 0 0 0 0 0 0 0 0 0 0 0 0 0 1780 1661 1669 1636 1606 1617 1584 1600 1616 1606 1598 1586 0 0 0 0 0
0 0 0 0 0 0 0 0 0 0 0 0 0 0 0 1387 1403 1410 1396 1416 1427 1466 0 0 0 0 0 0 0 0 0 0 1467 0 0 0 0 0 0 0 0 0 0 0 0 0 0 0 0 0 0 0 0 0 0 0 0 0 0 0 0 0 0 0 0 0 0 0 0 0 0 0 0 0 0 0 0 0 0 0 0 0 0 0 0 0 0 0 0 0 0 0 0 0 0 0 0 0 0 0 0 1751 1578 1579 1600 1603 1580 1603 1570 1572 1580 1605 1591 1668 1607 0 0 0 0 0
0 0 0 0 0 0 0 0 0 0 0 0 0 0 0 0 0 0 0 0 0 1495 0 0 0 0 0 0 0 0 0 0 0 0 0 0 0 0 0 0 0 0 0 0 0 0 0 0 0 0 0 0 0 0 0 0 0 0 0 0 0 0 0 0 0 0 0 0 0 0 0 0 0 0 0 0 0 0 0 0 0 0 0 0 0 0 0 0 0 0 0 0 0 0 0 0 0 0 0 0 0 1577 1591 1598 1620 1569 1579 1606 1577 1612 1555 1561 1554 1576 0 0 0 0 0 0
0 0 0 0 0 0 0 0 0 0 0 0 0 0 0 0 0 0 0 0 0 0 0 0 0 0 0 0 0 0 0 0 0 0 0 0 0 0 0 0 0 0 0 0 0 0 0 0 0 0 0 0 0 0 0 0 0 0 0 0 0 0 0 0 0 0 0 0 0 0 0 0 0 0 0 0 0 0 0 0 0 0 0 0 0 0 0 0 0 0 0 0 0 0 0 0 0 0 0 0 0 0 0 1607 1591 1573 1592 1593 1602 1624 1604 1539 0 0 0 0 0 0 0 0
0 0 0 0 0 0 0 0 0 0 0 0 0 0 0 0 0 0 0 0 0 0 0 0 0 0 0 0 0 0 0 0 0 0 0 0 0 0 0 0 0 0 0 0 0 0 0 0 0 0 0 0 0 0 0 0 0 0 0 0 0 0 0 0 0 0 0 0 0 0 0 0 0 0 0 0 0 0 0 0 0 0 0 0 0 0 0 0 0 0 0 0 0 0 0 0 0 0 0 0 0 0 0 0 0 0 0 1573 1616 0 0 0 0 0 0 0 0 0 0 0
0 0 0 0 0 0 0 0 0 0 0 0 0 0 0 0 0 0 0 0 0 0 0 0 0 0 0 0 0 0 0 0 0 0 0 0 0 0 0 0 0 0 0 0 0 0 0 0 0 0 0 0 0 0 0 0 0 0 0 0 0 0 0 0 0 0 0 0 0 0 0 0 0 0 0 0 0 0 0 0 0 0 0 0 0 0 0 0 0 0 0 0 0 0 0 0 0 0 0 0 0 0 0 0 0 0 0 0 0 0 0 0 0 0 0 0 0 0 0 0
586 589 0 0 0 0 0 0 0 0 0 0 0 0 0 0 0 0 0 0 0 0 0 0 0 1854 1897 0 0 0 0 0 0 0 0 0 0 0 0 0 0 0 0 0 0 0 0 2942 2911 2870 2918 2867 2904 2880 2962 2945 2888 2882 2896 2886 2893 2844 2898 2862 2890 2902 0 0 0 0 0 0 0 0 0 0 0 0 0 0 0 0 0 0 0 0 0 0 0 0 0 0 0 0 0 1787 1723 0 0 0 0 0 0 0 0 0 0 0 0 0 0 0 0 0 0 0 0 0 0 0
576 589 589 589 601 621 0 0 0 0 0 0 0 0 0 0 0 0 0 0 0 0 0 0 0 0 0 1914 1937 0 0 0 0 0 0 0 0 0 0 0 0 0 0 0 0 0 0 2935 2961 2930 2907 2942 2909 2938 2955 2934 2959 2895 2888 2949 2977 2882 2878 2917 2905 2914 0 0 0 0 0 0 0 0 0 0 0 0 0 0 0 0 0 0 0 0 0 0 0 0 0 0 0 0 0 0 0 0 0 0 0 0 0 0 0 0 0 0 0 0 0 0 0 0 0 0 0 0 0 0
585 587 600 610 606 619 621 654 695 0 0 0 0 0 0 0 0 0 0 0 0 0 0 0 0 0 0 0 0 0 0 0 0 0 0 0 0 0 0 0 0 0 0 0 0 0 0 2943 2943 2928 2908 2926 2893 2877 2930 2919 2944 2876 2903 2858 2905 2897 2912 2890 2877 2889 0 0 0 0 0 0 0 0 0 0 0 0 0 0 0 0 0 0 0 0 0 0 0 0 0 0 0 0 0 0 0 0 0 0 0 0 0 0 0 0 0 0 0 0 0 0 0 0 0 0 0 0 0 0
558 590 585 595 612 629 631 644 657 678 685 707 0 0 0 0 0 0 0 0 0 0 0 0 0 0 0 0 0 0 0 0 0 0 0 0 0 0 0 0 0 0 0 0 0 0 0 2900 2903 2867 2901 2918 2917 2857 2883 2864 2883 2873 2910 2929 2888 2915 2875 2880 2886 0 0 0 0 0 0 0 0 0 0 0 0 0 0 0 0 0 0 0 0 0 0 0 0 0 0 0 0 0 0 0 0 0 0 0 0 0 0 0 0 0 0 0 0 0 0 0 0 0 0 0 0 0 0 0
602 614 588 615 611 616 646 646 661 667 691 686 702 725 740 0 0 0 0 0 0 0 0 0 0 0 0 0 0 0 0 0 0 0 0 0 0 0 0 0 0 0 0 0 0 0 0 2900 2903 2934 2899 2916 2918 2929 2904 2924 2915 2893 2855 2909 2871 2883 2811 2915 2875 0 0 0 0 0 0 0 0 0 0 0 0 0 0 0 0 0 0 0 0 0 0 0 0 0 0 0 0 0 0 0 0 0 0 0 0 0 0 0 0 0 0 0 0 0 0 0 0 0 0 0 0 0 0 0
754 769 767 752 727 679 642 657 662 671 697 691 723 724 759 759 773 784 0 0 0 0 0 0 0 0 0 0 0 0 0 0 0 0 0 0 0 0 0 0 0 0 0 0 0 0 0 2900 2875 2934 2856 2852 2888 2874 2918 2848 2904 2814 2845 2880 2879 2878 2830 2928 2910 2904 0 0 0 0 0 0 0 0 0 0 0 0 0 0 0 0 0 0 0 0 0 0 0 0 0 0 0 0 0 0 0 0 0 0 0 0 0 0 0 0 0 0 0 0 0 0 0 0 0 0 0 0 0 0
789 795 812 824 819 855 832 834 838 798 747 728 723 737 729 749 780 762 785 816 844 0 0 0 0 0 0 0 0 0 0 0 0 0 0 0 0 0 0 0 0 0 0 0 0 0 0 2873 2889 2862 2880 2866 2853 2910 2879 2889 2878 2881 2876 2909 2929 2918 2904 2902 2886 2945 0 0 0 0 0 0 0 0 0 0 0 0 0 0 0 0 0 0 0 0 0 0 0 0 0 0 0 0 0 0 0 0 0 0 0 0 0 0 0 0 0 0 0 0 0 0 0 0 0 0 0 0 0 0
776 795 817 820 828 854 857 887 879 882 921 908 911 884 849 791 758 777 814 812 834 823 871 879 0 0 0 0 0 0 0 0 0 0 0 0 0 0 0 0 0 0 0 0 0 0 0 2934 2937 2941 2895 2908 2921 2865 2922 2941 2928 2950 2910 2899 2920 2892 2901 2957 2895 2961 0 0 0 0 0 0 0 0 0 0 0 0 0 0 0 0 0 0 0 0 0 0 0 0 0 0 0 0 0 0 0 0 0 0 0 0 0 0 0 0 0 0 0 0 0 0 0 0 0 0 0 0 0 0
624 0 816 857 847 857 858 879 915 920 919 934 933 954 945 947 942 925 890 884 849 844 856 903 928 911 0 0 0 0 0 0 0 0 0 0 0 0 0 0 0 0 0 0 0 0 0 2926 2935 2889 2951 2918 2907 2949 2914 2882 2894 2910 2834 2891 2919 2875 2899 2914 2898 2905 0 0 0 0 0 0 0 0 0 0 0 0 0 0 0 0 0 0 0 0 0 0 0 0 0 0 0 0 0 0 0 0 0 0 0 0 0 0 0 0 0 0 0 0 0 0 0 0 0 0 0 0 0 0
654 926 955 931 923 910 964 920 907 937 936 946 964 944 957 957 958 937 958 951 940 919 906 903 938 933 960 985 1000 0 0 0 0 0 0 0 0 0 0 0 0 0 0 0 0 0 0 2909 2943 2907 2930 2890 2916 2911 2933 2916 2955 2903 2880 2933 2880 2915 2894 2901 2863 2882 0 0 0 0 0 0 0 0 0 0 0 0 0 0 0 0 0 0 0 0 0 0 0 0 0 0 0 0 0 0 0 0 0 0 0 0 0 0 0 0 0 0 0 0 0 0 0 0 0 0 0 0 0 0
609 725 0 0 0 0 0 0 0 0 984 992 963 996 976 964 974 953 935 961 951 950 954 938 950 930 953 995 1014 1042 1108 0 0 0 0 0 0 0 0 0 0 0 0 0 0 0 0 2942 2931 2897 2905 2889 2884 2867 2922 2874 2867 2903 2943 2938 2898 2898 2882 2922 2929 2862 0 0 0 0 0 0 0 0 0 0 0 0 0 0 0 0 0 0 0 0 0 0 0 0 0 0 0 0 0 0 0 0 0 0 0 0 0 0 0 0 0 0 0 0 0 0 0 0 0 0 0 0 0 0
609 601 611 0 1103 1125 1145 1154 1136 1133 1126 1135 1154 1127 1132 1128 1116 1019 0 0 1020 1060 1052 980 1009 1033 1130 1125 1092 1089 1057 0 0 0 0 0 0 0 0 0 0 0 0 0 0 0 0 2917 2881 2891 2902 2907 2906 2890 2904 2903 2892 2906 2900 2851 2877 2883 2904 2920 2878 0 0 0 0 0 0 0 0 0 0 0 0 0 0 0 0 0 0 0 0 0 0 0 0 0 0 0 0 0 0 0 0 0 0 0 0 0 0 0 0 0 0 0 0 0 0 0 0 0 0 0 0 0 0 0
582 582 579 607 0 0 0 0 0 0 0 0 0 0 0 0 1405 986 960 0 1090 1125 1086 0 0 1103 1126 1164 1136 1135 1111 0 0 0 0 0 0 0 0 0 0 0 0 0 0 0 0 2911 2923 2837 2945 2872 2881 2891 2942 2908 2933 2861 2902 2868 2905 2926 2880 2902 2869 2891 0 0 0 0 0 0 0 0 0 0 0 0 0 0 0 0 0 0 0 0 0 0 0 0 0 0 0 0 0 0 0 0 0 0 0 0 0 0 0 0 0 0 0 0 0 0 0 0 0 0 0 0 0 0
587 594 602 625 622 0 0 0 0 0 0 0 0 0 0 0 0 1008 952 0 0 0 0 0 0 0 0 0 0 0 0 0 0 0 0 0 0 0 0 0 0 0 0 0 0 0 0 2842 2902 2863 2890 2903 2922 2909 2893 2955 2876 2911 2884 2889 2892 2880 2875 2876 2873 0 0 0 0 0 0 0 0 0 0 0 0 0 0 0 0 0 0 0 0 0 0 0 0 0 0 0 0 0 0 0 0 0 0 0 0 0 0 0 0 0 0 0 0 0 0 0 0 0 0 0 0 0 0 0
574 592 631 587 589 626 0 0 0 0 0 0 0 0 0 0 0 0 0 0 0 0 0 0 0 0 0 0 0 0 0 0 0 0 0 0 0 0 0 0 0 0 0 0 0 0 0 2885 2891 2914 2915 2864 2931 2923 2875 2892 2918 2917 2936 2898 2906 2879 2901 2903 2872 0 0 0 0 0 0 0 0 0 0 0 0 0 0 0 0 0 0 0 0 0 0 0 0 0 0 0 0 0 0 0 0 0 0 0 0 0 0 0 0 0 0 0 0 0 0 0 0 0 0 0 0 0 0 0
592 594 598 606 592 613 0 0 0 0 0 0 0 0 0 0 0 0 0 0 0 0 0 0 0 0 0 0 0 0 0 0 0 0 0 0 0 0 0 0 0 0 0 0 0 0 0 2956 2931 2938 2955 2933 2909 2924 2918 2920 2917 2947 2908 2934 2921 2914 2909 2894 2910 2923 0 0 0 0 0 0 0 0 0 0 0 0 0 0 0 0 0 0 0 0 0 0 0 0 0 0 0 0 0 0 0 0 0 0 0 0 0 0 0 0 0 0 0 0 0 0 0 0 0 0 0 0 0 0
589 602 633 598 607 615 0 0 0 0 0 0 0 0 0 0 0 0 0 0 0 0 924 0 0 0 0 0 0 0 0 0 0 0 0 0 0 0 0 0 0 0 0 0 0 0 0 2895 2939 2905 2898 2888 2904 2891 2903 2901 2917 2841 2858 2852 2867 2856 2917 2891 2862 2906 0 0 0 0 0 0 0 0 0 0 0 0 0 0 0 0 0 0 0 0 0 0 0 0 0 0 0 0 0 0 0 0 0 0 0 0 0 0 0 0 0 0 0 0 0 0 0 0 0 0 0 0 0 0
598 585 590 580 617 602 593 0 0 0 0 0 0 0 0 0 0 0 0 0 0 0 0 0 0 0 0 0 0 0 0 0 0 0 0 0 0 0 0 0 0 0 0 0 0 0 0 2928 2934 2924 2948 2919 2932 2917 2935 2894 2940 2918 2906 2911 2889 2898 2879 2870 2911 2944 0 0 0 0 0 0 0 0 0 0 0 0 0 0 0 0 0 0 0 0 0 0 0 0 0 0 0 0 0 0 0 0 0 0 0 0 0 0 0 0 0 0 0 0 0 0 0 0 0 0 0 0 0 0
595 614 608 589 610 577 622 0 0 0 0 0 0 0 0 0 2323 0 0 0 0 0 0 980 0 0 0 0 0 0 0 0 0 0 0 0 0 0 0 0 0 0 0 0 0 0 0 2937 2950 2908 2892 2918 2948 2960 2902 2889 2945 2891 2940 2896 2899 2905 2894 2872 2873 2906 0 0 0 0 0 0 0 0 0 0 0 0 0 0 0 0 0 0 0 0 0 0 0 0 0 0 0 0 0 0 0 0 0 0 0 0 0 0 0 0 0 0 0 0 0 0 0 0 0 0 0 0 0 0
567 577 632 623 609 620 613 0 0 0 0 0 0 0 0 0 0 0 0 0 0 0 0 0 0 0 0 0 0 0 0 0 0 0 0 0 0 0 0 0 0 0 0 0 0 0 0 2876 2953 2889 2884 2886 2889 2862 2917 2921 2881 2903 2909 2897 2901 2891 2858 2875 2876 2851 0 0 0 0 0 0 0 0 0 0 0 0 0 0 0 0 0 0 0 0 0 0 0 0 0 0 0 0 0 0 0 0 0 0 0 0 0 0 0 0 0 0 0 0 0 0 0 0 0 0 0 0 0 0
568 597 606 608 596 649 0 0 0 0 0 0 0 0 0 0 0 0 0 0 0 0 0 0 0 0 0 0 0 0 0 0 0 0 0 0 0 0 0 0 0 0 0 0 0 0 0 0 0 0 0 0 0 0 0 0 0 0 0 0 0 0 3022 2893 2850 0 0 0 0 0 0 0 0 0 0 0 0 0 0 0 0 0 0 0 0 0 0 0 0 0 0 0 0 0 0 0 0 0 0 0 0 0 0 0 0 0 0 0 0 0 0 0 0 0 0 0 0 0 0 0
620 608 608 603 592 582 0 0 0 0 0 0 0 0 0 0 0 0 0 0 0 0 0 0 0 0 0 0 0 0 0 0 0 0 0 0 0 0 0 0 0 0 0 0 0 0 0 0 0 0 0 0 0 0 0 0 0 0 0 0 0 0 0 0 0 0 0 0 0 0 0 0 0 0 0 0 0 0 0 0 0 0 0 0 0 0 0 0 0 0 0 0 0 0 0 0 0 0 0 0 0 0 0 0 0 0 0 0 0 0 0 0 0 0 0 0 0 0 0 0
608 604 608 602 591 569 0 0 0 0 0 0 0 0 0 0 0 0 0 0 0 0 0 0 0 0 0 0 0 0 0 0 0 0 0 0 0 0 0 0 0 0 0 0 0 0 0 0 0 0 0 0 0 0 0 0 0 0 0 0 0 0 0 0 0 0 0 0 0 0 0 0 0 0 0 0 0 0 0 0 0 0 0 0 0 0 0 0 0 0 0 0 0 0 0 0 0 0 0 0 0 0 0 0 0 0 0 0 0 0 0 0 0 0 0 0 0 0 0 0
591 577 610 577 604 0 0 0 0 0 0 0 0 0 0 0 0 0 0 0 0 0 0 0 0 0 0 0 0 0 0 0 0 0 0 0 0 0 0 0 0 0 0 0 0 0 0 0 0 0 0 0 0 0 0 0 0 0 0 0 0 0 0 0 0 0 0 0 0 0 0 0 0 0 0 0 0 0 0 0 0 0 0 0 0 0 0 0 0 0 0 0 0 0 0 0 0 0 0 0 0 0 0 0 0 0 0 0 0 0 0 0 0 0 0 0 0 0 0 0
610 571 580 645 0 0 0 0 0 0 0 0 0 0 0 0 0 0 0 0 0 0 0 0 0 0 898 897 897 893 853 899 901 894 881 922 0 915 916 892 947 0 961 0 0 0 958 0 0 0 0 0 0 0 0 0 0 0 0 0 0 0 0 0 0 0 0 0 0 0 0 0 0 0 0 0 0 0 0 0 0 0 0 0 0 0 0 0 0 0 0 0 0 0 0 0 0 0 0 0 0 0 0 0 0 0 0 0 0 0 0 0 0 0 0 0 0 0 0 0
599 551 0 0 0 0 633 708 690 695 685 721 690 705 697 677 717 671 626 694 690 687 698 681 708 729 704 682 740 698 736 707 720 702 768 699 682 755 763 736 747 735 766 734 737 727 776 751 771 789 763 824 833 817 768 759 746 757 754 795 775 802 776 785 815 808 779 790 795 811 782 869 835 0 782 0 0 0 0 0 0 0 0 0 0 0 0 0 0 0 0 0 0 0 0 0 0 0 0 0 0 0 0 0 0 0 0 0 0 0 0 0 0 0 0 0 0 0 0 0
558 544 569 595 587 560 611 558 583 578 574 593 564 575 562 605 574 601 589 591 606 595 566 582 562 604 564 599 597 589 598 608 584 590 632 604 596 641 613 633 608 596 593 582 602 621 641 615 617 639 633 607 619 658 621 640 605 640 639 626 646 655 624 647 634 648 605 665 679 658 673 652 671 625 697 676 662 716 670 680 662 646 616 651 664 682 659 678 665 636 651 670 693 731 665 0 679 699 727 699 664 0 0 0 0 0 0 0 0 0 0 0 0 0 0 0 0 0 0 0
512 498 512 503 497 526 471 497 519 495 501 509 503 496 485 508 497 512 508 512 510 508 493 511 511 502 518 511 507 515 514 525 510 522 524 542 519 519 513 523 534 514 526 512 537 502 523 535 527 530 536 538 531 525 515 521 513 526 538 539 537 556 564 543 558 508 534 573 534 536 580 542 538 569 533 551 576 540 534 574 552 551 562 556 567 607 565 577 561 571 580 557 592 576 591 595 597 589 589 599 586 609 600 589 0 587 0 587 609 616 615 0 0 0 0 0 0 0 0 0
431 421 411 427 435 419 434 444 421 445 442 434 443 449 435 445 450 420 446 446 474 465 450 453 444 452 449 441 450 444 447 453 470 453 464 455 462 467 471 460 463 473 480 482 455 465 463 466 465 463 471 471 475 462 482 461 488 477 477 465 484 490 477 477 485 486 493 497 475 495 487 478 486 484 479 478 468 471 491 496 498 498 466 493 483 528 475 481 515 473 511 529 496 492 473 484 504 492 507 476 518 511 465 505 512 509 474 479 474 489 487 509 513 0 0 0 0 0 0 0
414 428 384 402 387 393 387 402 387 388 413 379 391 402 417 394 405 402 407 414 413 412 405 417 418 407 413 411 403 409 409 418 418 413 415 410 416 422 438 421 422 411 429 412 430 425 422 433 426 421 431 435 437 439 427 426 425 433 440 422 417 437 426 439 430 435 414 434 442 425 435 445 436 437 429 415 433 427 436 448 441 420 442 441 439 440 452 447 416 450 445 431 445 427 431 443 437 425 442 450 433 441 457 436 446 442 420 423 434 448 461 439 437 421 0 0 0 0 0 0
345 359 368 343 340 368 352 362 353 357 364 358 356 361 359 359 362 357 357 367 365 354 368 380 367 367 374 374 369 356 381 379 360 362 366 373 384 362 372 370 372 370 377 379 366 369 383 373 386 375 373 370 381 378 380 369 375 374 383 390 396 378 380 375 380 393 393 385 388 382 390 393 382 391 386 374 388 397 390 385 391 386 392 398 389 379 388 396 393 390 399 398 404 383 407 388 390 397 397 396 386 385 396 401 377 394 419 401 398 389 381 368 404 380 417 429 0 0 0 0
316 320 334 339 320 331 335 336 329 330 326 343 321 318 333 333 328 332 330 349 329 336 344 345 336 336 328 331 341 348 334 331 327 347 336 342 350 341 338 340 342 338 341 331 339 341 346 334 340 347 344 347 355 340 349 347 338 341 337 344 347 350 343 349 346 340 347 352 333 346 347 355 351 339 343 349 342 364 336 357 355 344 342 352 351 349 345 347 356 360 359 361 351 353 360 348 348 358 372 359 359 353 364 354 369 328 357 335 358 376 387 356 352 386 364 378 401 0 0 0
295 310 312 279 306 312 307 295 298 307 297 291 290 302 302 295 301 297 306 295 299 305 293 296 295 299 297 302 311 322 303 301 292 304 300 305 310 310 311 314 307 318 304 309 308 298 306 315 304 305 316 306 308 308 316 312 318 314 311 314 318 305 314 323 303 313 323 310 320 320 316 319 313 310 320 321 315 310 312 312 316 321 314 315 316 322 317 314 317 331 321 304 320 325 325 324 319 325 323 337 326 317 322 323 317 324 321 346 325 322 332 331 338 329 328 328 306 324 353 0
268 270 259 280 276 284 281 275 280 282 273 268 279 300 285 286 277 276 293 287 275 269 270 281 275 271 271 273 279 275 282 279 277 277 281 278 275 272 278 278 289 284 279 279 278 274 287 281 291 283 290 285 292 292 280 291 281 276 279 285 290 291 281 288 291 285 282 287 289 288 291 292 290 289 284 291 290 291 287 287 290 287 281 289 289 292 296 291 286 291 293 291 304 280 293 302 283 294 291 297 291 308 290 292 306 296 283 294 288 279 284 286 285 307 270 275 306 299 273 283
263 247 256 252 253 260 248 262 260 254 251 250 248 259 265 253 265 258 257 257 261 261 258 256 255 258 253 257 259 255 249 263 258 263 260 262 266 261 264 263 262 260 261 257 260 267 263 254 262 267 262 267 266 265 268 261 267 260 261 267 267 266 262 262 266 264 267 270 272 269 268 263 265 274 272 262 267 267 266 268 267 256 269 270 274 268 268 264 262 265 269 265 268 259 262 265 270 276 271 278 266 260 265 271 270 266 272 272 290 278 265 282 272 232 289 263 233 273 253 289
234 232 234 236 247 228 243 228 236 231 236 232 252 239 243 248 233 233 240 240 237 247 242 241 241 242 242 242 240 244 241 248 245 239 242 251 247 257 246 250 245 249 250 252 254 252 242 250 245 258 244 243 248 247 246 247 252 250 247 249 258 249 247 253 253 246 249 254 246 249 250 252 250 250 246 253 245 251 256 243 255 251 246 252 249 261 252 255 257 249 259 250 258 246 250 255 252 254 259 257 258 246 259 254 250 250 248 244 246 250 253 255 268 249 235 245 271 290 257 259
216 222 220 221 217 225 222 207 215 219 223 222 227 230 224 222 224 223 232 228 224 225 232 225 228 224 225 231 229 231 225 227 226 228 235 236 235 225 227 232 230 229 236 232 240 242 238 229 236 230 234 232 233 235 232 230 230 231 236 236 231 232 232 235 238 229 230 241 235 232 239 232 234 234 226 243 232 235 230 226 231 225 235 229 236 224 235 232 231 231 234 238 237 240 236 238 231 241 244 247 241 242 241 237 241 236 240 238 242 235 229 239 248 240 240 221 236 231 235 252
209 205 219 219 217 202 205 206 204 212 210 209 217 221 208 215 218 213 210 220 213 211 215 208 195 216 215 213 217 214 217 218 197 220 218 213 223 217 217 222 216 216 222 212 219 224 219 220 222 218 218 220 223 205 221 221 221 204 221 220 222 202 225 222 216 220 221 221 221 216 222 224 222 219 216 215 222 218 223 223 220 225 225 224 222 226 224 222 222 215 223 218 225 230 227 227 219 217 227 224 216 222 218 226 222 225 222 224 228 235 227 225 220 221 234 230 210 234 231 230
194 197 197 208 207 204 206 204 184 197 185 203 183 205 205 204 190 191 192 194 187 189 199 192 187 187 186 192 185 210 190 195 192 196 215 193 187 198 195 191 191 195 186 190 199 193 201 190 203 193 194 192 196 194 189 197 201 198 199 197 198 190 203 198 196 199 199 194 198 199 192 202 198 192 192 195 192 196 196 191 191 194 193 198 193 201 198 195 211 215 196 209 210 211 208 191 191 192 215 197 207 214 208 209 222 217 216 213 212 217 200 206 202 201 210 203 208 197 213 197
177 174 192 193 177 180 182 178 175 184 182 176 177 178 181 187 184 184 189 190 188 191 180 185 189 184 188 192 192 195 194 188 191 184 194 192 190 194 191 190 191 186 189 194 187 196 195 195 194 195 194 196 191 197 193 196 198 198 195 198 197 194 195 198 196 192 197 194 198 196 199 195 200 197 198 195 196 192 193 191 192 194 195 195 186 196 193 191 191 188 191 183 191 191 191 191 191 185 187 181 190 179 185 178 192 179 181 183 192 203 200 198 177 180 199 183 185 175 196 170
168 170 178 177 180 173 173 177 181 181 183 174 184 180 185 180 183 187 185 180 187 188 184 185 182 184 190 186 188 190 188 183 184 189 192 183 189 182 191 182 186 185 190 187 191 192 183 193 188 187 189 192 188 187 188 190 187 191 189 189 183 193 186 195 191 190 194 187 186 190 193 191 191 188 186 188 189 188 186 187 194 188 191 190 193 189 186 185 186 193 188 191 182 186 181 188 188 190 187 182 179 185 186 177 184 180 185 183 177 182 173 178 182 183 177 178 179 181 198 204
167 164 161 165 162 163 167 173 170 168 166 170 174 170 177 175 172 176 176 183 171 171 173 173 171 167 179 175 173 180 180 182 175 171 177 169 178 168 177 176 180 178 176 175 185 178 177 179 182 182 184 177 173 181 178 183 180 179 176 176 174 180 180 182 180 180 181 182 183 185 176 181 178 186 181 178 180 181 177 180 183 180 183 174 180 174 179 179 185 177 177 178 177 174 182 179 172 179 181 175 179 181 177 185 175 178 164 173 170 171 177 164 175 167 175 172 172 169 168 158
165 167 167 162 163 165 158 162 166 166 167 167 168 167 166 171 166 173 173 167 171 163 169 172 169 165 169 167 167 175 174 168 170 166 166 171 174 170 171 167 168 175 174 172 177 170 169 173 175 170 169 173 176 173 171 171 171 174 169 172 172 175 167 171 175 175 172 170 170 168 175 179 171 170 171 170 176 170 179 166 172 169 175 172 168 173 177 173 177 170 168 170 172 170 165 169 178 170 166 173 173 177 175 173 178 173 179 172 173 155 177 177 178 174 173 166 179 159 176 166
158 160 169 168 159 159 159 155 158 155 159 163 158 162 162 161 164 165 166 167 162 161 162 163 166 163 160 159 163 163 160 166 162 167 160 163 159 161 163 160 164 167 164 163 161 172 163 165 165 166 162 169 166 167 165 165 162 164 163 163 168 166 163 166 166 173 166 167 165 164 165 164 166 164 160 171 168 167 164 167 165 162 169 170 166 166 165 165 165 165 166 161 164 164 160 167 161 163 169 165 171 164 159 167 161 168 167 161 161 160 161 167 162 159 166 161 169 160 171 180
144 151 148 148 150 151 153 151 155 158 148 149 154 151 153 153 151 160 156 160 158 158 155 159 157 153 150 156 155 158 160 154 154 156 155 157 156 153 153 161 160 151 156 161 158 149 151 157 160 158 157 156 159 163 160 154 154 157 161 164 159 159 159 161 166 158 160 165 158 156 157 160 152 161 162 162 161 159 162 155 160 160 156 153 158 154 162 160 159 159 156 157 154 155 160 158 156 151 153 158 161 160 157 155 162 151 155 155 155 154 150 164 152 159 164 152 154 157 157 149
134 138 143 143 150 146 143 144 151 145 146 152 147 147 148 144 146 147 142 152 155 156 155 154 155 149 151 150 149 148 147 150 148 147 146 146 149 153 149 152 152 151 148 151 151 148 148 147 150 152 150 157 150 152 155 151 149 148 150 157 150 150 159 153 149 153 152 156 154 154 152 153 146 157 152 153 159 158 152 154 151 153 152 148 155 149 155 153 153 151 152 151 153 154 156 154 149 154 156 154 156 157 157 152 154 151 144 148 155 149 154 157 153 149 158 144 166 162 163 136
135 137 138 136 138 137 137 142 138 140 144 143 144 142 135 139 144 139 142 147 146 145 142 146 144 146 147 146 144 143 138 133 146 145 141 142 139 142 144 149 144 145 146 146 147 145 147 129 146 145 142 144 146 144 145 148 146 145 154 147 145 147 143 146 150 144 152 149 148 150 146 149 149 147 146 148 148 154 151 146 143 146 142 144 142 146 146 146 150 144 147 150 144 145 150 149 140 144 150 148 145 145 148 139 144 147 141 143 144 149 134 151 141 151 143 149 145 141 145 150
126 134 132 135 134 138 140 134 137 137 137 0 133 135 124 138 140 142 140 140 143 140 141 136 143 142 147 138 139 139 140 137 143 125 127 131 133 125 139 141 130 144 143 139 140 129 132 130 127 144 127 142 135 143 137 134 132 146 143 144 125 133 142 147 141 131 141 135 147 139 133 132 131 143 142 146 142 142 141 147 146 128 127 131 141 138 141 140 142 139 129 140 142 143 143 144 139 143 143 140 139 138 140 136 140 134 134 136 143 142 134 139 128 126 136 141 138 128 157 106
130 131 127 135 135 135 139 135 132 130 134 132 138 138 139 124 128 139 137 134 140 141 140 138 139 136 139 140 129 123 129 130 128 129 124 128 126 129 139 132 145 131 131 128 0 141 140 124 127 128 126 129 130 133 0 141 0 130 131 142 129 130 143 133 131 130 144 128 144 141 125 132 127 128 131 128 133 131 139 129 138 128 125 136 139 128 129 127 128 141 122 139 141 137 136 139 140 141 141 142 136 120 135 143 125 133 134 135 137 141 138 128 137 146 136 141 132 137 145 160
113 106 112 113 125 126 138 123 114 107 116 116 119 122 124 126 124 123 123 120 118 126 127 126 124 139 139 139 0 128 130 119 118 121 112 114 126 126 124 121 125 124 126 132 0 0 127 126 129 120 121 122 125 128 127 129 132 129 128 121 123 123 125 126 124 126 128 129 127 125 123 123 121 123 115 120 120 129 125 129 129 124 126 126 120 128 119 127 124 130 122 127 126 133 121 118 126 138 133 126 120 121 118 121 110 116 113 120 120 127 117 131 136 130 115 110 130 131 111 81
112 118 111 111 111 128 123 114 116 118 121 119 118 125 117 117 113 116 122 117 121 123 122 119 121 118 129 125 123 123 133 0 124 119 119 109 117 119 0 117 131 123 0 0 0 0 124 126 121 120 125 123 123 121 124 128 120 121 119 118 123 125 113 125 122 122 122 122 118 118 123 122 123 119 116 115 123 128 127 124 122 118 123 123 119 117 125 120 120 122 116 116 120 125 122 120 127 120 117 124 121 117 122 119 111 114 118 119 118 131 118 131 130 136 113 116 120 104 126 114
112 99 113 119 115 110 114 115 116 112 124 116 112 110 109 111 119 111 109 121 116 112 111 119 115 111 117 116 116 120 124 0 118 113 114 116 113 0 114 117 120 0 0 121 122 0 121 116 116 115 113 119 118 122 121 120 115 123 116 118 119 122 118 117 123 126 122 125 118 119 116 118 114 119 119 110 116 114 114 120 115 122 114 119 116 120 121 115 114 121 116 119 120 116 108 116 123 121 112 114 118 119 117 111 114 110 114 115 109 116 111 112 129 128 129 112 118 115 107 135
95 105 110 105 104 105 114 112 100 109 110 111 105 110 121 115 118 113 101 105 112 106 110 107 108 113 116 116 111 113 115 116 112 115 113 110 106 113 114 114 118 112 111 106 110 114 118 0 113 0 116 113 119 117 0 0 101 110 116 111 125 116 110 112 108 106 108 107 111 108 114 107 112 103 106 108 107 107 106 114 111 109 109 114 111 102 111 110 102 115 105 110 96 118 110 111 112 114 105 109 105 107 114 104 111 111 108 116 107 131 113 113 104 107 90 111 100 100 108 103
105 102 113 110 106 104 107 110 109 106 101 111 110 108 119 117 115 111 112 104 105 97 105 110 113 110 109 116 105 119 107 110 111 106 113 111 114 0 105 110 110 107 114 103 109 108 105 109 117 0 107 110 112 113 109 112 104 110 113 103 109 106 115 0 117 105 106 109 113 106 106 104 105 111 104 103 105 101 102 113 106 101 109 110 96 109 102 112 105 99 101 110 103 100 99 102 111 110 109 107 105 116 105 114 108 101 110 121 98 102 113 104 120 116 118 115 108 130 134 139
93 94 111 105 95 93 101 96 96 91 104 99 101 99 104 104 97 104 107 100 107 101 94 100 107 102 106 97 101 108 105 107 102 102 101 103 101 105 102 103 101 103 94 102 98 103 109 102 103 103 104 105 103 105 103 102 99 101 104 97 102 108 105 0 109 105 0 111 103 105 104 102 98 109 101 107 99 102 0 100 0 105 96 102 98 102 95 97 97 100 97 105 93 96 97 96 99 98 103 100 100 104 97 99 101 103 93 96 89 94 113 104 81 106 107 88 86 78 96 138
86 89 82 91 93 93 97 91 95 95 97 97 96 96 101 97 94 96 110 101 97 90 92 94 97 91 110 101 102 97 106 104 101 100 102 101 101 96 97 97 103 102 96 92 99 101 105 101 101 103 109 99 97 100 92 98 103 104 101 101 105 101 102 102 116 98 105 106 108 100 101 101 99 101 99 95 104 99 96 97 0 98 95 90 98 97 95 105 98 98 98 94 99 102 93 99 87 93 95 106 97 90 100 85 95 100 97 93 98 92 91 89 104 89 86 115 100 87 81 92
87 97 87 99 94 93 91 87 87 93 90 92 96 89 92 83 97 89 100 106 101 99 88 90 95 88 96 96 93 98 99 99 100 95 96 105 96 95 96 104 95 95 89 91 101 96 101 101 89 97 98 93 88 96 94 96 89 93 100 100 96 96 99 0 98 102 94 96 99 97 99 99 104 102 87 103 98 100 101 105 92 97 87 102 99 99 91 90 96 96 97 91 96 96 89 86 93 90 103 92 94 93 102 96 95 96 92 92 96 83 88 90 99 88 93 89 110 106 95 62
83 78 76 89 88 82 87 90 85 89 85 93 96 91 89 93 86 93 84 92 92 89 91 95 89 91 98 88 93 99 91 87 100 96 90 91 87 96 89 94 86 97 86 85 99 97 91 89 92 97 99 88 89 93 97 89 98 91 92 91 89 94 88 93 95 93 94 89 91 97 97 93 90 91 85 95 90 91 90 95 97 97 93 94 85 92 83 96 92 90 90 94 96 86 90 92 93 93 91 90 94 84 83 79 87 92 89 91 87 79 81 78 86 84 79 85 82 75 79 78
95 79 84 88 95 93 89 100 90 88 87 88 88 90 88 87 92 81 94 93 93 91 94 85 93 86 96 90 93 91 91 92 97 91 99 97 97 89 89 101 90 94 96 88 97 94 91 95 91 93 100 91 97 88 93 98 94 93 88 96 93 92 95 93 97 95 89 91 89 94 98 87 97 92 98 89 94 98 82 92 94 87 96 96 86 90 91 95 89 90 98 98 98 89 90 90 91 93 94 102 87 93 90 93 86 95 89 78 89 86 88 88 87 85 103 80 102 77 0 0
84 88 89 85 88 91 79 84 86 0 82 83 90 87 81 82 87 89 85 85 88 91 90 96 92 93 89 85 96 96 88 94 96 95 91 89 88 91 92 97 85 89 90 87 97 88 91 96 86 90 89 97 86 93 97 87 90 93 92 95 92 99 93 99 99 97 97 92 96 95 97 85 97 96 94 90 98 90 87 88 88 94 89 89 97 90 96 93 93 95 90 96 100 94 88 88 89 92 94 87 81 89 82 91 83 81 91 94 87 84 86 92 89 87 89 80 83 138 80 0
79 83 79 86 85 87 93 86 89 79 82 79 87 85 88 87 82 87 85 91 87 86 92 85 91 82 84 85 94 91 87 89 89 92 87 89 89 87 88 92 89 90 93 96 96 84 95 97 91 92 98 97 92 84 93 87 90 94 94 88 90 91 95 85 90 91 86 86 92 96 85 96 90 95 96 88 91 93 94 90 95 88 91 88 93 87 90 87 91 88 92 87 87 87 79 83 86 86 92 87 78 79 85 89 89 79 90 88 80 91 75 89 84 80 87 86 99 55 0 0
84 76 78 78 82 82 88 93 82 88 90 91 85 88 81 90 83 92 90 89 92 88 91 86 86 93 86 86 93 94 92 86 95 90 88 82 90 87 90 87 93 84 91 89 96 89 94 96 92 93 92 91 89 84 93 89 93 98 81 94 94 86 86 98 92 93 85 89 92 94 89 88 91 89 94 90 94 92 83 84 93 91 89 83 92 94 91 92 95 94 85 94 83 84 86 92 92 83 86 84 84 91 85 80 79 92 82 86 85 81 78 85 96 85 83 88 0 0 0 0
76 67 64 60 80 82 83 84 83 75 83 79 77 89 85 78 78 81 78 79 86 75 76 76 81 76 76 82 80 77 91 68 81 85 87 75 80 83 86 76 85 80 84 71 79 83 82 89 84 78 86 74 76 87 82 86 86 86 87 79 84 79 80 80 75 83 79 79 76 86 83 84 83 79 82 82 79 83 89 85 82 91 77 80 77 84 80 81 77 91 85 70 80 80 80 79 74 82 77 82 70 79 75 64 76 79 77 76 79 75 77 63 75 93 69 64 0 0 0 0
68 67 74 78 70 81 82 87 82 80 82 88 73 74 79 90 80 81 75 80 74 83 70 79 83 84 76 69 79 84 84 81 78 85 82 68 73 80 82 83 92 82 87 86 80 90 83 78 84 84 87 78 72 78 82 80 84 76 81 73 82 77 79 80 73 85 77 75 83 76 74 81 81 79 83 82 79 85 84 88 86 77 78 82 73 76 66 76 79 84 73 77 73 71 82 76 89 77 72 70 89 67 73 71 73 73 73 74 79 77 70 89 72 61 72 0 0 0 0 0
