0 0 0 0 0 0 0 0 0 0 0 0 0 0 0 0 0 0 0 0 0 0 0 0 0 0 0 0 0 0 0 0 0 0 0 0 0 0 0 0 0 0 0 0 0 0 0 0 0 0 0 0 0 0 0 0 0 0 0 0 0 0 0 0 0 0 0 0 0 0 0 0 0 0 0 0 0 0 0 0 0 0 0 0 0 0 0 0 0 0 0 0 0 0 0 0 0 0 0 0 0 0 0 0 0 0 0 0 0 0 0 0 0 0 0 0 0 0 0 0
0 0 0 0 0 0 0 0 0 0 0 0 0 0 0 0 0 0 0 0 0 0 0 0 0 0 0 0 0 0 0 0 0 0 0 0 0 0 0 0 0 0 0 0 0 0 0 0 0 0 0 0 0 0 0 0 0 0 0 0 0 0 0 0 0 0 0 0 0 0 0 0 0 0 0 0 0 0 0 0 0 0 0 0 0 0 0 0 0 0 0 0 0 0 0 0 0 0 0 0 0 0 0 0 0 0 0 0 0 0 0 0 0 0 0 0 0 0 0 0
0 0 0 0 0 0 0 0 0 0 0 0 0 0 0 0 0 1247 0 0 0 0 0 0 0 0 0 0 0 0 0 0 0 0 0 0 0 0 0 0 0 0 0 0 0 0 0 0 0 0 0 0 0 0 0 0 0 0 0 0 0 0 0 0 0 0 0 0 0 0 0 0 0 0 0 0 0 0 0 0 0 0 0 0 0 0 0 0 0 0 0 0 0 0 0 0 0 0 0 0 0 0 0 0 0 0 0 0 0 0 0 0 0 0 0 0 0 0 0 0
0 0 0 0 0 0 0 0 0 0 0 1146 1138 1144 1185 0 1295 1258 0 0 0 0 1289 0 0 0 0 0 0 0 0 0 0 0 0 0 0 0 0 0 0 0 0 0 0 0 0 0 0 0 0 0 0 0 0 0 0 0 0 0 0 0 0 0 0 0 0 0 0 0 0 0 0 0 0 0 0 0 0 0 0 0 0 0 0 0 0 0 0 0 0 0 0 0 0 0 0 0 0 0 0 0 0 0 0 0 0 0 0 0 0 0 0 0 0 0 0 0 0 0
0 0 0 0 0 0 0 0 1106 1082 1110 1132 1177 1128 1173 1193 1257 1282 1269 1213 1255 1249 1232 0 0 0 0 0 0 0 0 0 0 0 0 0 0 0 0 0 0 0 0 0 0 0 0 0 0 0 0 0 0 0 0 0 0 0 0 0 0 0 0 0 0 0 0 0 0 0 0 0 0 0 0 0 0 0 0 0 0 0 0 0 0 0 0 0 0 0 0 0 0 0 0 0 0 0 0 0 0 0 0 0 0 0 0 0 0 0 0 0 0 0 0 0 0 0 0 0
0 0 0 0 0 0 0 1111 1105 1120 0 0 1171 1163 1192 1198 1281 1288 1258 1231 1272 1262 1291 1242 0 0 0 0 0 0 0 0 0 0 0 0 0 0 0 0 0 0 0 0 0 0 0 0 0 0 0 0 0 0 0 0 0 0 0 0 0 0 0 0 0 0 0 0 0 0 0 0 0 0 0 0 0 0 0 0 0 0 0 0 0 0 0 0 0 0 0 0 0 0 0 0 0 0 0 0 0 0 0 0 0 0 0 0 0 0 0 0 0 0 0 0 0 0 0 0
0 0 0 0 0 0 0 0 0 0 0 0 1241 1275 1267 1286 1306 1331 1335 1286 1309 1293 1294 1323 1361 0 0 0 0 0 0 1478 0 0 0 0 0 0 0 0 0 0 0 0 0 0 0 0 0 0 0 0 0 0 0 0 0 0 0 0 0 0 0 0 0 0 0 0 0 0 0 0 0 0 0 0 0 0 0 0 0 0 0 0 0 0 0 0 0 0 0 0 0 0 0 0 0 0 0 0 0 0 0 0 0 0 0 0 0 0 0 0 0 0 0 0 0 0 0 0
0 0 0 0 0 0 0 0 0 0 0 0 1272 1245 1272 1272 1295 1320 1270 1262 1298 1243 1263 1273 0 1313 1321 1344 1368 0 0 1429 0 0 0 0 0 0 0 0 0 0 0 0 0 0 0 0 0 0 0 0 0 0 0 0 0 0 0 0 0 0 0 0 0 0 0 0 0 0 0 0 0 0 0 0 0 0 0 0 0 0 0 0 0 0 0 0 0 0 0 0 0 0 0 0 0 0 0 0 0 0 0 0 0 0 0 0 0 0 0 0 0 0 0 0 0 0 0 0
0 0 0 0 0 0 0 0 0 0 0 0 1322 1274 1268 1283 1304 1274 1264 1287 1286 1275 1270 1296 0 0 1367 1386 1347 1339 1414 1430 0 0 0 0 0 0 0 0 0 0 0 0 0 0 0 0 0 0 0 0 0 0 0 0 0 0 0 0 0 0 0 0 0 0 0 0 0 0 0 0 0 0 0 0 0 0 0 0 0 0 0 0 0 0 0 0 0 0 0 0 0 0 0 0 0 0 0 0 0 0 0 0 0 0 0 0 0 0 0 0 0 0 0 0 0 0 0 0
0 0 0 0 0 0 0 0 0 0 0 0 0 0 1304 1266 1279 1289 1283 1267 1256 1287 1251 1291 1285 0 0 1357 1348 1361 1361 1418 0 0 0 0 0 0 0 0 0 0 0 0 0 0 0 0 0 0 0 0 0 0 0 0 0 0 0 0 0 0 0 0 0 0 0 0 0 0 0 0 0 0 0 0 0 0 0 0 0 0 0 0 0 0 0 0 0 0 0 0 0 0 0 0 0 0 0 0 0 0 0 0 0 0 0 0 0 0 0 0 0 0 0 0 0 0 0 0
0 0 0 0 0 0 0 0 0 0 0 0 0 0 0 0 0 0 0 0 0 1225 1246 1239 1239 0 0 1333 1354 1332 1336 1381 1359 0 0 0 0 0 0 0 0 0 0 0 0 0 0 0 0 0 0 0 0 0 0 0 0 0 0 0 0 0 0 0 0 0 0 0 0 0 0 0 0 0 0 0 0 0 0 0 0 0 0 0 0 0 0 0 0 0 0 0 0 0 0 0 0 0 0 0 0 0 0 0 0 0 0 0 0 0 0 0 0 0 0 0 0 0 0 0
0 0 0 0 0 0 0 0 0 0 0 0 0 0 0 0 0 0 0 0 0 0 0 1353 1320 0 0 0 1346 1334 1340 1413 1441 0 0 0 0 0 0 0 0 0 0 0 0 0 0 0 0 0 0 0 0 0 0 0 0 0 0 0 0 0 0 0 0 0 0 0 0 0 0 0 0 0 0 0 0 0 0 0 0 0 0 0 0 0 0 0 0 0 0 0 0 0 0 0 0 0 0 0 0 0 0 0 0 0 0 0 0 0 0 0 0 0 0 0 0 0 0 0
0 0 0 0 0 0 0 0 0 0 0 0 0 0 0 0 0 0 0 0 0 0 0 1379 1384 1291 1236 0 1339 1329 1344 1404 1411 0 0 0 0 0 0 0 0 0 0 0 0 0 0 0 0 0 0 0 0 0 0 0 0 0 0 0 0 0 0 0 0 0 0 0 0 0 0 0 0 0 0 0 0 0 0 0 0 0 0 0 0 0 0 0 0 0 0 0 0 0 0 0 0 0 0 0 0 0 0 0 0 0 0 0 0 0 0 0 0 0 0 0 0 0 0 0
0 0 0 0 0 0 0 0 0 0 0 0 0 0 0 0 0 0 0 0 0 0 0 1378 1402 1378 1296 1283 1302 1297 1329 1379 1447 0 0 0 0 0 0 0 0 0 0 0 0 0 0 0 0 0 0 0 0 0 0 0 0 0 0 0 0 0 0 0 0 0 0 0 0 0 0 0 0 0 0 0 0 0 0 0 0 0 0 0 0 0 0 0 0 0 0 0 0 0 0 0 0 0 0 0 0 0 0 0 0 0 0 0 0 0 0 0 0 0 0 0 0 0 0 0
0 0 0 0 0 0 0 0 0 0 0 0 0 0 0 0 0 0 0 0 0 0 0 1415 1413 1385 1363 1355 1333 1341 1402 1409 1461 0 0 0 0 0 0 0 0 0 0 0 0 0 0 0 0 0 0 0 0 0 0 0 0 0 0 0 0 0 0 0 0 0 0 0 0 0 0 0 0 0 0 0 0 0 0 0 0 0 0 0 0 0 0 0 0 0 0 0 0 0 0 0 0 0 0 0 0 0 0 0 0 0 0 0 0 0 0 0 0 0 0 0 0 0 0 0
0 0 0 0 0 0 0 0 0 0 0 0 0 0 0 0 0 0 0 0 0 0 0 1373 1369 1369 1375 1356 1350 1328 1356 1422 1428 0 0 0 0 0 0 0 0 0 0 0 0 0 0 0 0 0 0 0 0 0 0 0 0 0 0 0 0 0 0 0 0 0 0 0 0 0 0 0 0 0 0 0 0 0 0 0 0 0 0 0 0 0 0 0 0 0 0 0 0 0 0 0 0 0 0 0 0 0 0 0 0 0 0 0 0 0 0 0 0 0 0 0 0 0 0 0
1274 1288 1273 1299 1300 1315 1333 0 0 0 0 0 0 0 0 0 0 0 0 0 0 0 0 0 1346 1367 1376 1373 1364 1382 1379 1423 1417 0 0 0 0 0 0 0 0 0 0 0 0 0 0 0 0 0 0 0 0 0 0 0 0 0 0 0 0 0 0 0 0 0 0 0 0 0 0 0 0 0 0 0 0 0 0 0 0 0 0 0 0 0 0 0 0 0 0 0 0 0 0 0 0 0 0 0 0 0 0 0 0 0 0 0 0 0 0 0 0 0 0 0 0 0 0 0
1271 1278 1272 1270 1284 1304 1321 1318 1323 1321 1346 0 0 0 0 0 0 0 0 0 0 0 0 1406 1341 1362 1360 1358 1371 1368 1382 1419 1446 0 0 0 0 0 0 0 0 0 0 0 0 0 0 0 0 0 0 0 0 0 0 0 0 0 0 0 0 0 0 0 0 0 0 0 0 0 0 0 0 0 0 0 0 0 0 0 0 0 0 0 0 0 0 0 0 0 0 0 0 0 0 0 0 0 0 0 0 0 0 0 0 0 0 0 0 0 0 0 0 0 0 0 0 0 0 0
1207 1241 1252 1266 1241 1284 1303 1329 1324 1312 1331 1351 1327 1373 1355 1359 0 0 0 0 0 0 0 0 0 1308 0 0 1360 0 0 1410 1395 0 0 0 0 0 0 0 0 0 0 0 0 0 0 0 0 0 0 0 0 0 0 0 0 0 0 0 0 0 0 0 0 0 0 0 0 0 0 0 0 0 0 0 0 0 0 0 0 0 0 0 0 0 0 0 0 0 0 0 0 0 0 0 0 0 0 0 0 0 0 0 0 0 0 0 0 0 0 0 0 0 0 0 0 0 0 0
0 0 0 0 1286 1287 1285 1296 1308 1333 1320 1350 1364 1386 1384 1371 1389 1398 1426 1452 1436 0 0 0 0 0 0 0 0 0 0 1424 1414 1408 0 0 0 0 0 0 0 0 0 0 0 0 0 0 0 0 0 0 0 0 0 0 0 0 0 0 0 0 0 0 0 0 0 0 0 0 0 0 0 0 0 0 0 0 0 0 0 0 0 0 0 0 0 0 0 0 0 0 0 0 0 0 0 0 0 0 0 0 0 0 0 0 0 0 0 0 0 0 0 0 0 0 0 0 0 0
0 0 0 0 0 0 0 0 0 1291 1332 1306 1318 1370 1380 1386 1402 1405 1430 1420 1412 1516 0 0 0 0 0 0 0 0 0 1403 1458 1459 0 0 0 0 0 0 0 0 0 0 0 0 0 0 0 0 0 0 0 0 0 0 0 0 0 0 0 0 0 0 0 0 0 0 0 0 0 0 0 0 0 0 0 0 0 0 0 0 0 0 0 0 0 0 0 0 0 0 0 0 0 0 0 0 0 0 0 0 0 0 0 0 0 0 0 0 0 0 0 0 0 0 0 0 0 0
0 0 0 0 0 0 0 0 0 0 0 0 0 0 0 1371 1411 1424 1416 1407 1472 1460 0 0 0 0 0 0 0 0 0 0 1473 0 0 0 0 0 0 0 0 0 0 0 0 0 0 0 0 0 0 0 0 0 0 0 0 0 0 0 0 0 0 0 0 0 0 0 0 0 0 0 0 0 0 0 0 0 0 0 0 0 0 0 0 0 0 0 0 0 0 0 0 0 0 0 0 0 0 0 0 0 0 0 0 0 0 0 0 0 0 0 0 0 0 0 0 0 0 0
0 0 0 0 0 0 0 0 0 0 0 0 0 0 0 0 0 0 0 0 0 1529 0 0 0 0 0 0 0 0 0 0 0 0 0 0 0 0 0 0 0 0 0 0 0 0 0 0 0 0 0 0 0 0 0 0 0 0 0 0 0 0 0 0 0 0 0 0 0 0 0 0 0 0 0 0 0 0 0 0 0 0 0 0 0 0 0 0 0 0 0 0 0 0 0 0 0 0 0 0 0 0 0 0 0 0 1805 0 0 0 0 0 0 0 0 0 0 0 0 0
0 0 0 0 0 0 0 0 0 0 0 0 0 0 0 0 0 0 0 0 0 0 0 0 0 0 0 0 0 0 0 0 0 0 0 0 0 0 0 0 0 0 0 0 0 0 0 0 0 0 0 0 0 0 0 0 0 0 0 0 0 0 0 0 0 0 0 0 0 0 0 0 0 0 0 0 0 0 0 0 0 0 0 0 0 0 0 0 0 0 0 0 0 0 0 0 0 0 0 0 0 0 0 0 0 0 1638 1637 1603 1601 1642 1574 1598 1633 1519 1551 0 0 0 0
0 0 0 0 0 0 0 0 0 0 0 0 0 0 0 0 0 0 0 0 0 0 0 0 0 0 0 0 0 0 0 0 0 0 0 0 0 0 0 0 0 0 0 0 0 0 0 0 0 0 0 0 0 0 0 0 0 0 0 0 0 0 0 0 0 0 0 0 0 0 0 0 0 0 0 0 0 0 0 0 0 0 0 0 0 0 0 0 0 0 0 0 0 0 0 0 0 0 0 1714 1706 1679 1652 1632 1659 1637 1615 1585 1608 1587 1585 1545 1562 1523 1504 1537 0 0 0 0
0 0 0 0 0 0 0 0 0 0 0 0 0 0 0 0 0 0 0 0 0 0 0 0 0 0 0 0 0 0 0 0 0 0 0 0 0 0 0 0 0 0 0 0 0 0 0 0 0 0 0 0 0 0 0 0 0 0 0 0 0 0 0 0 0 0 0 0 0 0 0 0 0 0 0 0 0 0 0 0 0 0 0 0 0 0 0 0 0 0 0 1793 1811 1799 1830 1781 1718 1759 1674 1705 1698 1687 1681 1672 1650 1643 1635 1619 1610 1599 1604 0 0 0 0 0 0 0 0 0
545 567 556 0 0 0 0 0 0 0 0 0 0 0 0 0 0 0 0 0 0 0 0 0 0 1846 1859 0 0 0 0 0 0 0 0 0 0 0 0 0 0 0 0 0 0 0 0 2941 2925 2934 2913 2900 2943 2897 2929 2920 2974 2972 2932 2936 0 2909 2955 2925 2948 2933 0 0 0 0 0 0 0 0 0 0 0 0 0 0 0 0 0 0 0 0 0 0 0 0 0 1778 1729 1709 1677 1724 1734 1700 1669 1677 1645 1635 1633 1655 0 0 0 0 0 0 0 0 0 0 0 0 0 0 0 0
567 582 590 583 611 621 0 0 0 0 0 0 0 0 0 0 0 0 0 0 0 0 0 0 0 0 0 1881 0 0 0 0 0 0 0 0 0 0 0 0 0 0 0 0 0 0 0 2987 2933 2940 2967 2928 2909 2933 2951 2987 2921 2946 2894 2938 2913 2925 2917 2893 2878 2875 0 0 0 0 0 0 0 0 0 0 0 0 0 0 0 0 0 0 0 0 0 0 0 0 0 1757 1760 1727 1749 0 0 0 0 0 0 0 0 0 0 0 0 0 0 0 0 0 0 0 0 0 0 0 0 0
556 583 566 603 610 628 632 643 657 0 0 0 0 0 0 0 0 0 0 0 0 0 0 0 0 0 0 0 0 0 0 0 0 0 0 0 0 0 0 0 0 0 0 0 0 0 0 2892 2912 2924 2893 2960 2938 2939 2941 2938 2895 2963 2883 2857 2953 2879 2900 2929 2908 0 0 0 0 0 0 0 0 0 0 0 0 0 0 0 0 0 0 0 0 0 0 0 0 0 0 0 0 0 0 0 0 0 0 0 0 0 0 0 0 0 0 0 0 0 0 0 0 0 0 0 0 0 0 0
591 593 605 598 638 644 638 640 660 673 704 713 0 0 0 0 0 0 0 0 0 0 0 0 0 0 0 0 0 0 0 0 0 0 0 0 0 0 0 0 0 0 0 0 0 0 0 2895 2883 2900 2912 2869 2919 2888 2902 2931 2917 2893 2883 2883 2904 2938 2884 2900 2904 2894 0 0 0 0 0 0 0 0 0 0 0 0 0 0 0 0 0 0 0 0 0 0 0 0 0 0 0 0 0 0 0 0 0 0 0 0 0 0 0 0 0 0 0 0 0 0 0 0 0 0 0 0 0 0
577 615 595 608 609 639 644 661 680 690 686 698 726 735 759 0 0 0 0 0 0 0 0 0 0 0 0 0 0 0 0 0 0 0 0 0 0 0 0 0 0 0 0 0 0 0 0 2921 2917 2897 2888 2891 2913 2916 2879 2894 2897 2868 2868 2918 2859 2911 2878 2890 2881 2917 0 0 0 0 0 0 0 0 0 0 0 0 0 0 0 0 0 0 0 0 0 0 0 0 0 0 0 0 0 0 0 0 0 0 0 0 0 0 0 0 0 0 0 0 0 0 0 0 0 0 0 0 0 0
759 804 765 765 727 661 658 672 680 666 694 701 716 696 745 752 789 777 0 0 0 0 0 0 0 0 0 0 0 0 0 0 0 0 0 0 0 0 0 0 0 0 0 0 0 0 0 2903 2900 2912 2847 2921 2881 2935 2879 2890 2887 2907 2881 2901 2914 2922 2825 2924 2898 2846 0 0 0 0 0 0 0 0 0 0 0 0 0 0 0 0 0 0 0 0 0 0 0 0 0 0 0 0 0 0 0 0 0 0 0 0 0 0 0 0 0 0 0 0 0 0 0 0 0 0 0 0 0 0
809 816 821 838 829 861 859 865 798 780 750 751 724 750 753 755 754 769 796 819 803 0 0 0 0 0 0 0 0 0 0 0 0 0 0 0 0 0 0 0 0 0 0 0 0 0 0 2944 2919 2891 2927 2929 2907 2883 2929 2962 2865 2885 2936 2867 2894 2931 2862 2892 2851 2861 0 0 0 0 0 0 0 0 0 0 0 0 0 0 0 0 0 0 0 0 0 0 0 0 0 0 0 0 0 0 0 0 0 0 0 0 0 0 0 0 0 0 0 0 0 0 0 0 0 0 0 0 0 0
776 806 836 829 838 867 866 878 907 901 928 915 935 894 847 784 782 790 821 826 806 832 882 892 0 0 0 0 0 0 0 0 0 0 0 0 0 0 0 0 0 0 0 0 0 0 0 2890 2885 2873 2902 2892 2883 2919 2909 2904 2854 2913 2922 2903 2917 2881 2896 2940 2860 2910 0 0 0 0 0 0 0 0 0 0 0 0 0 0 0 0 0 0 0 0 0 0 0 0 0 0 0 0 0 0 0 0 0 0 0 0 0 0 0 0 0 0 0 0 0 0 0 0 0 0 0 0 0 0
596 0 808 848 862 843 850 882 880 896 932 946 943 951 946 942 935 929 884 859 839 827 854 889 913 908 0 0 0 0 0 0 0 0 0 0 0 0 0 0 0 0 0 0 0 0 0 2933 2937 2904 2887 2870 2890 2961 2908 2909 2912 2940 2945 2853 2891 2884 2916 2934 2936 2939 0 0 0 0 0 0 0 0 0 0 0 0 0 0 0 0 0 0 0 0 0 0 0 0 0 0 0 0 0 0 0 0 0 0 0 0 0 0 0 0 0 0 0 0 0 0 0 0 0 0 0 0 0 0
649 920 935 941 925 935 912 903 900 919 932 929 946 947 951 942 952 942 940 937 934 912 910 889 904 927 927 940 1016 0 0 0 0 0 0 0 0 0 0 0 0 0 0 0 0 0 0 2903 2896 2888 2943 2885 2877 2916 2907 2887 2941 2872 2880 2864 2919 2912 2860 2899 2881 0 0 0 0 0 0 0 0 0 0 0 0 0 0 0 0 0 0 0 0 0 0 0 0 0 0 0 0 0 0 0 0 0 0 0 0 0 0 0 0 0 0 0 0 0 0 0 0 0 0 0 0 0 0 0
566 722 0 0 0 0 0 0 0 0 998 954 945 972 933 902 948 947 927 945 940 932 925 917 950 930 948 944 1002 1047 1071 0 0 0 0 0 0 0 0 0 0 0 0 0 0 0 0 2957 2928 2907 2885 2887 2955 2897 2906 2960 2938 2929 2894 2928 2956 2881 2938 2872 2917 0 0 0 0 0 0 0 0 0 0 0 0 0 0 0 0 0 0 0 0 0 0 0 0 0 0 0 0 0 0 0 0 0 0 0 0 0 0 0 0 0 0 0 0 0 0 0 0 0 0 0 0 0 0 0
590 609 549 0 1106 1138 1127 1133 1133 1147 1132 1142 1142 1139 1154 1134 1116 1031 0 0 1022 1064 1053 995 1015 1030 1122 1129 1095 1086 1087 0 0 0 0 0 0 0 0 0 0 0 0 0 0 0 0 2904 2927 2878 2893 2928 2991 2917 2936 2928 2894 2897 2918 2887 2912 2913 2891 2898 2882 2899 0 0 0 0 0 0 0 0 0 0 0 0 0 0 0 0 0 0 0 0 0 0 0 0 0 0 0 0 0 0 0 0 0 0 0 0 0 0 0 0 0 0 0 0 0 0 0 0 0 0 0 0 0 0
578 587 602 611 0 0 0 0 0 0 0 0 0 0 0 0 1375 1009 0 0 1126 1151 1143 1012 0 1132 1166 1158 1151 1133 1140 0 0 0 0 0 0 0 0 0 0 0 0 0 0 0 0 2865 2918 2930 2895 2891 2866 2935 2909 2896 2887 2868 2878 2904 2872 2899 2869 2851 2857 2923 0 0 0 0 0 0 0 0 0 0 0 0 0 0 0 0 0 0 0 0 0 0 0 0 0 0 0 0 0 0 0 0 0 0 0 0 0 0 0 0 0 0 0 0 0 0 0 0 0 0 0 0 0 0
600 593 595 607 612 0 0 0 0 0 0 0 0 0 0 0 0 986 953 0 0 0 0 0 0 0 0 0 0 0 0 0 0 0 0 0 0 0 0 0 0 0 0 0 0 0 0 2896 2877 2946 2914 2847 2920 2905 2909 2922 2866 2894 2908 2895 2890 2911 2863 2929 2864 2922 0 0 0 0 0 0 0 0 0 0 0 0 0 0 0 0 0 0 0 0 0 0 0 0 0 0 0 0 0 0 0 0 0 0 0 0 0 0 0 0 0 0 0 0 0 0 0 0 0 0 0 0 0 0
583 604 605 601 644 628 0 0 0 0 0 0 0 0 0 0 0 0 0 0 0 0 0 0 0 0 0 0 0 0 0 0 0 0 0 0 0 0 0 0 0 0 0 0 0 0 0 2910 2880 2843 2893 2882 2859 2876 2916 2895 2887 2951 2931 2887 2883 2917 2947 2865 2891 0 0 0 0 0 0 0 0 0 0 0 0 0 0 0 0 0 0 0 0 0 0 0 0 0 0 0 0 0 0 0 0 0 0 0 0 0 0 0 0 0 0 0 0 0 0 0 0 0 0 0 0 0 0 0
607 627 610 617 621 602 0 0 0 0 0 0 0 0 0 0 0 0 0 0 0 0 981 0 0 0 0 0 0 0 0 0 0 0 0 0 0 0 0 0 0 0 0 0 0 0 0 2901 2893 2888 2870 2898 2890 2914 2915 2875 2877 2910 2912 2879 2876 2885 2886 2870 2898 0 0 0 0 0 0 0 0 0 0 0 0 0 0 0 0 0 0 0 0 0 0 0 0 0 0 0 0 0 0 0 0 0 0 0 0 0 0 0 0 0 0 0 0 0 0 0 0 0 0 0 0 0 0 0
577 609 586 591 595 611 581 0 0 0 0 0 0 0 0 0 0 0 0 0 0 0 960 0 0 0 0 0 0 0 0 0 0 0 0 0 0 0 0 0 0 0 0 0 0 0 0 2948 2961 2938 2917 2900 2966 2902 2928 2898 2877 2895 2874 2964 2880 2876 2853 2863 2889 0 0 0 0 0 0 0 0 0 0 0 0 0 0 0 0 0 0 0 0 0 0 0 0 0 0 0 0 0 0 0 0 0 0 0 0 0 0 0 0 0 0 0 0 0 0 0 0 0 0 0 0 0 0 0
599 573 576 586 569 578 617 0 0 0 0 0 0 0 0 0 0 0 0 0 0 0 0 0 0 0 0 0 0 0 0 0 0 0 0 0 0 0 0 0 0 0 0 0 0 0 0 2920 2919 2860 2901 2976 2925 2910 2911 2902 2898 2867 2983 2924 2908 2896 2898 2914 2899 2869 0 0 0 0 0 0 0 0 0 0 0 0 0 0 0 0 0 0 0 0 0 0 0 0 0 0 0 0 0 0 0 0 0 0 0 0 0 0 0 0 0 0 0 0 2029 0 0 0 0 0 0 0 0 0
573 558 597 584 600 607 567 0 0 0 0 0 0 0 0 0 2308 0 0 0 940 0 925 980 0 0 0 0 0 0 0 0 0 0 0 0 0 0 0 0 0 0 0 0 0 0 0 2896 2908 2893 2914 2912 2908 2947 2957 2908 2952 2919 2890 2909 2885 2926 2927 2897 2865 2850 0 0 0 0 0 0 0 0 0 0 0 0 0 0 0 0 0 0 0 0 0 0 0 0 0 0 0 0 0 0 0 0 0 0 0 0 0 0 0 0 0 0 0 0 1998 0 0 0 0 0 0 0 0 0
616 601 572 620 611 608 588 0 0 0 0 0 0 0 0 0 0 0 0 0 0 0 0 0 0 0 0 0 0 0 0 0 0 0 0 0 0 0 0 0 0 0 0 0 0 0 0 2855 2852 2907 2904 2931 2917 2867 2935 2895 2910 2895 2888 2871 2851 2875 2887 2884 2873 2821 0 0 0 0 0 0 0 0 0 0 0 0 0 0 0 0 0 0 0 0 0 0 0 0 0 0 0 0 0 0 0 0 0 0 0 0 0 0 0 0 0 0 0 0 0 0 0 0 0 0 0 0 0 0
583 603 601 618 603 583 0 0 0 0 0 0 0 0 0 0 0 0 0 0 0 0 0 0 0 0 0 0 0 0 0 0 0 0 0 0 0 0 0 0 0 0 0 0 0 0 0 0 0 0 0 0 0 0 0 0 0 0 0 0 0 2903 2981 2862 2905 0 0 0 0 0 0 0 0 0 0 0 0 0 0 0 0 0 0 0 0 0 0 0 0 0 0 0 0 0 0 0 0 0 0 0 0 0 0 0 0 0 0 0 0 0 0 0 0 0 0 0 0 0 0 0
604 581 621 595 594 601 0 0 0 0 0 0 0 0 0 0 0 0 0 0 0 0 0 0 0 0 0 0 0 0 0 0 0 0 0 0 0 0 0 0 0 0 0 0 0 0 0 0 0 0 0 0 0 0 0 0 0 0 0 0 0 0 0 0 0 0 0 0 0 0 0 0 0 0 0 0 0 0 0 0 0 0 0 0 0 0 0 0 0 0 0 0 0 0 0 0 0 0 0 0 0 0 0 0 0 0 0 0 0 0 0 0 0 0 0 0 0 0 0 0
620 617 587 633 634 0 0 0 0 0 0 0 0 0 0 0 0 0 0 0 0 0 0 0 0 0 0 0 0 0 0 0 0 0 0 0 0 0 0 0 0 0 0 0 0 0 0 0 0 0 0 0 0 0 0 0 0 0 0 0 0 0 0 0 0 0 0 0 0 0 0 0 0 0 0 0 0 0 0 0 0 0 0 0 0 0 0 0 0 0 0 0 0 0 0 0 0 0 0 0 0 0 0 0 0 0 0 0 0 0 0 0 0 0 0 0 0 0 0 0
618 592 600 582 583 0 0 0 0 0 0 0 0 0 0 0 0 0 0 0 0 0 0 0 0 0 0 0 0 0 0 0 0 0 0 0 0 0 0 0 0 0 0 0 0 0 0 0 0 0 0 0 0 0 0 0 0 0 0 0 0 0 0 0 0 0 0 0 0 0 0 0 0 0 0 0 0 0 0 0 0 0 0 0 0 0 0 0 0 0 0 0 0 0 0 0 0 0 0 0 0 0 0 0 0 0 0 0 0 0 0 0 0 0 0 0 0 0 0 0
578 592 584 580 0 0 0 0 0 0 0 0 0 0 0 0 0 0 0 0 0 0 0 0 0 0 831 820 887 878 848 847 873 884 834 852 844 860 863 892 902 924 0 0 0 0 0 0 0 0 0 0 0 0 0 0 0 0 0 0 0 0 0 0 0 0 0 0 0 0 0 0 0 0 0 0 0 0 0 0 0 0 0 0 0 0 0 0 0 0 0 0 0 0 0 0 0 0 0 0 0 0 0 0 0 0 0 0 0 0 0 0 0 0 0 0 0 0 0 0
584 574 614 0 0 0 651 657 711 707 673 693 690 712 702 686 688 664 661 650 669 743 662 670 693 693 705 695 661 669 744 698 646 695 699 709 721 716 727 769 741 723 735 735 725 737 759 711 787 781 756 769 744 755 797 774 738 772 777 797 736 773 743 732 744 791 771 788 760 775 812 787 755 0 792 0 0 0 0 0 0 0 0 0 0 0 0 0 0 0 0 0 0 0 0 0 0 0 0 0 0 0 0 0 0 0 0 0 0 0 0 0 0 0 0 0 0 0 0 0
544 541 549 529 549 563 531 584 557 575 561 576 588 579 594 571 567 558 581 579 543 551 573 565 594 589 558 582 551 580 571 565 555 584 561 597 605 611 616 593 587 609 629 610 615 591 559 596 596 618 610 602 614 583 605 618 648 594 620 617 648 630 608 609 627 659 618 638 614 649 661 648 634 628 633 664 615 656 643 603 607 645 643 680 673 672 602 676 625 693 636 636 703 648 636 0 622 691 703 646 642 669 0 0 0 0 0 0 0 0 0 0 0 0 0 0 0 0 0 0
523 502 489 517 524 491 489 508 492 515 523 499 500 514 511 506 487 515 487 519 514 515 514 505 518 494 507 523 513 510 515 512 509 532 527 497 531 526 529 505 516 536 527 510 523 532 525 527 527 523 536 542 538 554 516 539 547 501 539 527 533 543 547 525 564 548 561 564 551 555 549 561 559 541 559 550 552 561 553 552 534 567 553 559 555 604 566 552 561 571 586 564 567 569 604 622 601 554 616 586 594 628 668 627 0 570 620 597 606 608 0 0 0 0 0 0 0 0 0 0
428 417 444 455 432 427 444 441 448 458 451 438 454 448 452 458 458 440 446 464 459 444 457 459 461 452 455 460 453 465 456 473 490 453 459 466 472 452 493 461 478 464 478 470 492 464 470 481 475 484 470 487 473 481 484 470 481 482 482 482 494 485 478 493 486 489 472 496 486 485 499 485 480 495 503 477 503 509 476 478 493 505 493 490 494 494 481 520 514 508 508 525 506 500 508 515 497 518 510 509 509 504 493 526 511 551 533 514 566 485 536 533 0 0 0 0 0 0 0 0
398 391 376 390 395 389 405 400 390 385 407 393 394 396 404 403 400 399 407 403 405 409 398 405 423 405 412 417 405 416 414 427 414 410 426 418 413 428 418 421 408 416 428 414 430 425 423 412 426 427 427 436 426 435 431 424 428 430 419 429 423 438 419 435 422 434 437 438 430 444 451 431 431 439 441 422 428 425 425 444 432 435 439 440 428 442 423 429 431 449 440 443 432 445 446 443 439 441 448 441 449 448 435 438 458 461 430 450 437 435 432 430 469 447 0 0 0 0 0 0
373 351 351 360 355 372 368 353 364 362 370 352 349 368 371 364 366 375 357 359 373 375 377 380 376 384 362 363 382 380 385 387 377 382 377 369 377 395 364 378 373 385 361 375 368 372 391 373 382 372 388 371 373 376 370 382 387 397 385 382 396 384 384 397 391 392 395 406 389 382 389 394 391 395 392 416 402 402 405 392 393 394 405 402 399 407 398 403 403 400 396 407 400 392 398 414 384 411 399 415 393 394 397 404 413 416 373 404 395 406 388 403 404 424 434 405 0 0 0 0
321 312 326 317 326 335 339 334 341 344 348 335 352 344 354 350 343 346 350 337 331 356 341 330 351 352 338 333 351 341 335 356 339 356 349 337 358 334 335 338 353 336 342 349 347 345 349 345 354 344 343 349 344 347 345 333 350 348 351 343 358 350 336 358 350 341 351 343 339 355 356 355 356 354 367 350 366 356 364 348 358 362 344 358 351 371 365 340 358 372 368 354 361 342 356 364 362 357 357 367 372 354 359 387 367 359 354 355 364 369 377 352 363 358 386 368 378 0 0 0
291 287 312 299 292 299 311 297 308 308 306 301 298 291 297 293 312 305 303 300 304 298 309 312 300 297 295 305 292 314 309 305 294 304 306 303 309 313 315 310 306 314 307 305 313 305 308 309 307 312 314 304 311 309 309 311 306 319 314 317 321 308 305 311 303 314 326 309 326 311 320 322 314 309 311 320 320 314 308 323 318 318 309 323 325 336 313 320 329 328 325 311 319 311 316 327 328 334 327 337 332 323 334 323 303 333 331 333 323 324 328 341 297 324 295 333 283 314 310 0
281 273 269 271 281 296 278 290 281 295 284 281 296 286 289 284 277 293 275 292 274 276 279 266 276 274 284 278 282 278 282 285 284 281 284 276 279 287 292 296 285 285 285 288 286 284 286 290 281 282 292 282 283 286 291 285 284 285 286 298 290 289 295 289 296 292 295 293 301 287 291 290 290 292 285 290 287 285 289 292 290 299 290 297 299 303 287 296 302 306 287 297 296 304 309 283 282 290 306 294 300 308 305 308 278 307 291 303 307 299 315 309 313 287 300 282 294 343 262 332
253 250 252 249 246 256 253 255 268 256 248 257 250 258 261 248 265 262 258 249 254 261 257 251 255 262 254 259 256 255 263 269 259 254 257 269 263 266 264 265 263 256 266 268 261 265 268 254 267 262 271 268 268 265 274 260 263 267 261 267 262 265 270 264 272 266 268 267 266 268 264 267 268 270 270 263 268 267 268 267 266 270 263 267 268 266 268 263 266 262 263 262 267 274 266 259 268 273 279 279 276 264 274 274 270 271 281 270 274 280 268 282 288 255 297 270 254 258 271 263
235 240 240 238 249 238 237 230 235 234 232 227 232 242 240 236 239 240 249 241 242 239 240 239 244 240 238 238 243 253 242 243 239 240 242 240 250 246 255 244 249 242 249 241 244 252 248 243 254 258 243 249 249 249 256 245 252 246 245 250 251 251 249 251 253 255 248 250 249 251 250 253 247 251 252 255 249 251 256 248 248 240 242 248 249 254 249 249 246 254 251 250 258 255 256 247 248 255 246 248 256 251 256 255 249 252 253 246 258 252 246 256 262 261 240 253 258 246 272 251
219 224 222 214 219 227 224 219 223 215 216 224 224 229 223 226 227 223 225 224 229 223 231 230 226 228 227 227 226 224 233 232 231 232 225 235 225 231 230 227 233 230 231 222 239 231 238 227 239 237 234 230 237 244 234 229 234 230 236 226 242 234 232 234 239 235 233 231 235 233 229 234 234 234 230 226 234 233 227 229 232 230 239 231 239 228 245 238 239 237 234 237 238 241 232 230 232 241 250 239 237 243 240 238 232 225 239 236 245 253 235 249 232 240 244 236 251 227 239 247
211 204 214 216 217 207 207 212 209 211 214 210 207 215 208 210 216 211 208 223 214 209 216 209 209 214 214 215 214 215 213 217 218 193 212 214 211 217 214 216 216 218 214 219 216 217 216 226 224 220 217 220 225 220 222 220 218 217 222 220 222 225 223 223 218 215 223 219 219 223 216 222 217 203 218 217 218 221 216 223 219 221 227 228 227 225 223 213 222 217 224 216 224 221 229 221 214 218 228 225 224 225 220 226 223 227 222 209 234 232 219 219 226 228 230 215 224 204 251 229
190 197 198 198 207 201 202 199 186 197 201 204 201 192 206 189 191 192 196 193 190 189 197 194 190 188 186 196 190 192 197 194 190 184 200 194 192 192 190 199 196 189 189 199 192 197 203 191 197 196 193 191 195 196 193 195 195 197 197 194 198 190 202 199 194 192 194 202 192 194 200 196 196 195 194 198 195 196 194 198 192 192 197 200 201 199 198 185 193 197 214 199 207 207 195 184 186 208 213 209 210 212 206 209 212 215 206 211 206 207 208 213 208 209 198 198 178 201 201 198
176 181 194 174 193 182 179 186 182 181 182 179 176 177 201 184 177 183 179 180 182 189 192 186 190 181 189 191 189 194 193 186 194 186 194 194 194 189 192 189 195 193 198 197 199 196 193 194 189 195 198 198 199 197 193 199 200 197 198 198 200 198 197 201 199 196 198 195 193 196 194 189 198 192 194 198 199 195 191 195 193 196 195 186 186 195 190 195 184 186 185 183 190 193 190 191 191 189 187 187 188 185 177 184 190 186 183 187 190 187 183 179 176 182 182 186 182 176 173 199
172 177 176 169 180 172 180 177 181 183 183 185 181 186 182 184 186 189 181 186 185 185 184 183 182 187 186 183 186 183 185 189 192 185 187 185 187 187 185 180 183 181 189 188 186 194 185 190 185 185 191 195 190 192 188 187 195 190 190 192 185 186 187 188 188 191 190 189 190 187 193 188 190 192 185 187 190 189 186 190 191 189 187 187 196 193 187 190 188 191 184 183 186 185 189 183 185 183 188 189 183 185 186 177 184 183 182 178 183 184 173 173 182 183 173 169 192 175 172 181
171 167 160 170 169 170 168 176 163 169 169 170 170 176 176 174 172 180 177 184 175 171 176 174 177 166 184 174 172 175 175 173 176 172 176 176 177 172 179 175 175 182 179 179 183 178 179 181 183 176 182 181 178 183 177 183 181 182 180 180 179 178 181 184 179 183 179 183 178 180 179 179 180 179 177 179 180 181 179 180 181 182 172 176 175 178 174 184 178 179 176 177 172 174 174 176 176 183 182 182 182 184 180 180 180 179 174 173 170 177 178 177 176 170 175 172 174 172 171 167
166 165 162 164 158 163 158 158 166 167 167 167 166 169 164 169 168 167 170 169 168 164 169 168 165 163 165 169 167 175 179 173 166 166 166 166 171 164 174 164 171 171 171 168 168 171 170 168 172 167 170 170 169 169 173 172 168 175 172 171 174 162 173 169 176 171 170 174 168 174 176 171 168 176 169 174 173 172 167 169 167 172 169 166 167 172 177 171 176 170 170 169 171 172 168 170 172 170 167 169 168 164 169 171 180 172 171 162 170 163 172 172 163 171 167 165 172 174 147 168
156 161 161 164 164 160 165 155 154 161 164 162 158 160 163 159 164 165 165 169 160 164 163 164 161 164 160 154 159 164 160 167 160 164 159 164 158 161 161 158 160 162 163 162 161 167 165 162 161 159 159 168 168 167 167 165 161 169 163 166 162 166 164 162 167 162 163 162 163 158 163 165 162 164 164 166 171 163 165 162 159 157 167 161 162 165 167 165 167 167 168 161 162 162 164 162 163 162 168 164 168 157 158 162 166 166 167 159 158 160 164 162 161 162 175 169 173 153 170 157
143 146 151 144 152 150 145 152 154 160 144 148 149 151 154 154 151 155 154 159 160 151 152 153 155 150 148 155 156 160 153 157 152 156 153 156 150 155 151 152 153 153 159 159 155 150 158 157 156 155 157 155 160 160 157 155 154 156 158 159 161 158 159 161 157 160 163 156 154 151 159 157 159 158 159 161 159 158 157 155 156 158 158 156 156 153 156 159 159 153 155 155 155 156 158 155 156 155 154 158 156 157 158 156 159 155 148 152 149 161 153 152 149 156 162 146 156 161 151 144
139 144 145 143 146 147 142 150 146 147 148 150 143 142 145 144 146 148 145 155 154 148 153 149 151 151 147 152 149 146 148 145 145 150 148 146 150 149 148 145 149 148 152 151 149 154 150 146 150 150 150 154 145 151 148 147 150 153 155 157 150 150 151 151 148 154 152 155 149 152 150 157 146 156 154 152 158 156 154 152 154 152 151 148 150 157 153 152 152 151 149 151 154 149 152 150 145 151 151 152 152 155 157 152 151 147 152 142 154 152 147 147 149 152 157 149 147 149 156 134
137 134 140 135 137 138 138 140 140 137 141 141 143 141 137 137 144 139 143 149 142 142 148 150 147 147 147 145 143 139 140 130 147 140 141 145 130 146 147 146 147 145 144 148 146 146 142 142 141 142 141 151 145 145 145 141 142 148 149 145 148 131 147 146 144 145 149 145 146 144 145 149 145 147 146 146 148 153 150 148 144 143 146 145 139 144 149 144 151 148 145 147 143 145 149 151 141 146 150 148 148 149 150 140 144 146 144 146 138 145 134 137 149 141 145 142 130 147 146 145
127 132 130 134 137 138 137 136 137 137 136 0 132 138 133 134 140 140 138 140 143 140 143 136 143 140 144 140 139 137 139 130 130 129 138 129 132 128 142 127 140 144 142 142 130 131 130 142 130 129 140 140 143 141 143 144 142 132 133 142 131 131 142 148 142 141 140 140 135 141 141 129 129 144 132 145 148 141 142 142 144 141 125 139 131 140 141 140 140 141 126 141 138 145 136 139 140 143 147 141 141 138 139 136 141 135 132 138 147 141 137 135 135 134 136 134 141 127 147 115
132 131 127 134 135 139 141 131 132 138 134 136 139 135 133 122 129 134 136 124 141 142 139 137 138 134 139 136 138 125 125 122 138 126 126 125 125 128 130 129 143 141 131 138 0 133 139 127 127 129 128 128 133 133 0 141 0 130 130 132 132 129 142 130 128 129 144 128 132 124 127 128 131 138 126 141 127 127 131 130 136 129 129 121 126 137 127 125 127 139 122 140 136 138 140 128 142 143 140 141 136 134 135 138 132 123 137 135 128 126 130 130 134 138 135 136 131 132 126 124
117 109 123 109 125 118 138 123 116 119 121 113 121 132 125 123 124 125 123 119 121 122 127 124 125 125 136 127 0 131 129 119 118 122 114 118 131 126 124 123 126 124 130 129 0 0 127 126 128 121 123 125 128 129 123 128 131 129 125 120 129 127 127 127 125 128 129 131 124 129 123 123 118 126 116 123 124 131 125 128 127 124 128 125 121 131 122 126 122 124 123 130 125 126 125 116 125 143 134 130 120 125 122 119 120 123 116 118 120 131 126 115 139 138 120 131 129 142 128 100
102 111 121 111 113 118 118 117 118 117 120 117 118 117 119 112 111 124 122 122 123 124 126 119 120 125 130 125 123 127 131 0 126 122 113 115 117 121 0 119 127 124 0 0 0 0 122 125 122 124 124 121 125 122 122 126 118 123 120 117 124 125 118 119 125 125 127 123 121 118 125 118 126 119 119 115 122 125 126 125 120 118 125 123 117 120 119 118 121 121 113 119 121 121 120 119 123 122 119 121 118 122 118 117 112 123 122 116 121 128 115 130 122 129 126 117 126 127 124 131
105 99 114 113 113 105 112 114 111 112 122 115 110 112 111 113 112 114 110 122 112 113 108 119 110 113 118 117 111 125 124 0 118 119 114 114 116 0 114 115 120 0 0 126 122 0 120 120 109 110 115 116 121 120 121 118 118 116 115 119 119 121 123 114 119 121 116 117 116 116 117 116 110 112 119 113 116 112 111 120 113 115 117 119 115 112 117 117 116 124 121 120 117 115 102 120 124 117 112 119 118 116 112 109 115 115 116 117 108 121 129 126 130 127 122 120 116 113 97 108
94 100 106 104 99 103 110 108 99 113 115 106 106 108 118 117 114 109 110 108 113 110 112 105 109 109 118 115 110 114 119 113 108 112 112 111 109 114 0 114 116 110 109 106 109 114 112 0 113 0 115 112 121 114 0 0 107 107 115 112 122 112 108 107 105 111 106 109 117 106 112 105 110 105 107 105 108 104 104 112 111 108 110 109 109 110 107 112 109 116 106 106 92 109 116 116 107 115 107 105 109 109 116 101 112 112 105 109 107 117 113 113 102 108 111 124 110 95 100 89
100 100 110 112 103 106 108 108 112 110 105 111 110 107 115 117 113 106 109 100 106 99 101 107 116 110 113 110 106 112 108 106 109 105 111 111 113 0 105 107 109 108 112 95 107 107 105 108 115 0 106 112 110 113 109 114 102 103 108 108 103 109 114 0 113 105 106 107 107 106 106 105 104 111 100 102 99 104 102 110 108 102 103 103 97 105 95 105 108 106 105 111 98 99 98 105 103 106 109 108 98 112 107 112 109 99 106 110 95 105 108 102 115 113 113 110 101 106 105 79
92 89 107 109 97 92 96 96 94 96 100 101 99 97 100 106 99 102 108 98 102 98 90 96 100 100 106 98 100 108 106 105 106 99 105 103 103 104 100 104 105 101 100 99 99 101 104 97 104 101 105 100 101 105 103 104 97 99 104 99 99 107 104 0 111 103 0 111 105 106 104 105 98 106 101 105 96 102 0 100 0 103 96 97 94 101 94 98 97 100 98 107 95 96 98 87 96 97 97 98 100 102 100 105 101 100 97 106 107 98 105 100 102 116 107 83 106 107 76 109
93 91 81 91 94 93 95 89 97 93 97 93 100 97 102 98 95 97 103 98 97 96 95 95 97 100 104 101 102 100 106 105 105 101 100 103 97 102 100 97 101 99 103 97 96 96 104 100 102 106 109 99 94 104 95 101 106 106 100 100 103 100 108 100 110 100 104 105 106 101 99 107 97 99 93 95 108 99 96 96 0 103 91 95 98 95 98 107 91 99 97 104 101 98 88 101 93 96 93 100 97 88 96 86 97 101 104 102 98 98 87 89 113 89 87 104 102 81 83 94
85 97 89 104 92 89 91 87 83 91 94 94 92 88 99 82 94 94 100 107 100 94 95 93 96 88 94 94 94 101 100 96 100 100 94 102 98 98 96 100 95 94 91 93 98 98 99 98 92 101 98 94 98 94 94 99 93 91 100 95 94 94 101 0 100 101 97 98 95 98 101 99 102 101 85 102 93 98 96 105 88 97 89 106 97 98 90 94 91 92 99 91 100 81 88 91 91 88 101 91 95 95 101 92 99 96 102 74 90 90 92 92 97 79 91 76 101 91 90 71
88 80 81 83 89 87 90 92 81 88 80 87 94 87 93 92 87 89 82 94 83 91 90 94 93 86 95 88 91 93 87 89 101 94 92 92 85 98 92 89 86 84 97 96 88 98 90 98 91 97 97 94 98 95 96 97 98 92 88 92 94 93 97 91 89 96 91 86 93 96 95 92 89 89 97 96 93 89 87 95 95 93 91 93 95 90 89 96 94 92 95 95 92 87 90 92 93 90 91 83 93 93 90 78 89 81 86 85 90 89 87 84 89 90 79 87 126 95 88 78
89 79 84 84 94 85 92 102 85 88 86 86 86 88 88 91 88 92 93 92 89 96 91 87 91 87 94 91 88 91 89 93 93 90 98 95 95 92 91 92 89 91 98 95 93 95 97 96 93 95 98 88 93 96 99 93 98 89 90 93 90 93 93 93 98 91 87 89 97 88 97 89 93 93 95 91 92 93 86 88 92 93 97 90 92 95 93 90 90 89 96 94 96 88 90 98 89 83 86 99 93 93 88 97 85 94 91 87 82 84 85 88 84 88 88 82 80 76 0 0
81 87 85 83 92 86 80 88 86 0 84 82 90 88 90 80 88 93 90 87 92 94 90 94 87 94 90 87 87 92 85 96 91 92 93 95 92 96 92 96 85 88 93 83 97 98 91 90 90 98 92 97 90 92 94 96 99 94 95 94 99 98 99 98 87 89 98 93 97 88 87 82 91 86 89 91 85 89 95 96 93 97 89 87 89 95 83 96 98 93 89 96 99 88 91 88 91 85 94 87 80 84 90 86 91 86 91 89 96 82 86 90 83 90 89 84 100 109 140 0
80 80 78 86 82 84 94 89 86 79 82 79 87 84 90 87 80 87 83 91 86 87 92 87 87 86 93 88 88 89 87 89 91 90 87 89 95 88 91 88 91 84 91 96 97 84 91 92 93 93 92 96 90 83 98 96 93 96 96 97 89 89 91 89 88 97 82 86 88 89 87 94 92 92 95 88 87 95 95 86 95 90 89 94 91 90 93 87 94 84 91 88 80 92 80 82 82 85 93 91 80 78 94 81 88 84 89 88 80 90 85 86 87 86 88 84 88 66 0 0
82 73 84 78 85 86 86 92 80 85 81 85 86 84 90 89 79 92 85 89 91 89 91 82 80 84 91 84 90 95 86 86 82 90 89 87 91 90 85 96 91 84 86 91 94 86 96 91 92 97 94 90 82 89 88 84 90 97 88 89 93 92 83 97 87 97 84 85 92 94 88 88 88 91 92 86 87 92 84 81 92 84 88 86 91 94 87 90 93 91 89 91 81 84 86 88 87 84 92 88 84 86 89 90 77 90 91 85 84 79 80 88 83 81 75 92 0 0 89 0
77 71 64 67 76 78 88 81 81 77 83 78 81 89 82 84 85 76 77 76 87 83 77 74 70 73 82 80 85 77 87 75 84 87 88 75 83 79 83 77 80 81 86 72 75 80 82 88 84 84 88 81 78 85 79 81 82 89 87 76 80 77 82 77 84 79 74 80 77 80 82 84 85 77 81 79 76 83 89 85 83 81 74 77 75 86 84 81 74 79 86 69 83 79 78 78 73 92 72 80 71 78 73 63 71 71 81 82 64 81 69 79 80 60 119 68 0 0 0 0
69 64 74 84 68 81 86 86 80 80 84 88 78 77 83 82 80 82 75 81 79 83 75 78 81 88 72 69 78 83 81 81 82 85 82 76 83 72 78 78 88 80 85 88 89 86 83 83 85 83 85 77 79 76 80 81 83 84 86 73 83 80 82 84 76 67 77 76 85 73 78 80 86 85 80 78 84 84 86 90 83 81 78 79 71 74 86 73 81 78 69 77 73 77 83 73 88 75 69 68 89 73 72 67 66 74 72 83 83 82 58 76 62 59 87 0 0 0 0 0
