0 0 0 0 0 0 0 0 0 0 0 0 0 0 0 0 0 0 0 0 0 0 0 0 0 0 0 0 0 0 0 0 0 0 0 0 0 0 0 0 0 0 0 0 0 0 0 0 0 0 0 0 0 0 0 0 0 0 0 0 0 0 0 0 0 0 0 0 0 0 0 0 0 0 0 0 0 0 0 0 0 0 0 0 0 0 0 0 0 0 0 0 0 0 0 0 0 0 0 0 0 0 0 0 0 0 0 0 0 0 0 0 0 0 0 0 0 0 0 0
0 0 0 0 0 0 0 0 0 0 0 0 0 0 0 0 0 0 0 0 0 0 0 0 0 0 0 0 0 0 0 0 0 0 0 0 0 0 0 0 0 0 0 0 0 0 0 0 0 0 0 0 0 0 0 0 0 0 0 0 0 0 0 0 0 0 0 0 0 0 0 0 0 0 0 0 0 0 0 0 0 0 0 0 0 0 0 0 0 0 0 0 0 0 0 0 0 0 0 0 0 0 0 0 0 0 0 0 0 0 0 0 0 0 0 0 0 0 0 0
0 0 0 0 0 0 0 0 0 0 0 0 0 0 0 0 0 1317 0 0 0 0 0 0 0 0 0 0 0 0 0 0 0 0 0 0 0 0 0 0 0 0 0 0 0 0 0 0 0 0 0 0 0 0 0 0 0 0 0 0 0 0 0 0 0 0 0 0 0 0 0 0 0 0 0 0 0 0 0 0 0 0 0 0 0 0 0 0 0 0 0 0 0 0 0 0 0 0 0 0 0 0 0 0 0 0 0 0 0 0 0 0 0 0 0 0 0 0 0 0
0 0 0 0 0 0 0 0 0 0 0 1134 1153 1137 1117 0 1306 1302 0 0 0 0 1257 0 0 0 0 0 0 0 0 0 0 0 0 0 0 0 0 0 0 0 0 0 0 0 0 0 0 0 0 0 0 0 0 0 0 0 0 0 0 0 0 0 0 0 0 0 0 0 0 0 0 0 0 0 0 0 0 0 0 0 0 0 0 0 0 0 0 0 0 0 0 0 0 0 0 0 0 0 0 0 0 0 0 0 0 0 0 0 0 0 0 0 0 0 0 0 0 0
0 0 0 0 0 0 0 1098 1126 1146 1117 1156 1174 1128 1150 0 1259 1263 1287 1288 1246 1261 1240 0 0 0 0 0 0 0 0 0 0 0 0 0 0 0 0 0 0 0 0 0 0 0 0 0 0 0 0 0 0 0 0 0 0 0 0 0 0 0 0 0 0 0 0 0 0 0 0 0 0 0 0 0 0 0 0 0 0 0 0 0 0 0 0 0 0 0 0 0 0 0 0 0 0 0 0 0 0 0 0 0 0 0 0 0 0 0 0 0 0 0 0 0 0 0 0 0
0 0 0 0 0 0 1139 1102 1110 1112 0 0 1185 1172 1180 1201 1269 1266 1279 1295 1254 1274 1272 0 0 0 0 0 0 0 0 0 0 0 0 0 0 0 0 0 0 0 0 0 0 0 0 0 0 0 0 0 0 0 0 0 0 0 0 0 0 0 0 0 0 0 0 0 0 0 0 0 0 0 0 0 0 0 0 0 0 0 0 0 0 0 0 0 0 0 0 0 0 0 0 0 0 0 0 0 0 0 0 0 0 0 0 0 0 0 0 0 0 0 0 0 0 0 0 0
0 0 0 0 0 0 0 0 0 0 0 0 1200 1241 1272 1259 1268 1273 1296 1273 1275 1253 1273 1273 1277 0 0 0 0 0 0 1412 0 0 0 0 0 0 0 0 0 0 0 0 0 0 0 0 0 0 0 0 0 0 0 0 0 0 0 0 0 0 0 0 0 0 0 0 0 0 0 0 0 0 0 0 0 0 0 0 0 0 0 0 0 0 0 0 0 0 0 0 0 0 0 0 0 0 0 0 0 0 0 0 0 0 0 0 0 0 0 0 0 0 0 0 0 0 0 0
0 0 0 0 0 0 0 0 0 0 0 0 1272 1275 1250 1259 1259 1291 1262 1288 1259 1278 1277 1288 1287 1292 1362 1368 1360 0 0 1405 0 0 0 0 0 0 0 0 0 0 0 0 0 0 0 0 0 0 0 0 0 0 0 0 0 0 0 0 0 0 0 0 0 0 0 0 0 0 0 0 0 0 0 0 0 0 0 0 0 0 0 0 0 0 0 0 0 0 0 0 0 0 0 0 0 0 0 0 0 0 0 0 0 0 0 0 0 0 0 0 0 0 0 0 0 0 0 0
0 0 0 0 0 0 0 0 0 0 0 0 1269 1242 1278 1286 1268 1278 1263 1282 1254 1288 1270 1262 0 0 1336 1336 1370 1369 1416 1414 0 0 0 0 0 0 0 0 0 0 0 0 0 0 0 0 0 0 0 0 0 0 0 0 0 0 0 0 0 0 0 0 0 0 0 0 0 0 0 0 0 0 0 0 0 0 0 0 0 0 0 0 0 0 0 0 0 0 0 0 0 0 0 0 0 0 0 0 0 0 0 0 0 0 0 0 0 0 0 0 0 0 0 0 0 0 0 0
0 0 0 0 0 0 0 0 0 0 0 0 0 1304 1312 1296 1283 1272 1274 1292 1275 1279 1237 1252 1266 0 0 1327 1364 1348 1405 1383 1412 0 0 0 0 0 0 0 0 0 0 0 0 0 0 0 0 0 0 0 0 0 0 0 0 0 0 0 0 0 0 0 0 0 0 0 0 0 0 0 0 0 0 0 0 0 0 0 0 0 0 0 0 0 0 0 0 0 0 0 0 0 0 0 0 0 0 0 0 0 0 0 0 0 0 0 0 0 0 0 0 0 0 0 0 0 0 0
0 0 0 0 0 0 0 0 0 0 0 0 0 0 0 0 0 0 0 0 0 1286 1251 1243 1282 0 0 1386 1344 1347 1353 1416 1434 0 0 0 0 0 0 0 0 0 0 0 0 0 0 0 0 0 0 0 0 0 0 0 0 0 0 0 0 0 0 0 0 0 0 0 0 0 0 0 0 0 0 0 0 0 0 0 0 0 0 0 0 0 0 0 0 0 0 0 0 0 0 0 0 0 0 0 0 0 0 0 0 0 0 0 0 0 0 0 0 0 0 0 0 0 0 0
0 0 0 0 0 0 0 0 0 0 0 0 0 0 0 0 0 0 0 0 0 0 0 1363 1325 0 0 0 1337 1352 1355 1404 1417 0 0 0 0 0 0 0 0 0 0 0 0 0 0 0 0 0 0 0 0 0 0 0 0 0 0 0 0 0 0 0 0 0 0 0 0 0 0 0 0 0 0 0 0 0 0 0 0 0 0 0 0 0 0 0 0 0 0 0 0 0 0 0 0 0 0 0 0 0 0 0 0 0 0 0 0 0 0 0 0 0 0 0 0 0 0 0
0 0 0 0 0 0 0 0 0 0 0 0 0 0 0 0 0 0 0 0 0 0 0 1339 1403 1319 1274 1326 1347 1376 1359 1393 1461 0 0 0 0 0 0 0 0 0 0 0 0 0 0 0 0 0 0 0 0 0 0 0 0 0 0 0 0 0 0 0 0 0 0 0 0 0 0 0 0 0 0 0 0 0 0 0 0 0 0 0 0 0 0 0 0 0 0 0 0 0 0 0 0 0 0 0 0 0 0 0 0 0 0 0 0 0 0 0 0 0 0 0 0 0 0 0
0 0 0 0 0 0 0 0 0 0 0 0 0 0 0 0 0 0 0 0 0 0 0 1403 1393 1370 1349 1306 1348 1358 1347 1425 1422 0 0 0 0 0 0 0 0 0 0 0 0 0 0 0 0 0 0 0 0 0 0 0 0 0 0 0 0 0 0 0 0 0 0 0 0 0 0 0 0 0 0 0 0 0 0 0 0 0 0 0 0 0 0 0 0 0 0 0 0 0 0 0 0 0 0 0 0 0 0 0 0 0 0 0 0 0 0 0 0 0 0 0 0 0 0 0
0 0 0 0 0 0 0 0 0 0 0 0 0 0 0 0 0 0 0 0 0 0 0 1387 1391 1384 1363 1346 1325 1335 1375 1408 1445 0 0 0 0 0 0 0 0 0 0 0 0 0 0 0 0 0 0 0 0 0 0 0 0 0 0 0 0 0 0 0 0 0 0 0 0 0 0 0 0 0 0 0 0 0 0 0 0 0 0 0 0 0 0 0 0 0 0 0 0 0 0 0 0 0 0 0 0 0 0 0 0 0 0 0 0 0 0 0 0 0 0 0 0 0 0 0
0 0 0 0 0 0 0 0 0 0 0 0 0 0 0 0 0 0 0 0 0 0 0 1376 1366 1352 1399 1381 1353 1349 1363 1432 1446 0 0 0 0 0 0 0 0 0 0 0 0 0 0 0 0 0 0 0 0 0 0 0 0 0 0 0 0 0 0 0 0 0 0 0 0 0 0 0 0 0 0 0 0 0 0 0 0 0 0 0 0 0 0 0 0 0 0 0 0 0 0 0 0 0 0 0 0 0 0 0 0 0 0 0 0 0 0 0 0 0 0 0 0 0 0 0
1238 1252 1276 1283 1290 1305 1303 0 0 0 0 0 0 0 0 0 0 0 0 0 0 0 0 0 1348 1365 1374 1386 1378 1370 1362 1411 1434 0 0 0 0 0 0 0 0 0 0 0 0 0 0 0 0 0 0 0 0 0 0 0 0 0 0 0 0 0 0 0 0 0 0 0 0 0 0 0 0 0 0 0 0 0 0 0 0 0 0 0 0 0 0 0 0 0 0 0 0 0 0 0 0 0 0 0 0 0 0 0 0 0 0 0 0 0 0 0 0 0 0 0 0 0 0 0
1246 1260 1256 1296 1292 1294 1300 1328 1326 1330 1333 0 0 0 0 0 0 0 0 0 0 0 0 1392 1349 1367 1383 1353 1369 1362 1392 1424 1422 0 0 0 0 0 0 0 0 0 0 0 0 0 0 0 0 0 0 0 0 0 0 0 0 0 0 0 0 0 0 0 0 0 0 0 0 0 0 0 0 0 0 0 0 0 0 0 0 0 0 0 0 0 0 0 0 0 0 0 0 0 0 0 0 0 0 0 0 0 0 0 0 0 0 0 0 0 0 0 0 0 0 0 0 0 0 0
1277 1275 1254 1285 1288 1297 1290 1330 1320 1326 1352 1355 1393 1367 1388 1444 0 0 0 0 0 0 0 0 0 1334 0 0 1364 0 0 1448 1408 0 0 0 0 0 0 0 0 0 0 0 0 0 0 0 0 0 0 0 0 0 0 0 0 0 0 0 0 0 0 0 0 0 0 0 0 0 0 0 0 0 0 0 0 0 0 0 0 0 0 0 0 0 0 0 0 0 0 0 0 0 0 0 0 0 0 0 0 0 0 0 0 0 0 0 0 0 0 0 0 0 0 0 0 0 0 0
0 0 0 0 1262 1293 1292 1297 1309 1320 1332 1348 1356 1393 1362 1395 1438 1431 1449 1448 0 0 0 0 0 0 0 0 0 0 0 1404 1427 1429 0 0 0 0 0 0 0 0 0 0 0 0 0 0 0 0 0 0 0 0 0 0 0 0 0 0 0 0 0 0 0 0 0 0 0 0 0 0 0 0 0 0 0 0 0 0 0 0 0 0 0 0 0 0 0 0 0 0 0 0 0 0 0 0 0 0 0 0 0 0 0 0 0 0 0 0 0 0 0 0 0 0 0 0 0 0
0 0 0 0 0 0 0 0 0 1302 1361 1348 1361 1359 1367 1400 1410 1425 1442 1458 1461 1486 0 0 0 0 0 0 0 0 0 1429 1470 1481 0 0 0 0 0 0 0 0 0 0 0 0 0 0 0 0 0 0 0 0 0 0 0 0 0 0 0 0 0 0 0 0 0 0 0 0 0 0 0 0 0 0 0 0 0 0 0 0 0 0 0 0 0 0 0 0 0 0 0 0 0 0 0 0 0 0 0 0 0 0 0 0 0 0 0 0 0 0 0 0 0 0 0 0 0 0
0 0 0 0 0 0 0 0 0 0 0 0 0 0 0 1403 1418 1427 1416 1460 1459 1441 0 0 0 0 0 0 0 0 0 0 1513 0 0 0 0 0 0 0 0 0 0 0 0 0 0 0 0 0 0 0 0 0 0 0 0 0 0 0 0 0 0 0 0 0 0 0 0 0 0 0 0 0 0 0 0 0 0 0 0 0 0 0 0 0 0 0 0 0 0 0 0 0 0 0 0 0 0 0 0 0 0 0 0 0 0 1752 1683 0 0 0 0 0 0 0 0 0 0 0
0 0 0 0 0 0 0 0 0 0 0 0 0 0 0 0 0 0 0 0 0 1458 0 0 0 0 0 0 0 0 0 0 0 0 0 0 0 0 0 0 0 0 0 0 0 0 0 0 0 0 0 0 0 0 0 0 0 0 0 0 0 0 0 0 0 0 0 0 0 0 0 0 0 0 0 0 0 0 0 0 0 0 0 0 0 0 0 0 0 0 0 0 0 0 0 0 0 0 0 0 0 0 0 0 0 1741 0 0 0 0 0 0 0 0 0 0 0 0 0 0
0 0 0 0 0 0 0 0 0 0 0 0 0 0 0 0 0 0 0 0 0 0 0 0 0 0 0 0 0 0 0 0 0 0 0 0 0 0 0 0 0 0 0 0 0 0 0 0 0 0 0 0 0 0 0 0 0 0 0 0 0 0 0 0 0 0 0 0 0 0 0 0 0 0 0 0 0 0 0 0 0 0 0 0 0 0 0 0 0 0 0 0 0 0 0 0 0 0 0 0 0 0 0 0 0 0 1603 1586 1612 1569 1597 1528 1526 1564 0 0 0 0 0 0
0 0 0 0 0 0 0 0 0 0 0 0 0 0 0 0 0 0 0 0 0 0 0 0 0 0 0 0 0 0 0 0 0 0 0 0 0 0 0 0 0 0 0 0 0 0 0 0 0 0 0 0 0 0 0 0 0 0 0 0 0 0 0 0 0 0 0 0 0 0 0 0 0 0 0 0 0 0 0 0 0 0 0 0 0 0 0 0 0 0 0 0 0 0 0 0 0 0 0 0 1699 1702 1642 1658 1598 1598 1557 1591 1566 1568 1557 1535 1514 1538 1506 0 0 0 0 0
0 0 0 0 0 0 0 0 0 0 0 0 0 0 0 0 0 0 0 0 0 0 0 0 0 0 0 0 0 0 0 0 0 0 0 0 0 0 0 0 0 0 0 0 0 0 0 0 0 0 0 0 0 0 0 0 0 0 0 0 0 0 0 0 0 0 0 0 0 0 0 0 0 0 0 0 0 0 0 0 0 0 0 0 0 0 0 0 0 0 0 0 0 0 0 0 1783 1759 1734 1718 1669 1699 1694 1649 1636 1631 1598 1610 1619 1586 0 0 0 0 0 0 0 0 0 0
555 601 0 0 0 0 0 0 0 0 0 0 0 0 0 0 0 0 0 0 0 0 0 0 0 1839 1855 0 0 0 0 0 0 0 0 0 0 0 0 0 0 0 0 0 0 0 0 2899 3001 2931 2844 2918 2912 2902 2829 2928 2919 2915 2883 2867 2919 2885 2887 2893 2887 2924 0 0 0 0 0 0 0 0 0 0 0 0 0 0 0 0 0 0 0 0 0 0 0 0 1904 1801 1790 1778 1790 1760 1718 1730 1702 1700 1658 1703 1677 1647 0 0 0 0 0 0 0 0 0 0 0 0 0 0 0 0
580 594 613 588 616 659 0 0 0 0 0 0 0 0 0 0 0 0 0 0 0 0 0 0 0 0 1857 1937 1947 0 0 0 0 0 0 0 0 0 0 0 0 0 0 0 0 0 0 2918 2902 2901 2912 2882 2906 2871 2913 2933 2921 2902 2890 2836 2893 2873 2901 2893 2903 2876 0 0 0 0 0 0 0 0 0 0 0 0 0 0 0 0 0 0 0 0 0 0 0 0 1815 1802 1784 1798 1763 1732 1762 0 0 0 0 0 0 0 0 0 0 0 0 0 0 0 0 0 0 0 0 0 0 0
581 581 585 601 613 628 633 650 671 0 0 0 0 0 0 0 0 0 0 0 0 0 0 0 0 0 0 0 0 0 0 0 0 0 0 0 0 0 0 0 0 0 0 0 0 0 0 2932 2932 2918 2910 2904 2909 2919 2911 2889 2891 2914 2936 2918 2910 2906 2950 2891 2919 0 0 0 0 0 0 0 0 0 0 0 0 0 0 0 0 0 0 0 0 0 0 0 0 0 0 0 0 0 0 0 0 0 0 0 0 0 0 0 0 0 0 0 0 0 0 0 0 0 0 0 0 0 0 0
579 601 595 601 615 634 642 653 663 661 704 728 0 0 0 0 0 0 0 0 0 0 0 0 0 0 0 0 0 0 0 0 0 0 0 0 0 0 0 0 0 0 0 0 0 0 0 2953 2948 2917 2887 2900 2966 2864 2902 2904 2884 2914 2907 2898 2876 2936 2903 2881 2924 2886 0 0 0 0 0 0 0 0 0 0 0 0 0 0 0 0 0 0 0 0 0 0 0 0 0 0 0 0 0 0 0 0 0 0 0 0 0 0 0 0 0 0 0 0 0 0 0 0 0 0 0 0 0 0
601 603 555 596 639 622 654 658 680 684 683 683 702 719 766 0 0 0 0 0 0 0 0 0 0 0 0 0 0 0 0 0 0 0 0 0 0 0 0 0 0 0 0 0 0 0 0 2949 2930 2905 2900 2900 2925 2895 2901 2908 2938 2904 2888 2901 2891 2922 2888 2898 2913 0 0 0 0 0 0 0 0 0 0 0 0 0 0 0 0 0 0 0 0 0 0 0 0 0 0 0 0 0 0 0 0 0 0 0 0 0 0 0 0 0 0 0 0 0 0 0 0 0 0 0 0 0 0 0
775 785 802 744 727 661 661 695 674 674 706 699 707 725 756 739 757 772 0 0 0 0 0 0 0 0 0 0 0 0 0 0 0 0 0 0 0 0 0 0 0 0 0 0 0 0 0 2889 2915 2925 2888 2890 2908 2880 2911 2907 2870 2903 2889 2896 2878 2880 2903 2920 2900 2906 0 0 0 0 0 0 0 0 0 0 0 0 0 0 0 0 0 0 0 0 0 0 0 0 0 0 0 0 0 0 0 0 0 0 0 0 0 0 0 0 0 0 0 0 0 0 0 0 0 0 0 0 0 0
774 797 808 804 845 840 859 846 820 812 758 742 704 717 736 761 740 789 812 804 817 0 0 0 0 0 0 0 0 0 0 0 0 0 0 0 0 0 0 0 0 0 0 0 0 0 0 2918 2933 2907 2898 2870 2912 2948 2924 2866 2907 2926 2895 2883 2875 2899 2911 2888 2903 2872 0 0 0 0 0 0 0 0 0 0 0 0 0 0 0 0 0 0 0 0 0 0 0 0 0 0 0 0 0 0 0 0 0 0 0 0 0 0 0 0 0 0 0 0 0 0 0 0 0 0 0 0 0 0
743 816 815 833 838 860 878 878 912 901 899 908 949 898 849 807 764 778 817 809 829 852 875 922 0 0 0 0 0 0 0 0 0 0 0 0 0 0 0 0 0 0 0 0 0 0 0 2875 2934 2936 2920 2871 2950 2900 2887 2864 2880 2898 2921 2872 2820 2882 2912 2946 2870 2874 0 0 0 0 0 0 0 0 0 0 0 0 0 0 0 0 0 0 0 0 0 0 0 0 0 0 0 0 0 0 0 0 0 0 0 0 0 0 0 0 0 0 0 0 0 0 0 0 0 0 0 0 0 0
681 0 838 833 843 845 868 886 902 913 937 952 947 957 952 951 940 937 910 879 853 847 862 876 919 912 0 0 0 0 0 0 0 0 0 0 0 0 0 0 0 0 0 0 0 0 0 2897 2942 2862 2868 2921 2905 2883 2916 2904 2903 2908 2874 2886 2894 2938 2883 2886 2927 2859 0 0 0 0 0 0 0 0 0 0 0 0 0 0 0 0 0 0 0 0 0 0 0 0 0 0 0 0 0 0 0 0 0 0 0 0 0 0 0 0 0 0 0 0 0 0 0 0 0 0 0 0 0 0
690 927 945 939 937 940 922 927 916 904 934 949 953 958 952 945 946 949 945 940 957 933 894 904 907 924 973 997 1031 0 0 0 0 0 0 0 0 0 0 0 0 0 0 0 0 0 0 2884 2932 2935 2933 2887 2935 2872 2860 2878 2872 2907 2865 2908 2905 2910 2871 2877 2900 2901 0 0 0 0 0 0 0 0 0 0 0 0 0 0 0 0 0 0 0 0 0 0 0 0 0 0 0 0 0 0 0 0 0 0 0 0 0 0 0 0 0 0 0 0 0 0 0 0 0 0 0 0 0 0
573 703 0 0 0 0 0 0 0 0 970 956 962 979 949 978 952 960 941 950 971 948 942 954 966 944 930 984 1015 1044 0 0 0 0 0 0 0 0 0 0 0 0 0 0 0 0 0 2928 2939 2943 2950 2908 2888 2932 2971 2967 2915 2897 2920 2915 2876 2914 2898 2900 2915 0 0 0 0 0 0 0 0 0 0 0 0 0 0 0 0 0 0 0 0 0 0 0 0 0 0 0 0 0 0 0 0 0 0 0 0 0 0 0 0 0 0 0 0 0 0 0 0 0 0 0 0 0 0 0
599 613 600 0 1116 1162 1182 1162 1149 1144 1166 1157 1157 1159 1153 1145 1140 1027 0 0 1023 1074 1066 998 1016 1037 1136 1119 1126 1098 1115 0 0 0 0 0 0 0 0 0 0 0 0 0 0 0 0 2957 2921 2920 2895 2912 2894 2894 2901 2881 2908 2877 2876 2865 2915 2886 2925 2893 2882 0 0 0 0 0 0 0 0 0 0 0 0 0 0 0 0 0 0 0 0 0 0 0 0 0 0 0 0 0 0 0 0 0 0 0 0 0 0 0 0 0 0 0 0 0 0 0 0 0 0 0 0 0 0 0
585 612 630 600 0 0 0 0 0 0 0 0 0 0 0 0 1364 1019 964 0 0 1134 1090 0 0 1094 1155 1156 1144 1143 1107 0 0 0 0 0 0 0 0 0 0 0 0 0 0 0 0 2932 2913 2962 2948 2901 2888 2882 2906 2958 2914 2864 2902 2921 2865 2896 2943 2872 2888 2883 0 0 0 0 0 0 0 0 0 0 0 0 0 0 0 0 0 0 0 0 0 0 0 0 0 0 0 0 0 0 0 0 0 0 0 0 0 0 0 0 0 0 0 0 0 0 0 0 0 0 0 0 0 0
568 570 611 615 597 0 0 0 0 0 0 0 0 0 0 0 0 1002 998 0 0 0 0 0 0 0 0 0 0 0 0 0 0 0 0 0 0 0 0 0 0 0 0 0 0 0 0 2854 2906 2948 2952 2898 2877 2916 2915 2867 2900 2911 2907 2884 2907 2875 2859 2876 2888 0 0 0 0 0 0 0 0 0 0 0 0 0 0 0 0 0 0 0 0 0 0 0 0 0 0 0 0 0 0 0 0 0 0 0 0 0 0 0 0 0 0 0 0 0 0 0 0 0 0 0 0 0 0 0
598 587 591 602 644 632 0 0 0 0 0 0 0 0 0 0 0 0 0 0 0 0 0 0 0 0 0 0 0 0 0 0 0 0 0 0 0 0 0 0 0 0 0 0 0 0 0 2910 2883 2908 2924 2902 2921 2885 2923 2886 2863 2870 2887 2926 2897 2885 2896 2940 2852 0 0 0 0 0 0 0 0 0 0 0 0 0 0 0 0 0 0 0 0 0 0 0 0 0 0 0 0 0 0 0 0 0 0 0 0 0 0 0 0 0 0 0 0 0 0 0 0 0 0 0 0 0 0 0
576 591 612 603 593 570 0 0 0 0 0 0 0 0 0 0 0 0 0 0 0 0 0 0 0 0 0 0 0 0 0 0 0 0 0 0 0 0 0 0 0 0 0 0 0 0 0 2875 0 2954 2896 2864 2880 2921 2907 2934 2916 2944 2889 2906 2906 2901 2935 2891 2866 0 0 0 0 0 0 0 0 0 0 0 0 0 0 0 0 0 0 0 0 0 0 0 0 0 0 0 0 0 0 0 0 0 0 0 0 0 0 0 0 0 0 0 0 0 0 0 0 0 0 0 0 0 0 0
604 595 590 571 601 598 0 0 0 0 0 0 0 0 0 0 0 0 0 0 0 0 964 0 0 0 0 0 0 0 0 0 0 0 0 0 0 0 0 0 0 0 0 0 0 0 0 2944 2924 2902 2953 2931 2909 2915 2933 2935 2912 2893 2896 2905 2878 2896 2913 2939 2882 0 0 0 0 0 0 0 0 0 0 0 0 0 0 0 0 0 0 0 0 0 0 0 0 0 0 0 0 0 0 0 0 0 0 0 0 0 0 0 0 0 0 0 0 0 0 0 0 0 0 0 0 0 0 0
590 594 615 596 605 603 596 0 0 0 0 0 0 0 0 0 0 0 0 0 0 0 0 0 0 0 0 0 0 0 0 0 0 0 0 0 0 0 0 0 0 0 0 0 0 0 0 2899 2847 2864 2977 2883 2881 2909 2933 2855 2898 2920 2892 2898 2886 2879 2899 2909 2861 2915 0 0 0 0 0 0 0 0 0 0 0 0 0 0 0 0 0 0 0 0 0 0 0 0 0 0 0 0 0 0 0 0 0 0 0 0 0 0 0 0 0 0 0 0 0 0 0 0 0 0 0 0 0 0
570 587 582 602 602 596 639 0 0 0 0 0 0 0 0 0 2301 0 0 0 0 0 973 985 0 0 0 0 0 0 0 0 0 0 0 0 0 0 0 0 0 0 0 0 0 0 0 2907 2892 2917 2924 2879 2851 2914 2887 2947 2894 2905 2915 2875 2867 2870 2903 2910 2880 2865 0 0 0 0 0 0 0 0 0 0 0 0 0 0 0 0 0 0 0 0 0 0 0 0 0 0 0 0 0 0 0 0 0 0 0 0 0 0 0 0 0 0 0 0 0 0 0 0 0 0 0 0 0 0
600 594 566 608 609 583 598 0 0 0 0 0 0 0 0 0 0 0 0 0 0 0 0 0 0 0 0 0 0 0 0 0 0 0 0 0 0 0 0 0 0 0 0 0 0 0 0 2885 2931 2894 2904 2924 2917 2935 2922 2902 2909 2902 2925 2919 2862 2900 2917 2885 2895 2860 0 0 0 0 0 0 0 0 0 0 0 0 0 0 0 0 0 0 0 0 0 0 0 0 0 0 0 0 0 0 0 0 0 0 0 0 0 0 0 0 0 0 0 0 0 0 0 0 0 0 0 0 0 0
607 586 601 587 581 573 0 0 0 0 0 0 0 0 0 0 0 0 0 0 0 0 0 0 0 0 0 0 0 0 0 0 0 0 0 0 0 0 0 0 0 0 0 0 0 0 0 0 0 0 0 0 0 0 0 0 0 0 0 0 0 0 3028 2899 2885 0 0 0 0 0 0 0 0 0 0 0 0 0 0 0 0 0 0 0 0 0 0 0 0 0 0 0 0 0 0 0 0 0 0 0 0 0 0 0 0 0 0 0 0 0 0 0 0 0 0 0 0 0 0 0
598 581 603 596 633 621 0 0 0 0 0 0 0 0 0 0 0 0 0 0 0 0 0 0 0 0 0 0 0 0 0 0 0 0 0 0 0 0 0 0 0 0 0 0 0 0 0 0 0 0 0 0 0 0 0 0 0 0 0 0 0 0 0 0 0 0 0 0 0 0 0 0 0 0 0 0 0 0 0 0 0 0 0 0 0 0 0 0 0 0 0 0 0 0 0 0 0 0 0 0 0 0 0 0 0 0 0 0 0 0 0 0 0 0 0 0 0 0 0 0
559 597 604 607 593 0 0 0 0 0 0 0 0 0 0 0 0 0 0 0 0 0 0 0 0 0 0 0 0 0 0 0 0 0 0 0 0 0 0 0 0 0 0 0 0 0 0 0 0 0 0 0 0 0 0 0 0 0 0 0 0 0 0 0 0 0 0 0 0 0 0 0 0 0 0 0 0 0 0 0 0 0 0 0 0 0 0 0 0 0 0 0 0 0 0 0 0 0 0 0 0 0 0 0 0 0 0 0 0 0 0 0 0 0 0 0 0 0 0 0
605 579 604 608 616 0 0 0 0 0 0 0 0 0 0 0 0 0 0 0 0 0 0 0 0 0 0 0 0 0 0 0 0 0 0 0 0 0 0 0 0 0 0 0 0 0 0 0 0 0 0 0 0 0 0 0 0 0 0 0 0 0 0 0 0 0 0 0 0 0 0 0 0 0 0 0 0 0 0 0 0 0 0 0 0 0 0 0 0 0 0 0 0 0 0 0 0 0 0 0 0 0 0 0 0 0 0 0 0 0 0 0 0 0 0 0 0 0 0 0
580 589 622 566 0 0 0 0 0 0 0 0 0 0 0 0 0 0 0 0 0 0 0 0 0 0 909 919 857 866 868 0 886 913 886 913 0 910 911 894 928 921 0 0 0 0 0 0 0 0 0 0 0 0 0 0 0 0 0 0 0 0 0 0 0 0 0 0 0 0 0 0 0 0 0 0 0 0 0 0 0 0 0 0 0 0 0 0 0 0 0 0 0 0 0 0 0 0 0 0 0 0 0 0 0 0 0 0 0 0 0 0 0 0 0 0 0 0 0 0
577 602 605 0 0 0 676 671 669 681 678 707 671 693 708 703 717 713 685 734 684 722 714 748 664 693 712 694 708 692 706 730 744 708 738 724 700 761 719 764 733 723 750 734 814 753 767 820 763 757 800 762 796 763 768 797 789 765 762 768 782 738 768 832 736 775 830 821 835 839 781 760 798 0 0 800 0 0 0 0 0 0 0 0 0 0 0 0 0 0 0 0 0 0 0 0 0 0 0 0 0 0 0 0 0 0 0 0 0 0 0 0 0 0 0 0 0 0 0 0
511 525 612 532 547 531 548 556 577 577 589 569 582 573 622 587 599 588 607 577 580 590 565 584 605 588 607 599 610 583 581 589 594 602 594 608 633 599 573 622 585 603 632 631 606 611 634 625 639 618 627 604 617 594 640 673 629 640 642 676 617 630 629 640 648 631 639 674 635 668 670 674 693 642 681 584 637 665 651 669 635 678 666 633 648 696 694 658 621 692 748 690 702 654 0 0 670 674 711 0 703 669 0 0 0 0 0 0 0 0 0 0 0 0 0 0 0 0 0 0
484 513 489 486 520 471 512 487 476 516 512 498 510 490 510 482 490 510 497 499 517 509 519 488 512 503 506 507 503 500 517 513 504 514 521 525 527 512 523 517 497 534 527 522 522 526 525 512 521 521 506 534 539 530 532 529 528 536 520 532 530 544 565 551 545 539 526 570 554 535 539 563 534 527 547 553 551 564 547 559 570 550 521 581 566 580 561 545 561 582 592 566 563 533 561 554 577 604 553 592 592 568 595 560 0 539 0 594 514 583 573 0 0 0 0 0 0 0 0 0
435 415 424 448 427 405 413 423 450 434 418 442 443 457 435 449 434 467 457 446 451 455 451 454 446 437 441 448 463 464 468 446 455 445 457 455 459 466 466 465 471 458 477 461 458 471 463 465 491 466 458 456 476 453 486 462 492 491 496 468 471 481 480 481 466 489 487 478 482 475 483 487 478 474 474 481 478 457 483 486 487 484 490 486 489 481 493 485 492 486 484 487 479 493 478 499 514 486 488 494 476 494 506 433 496 519 484 473 503 504 478 519 0 0 0 0 0 0 0 0
390 388 379 386 388 389 394 399 386 379 408 393 403 408 393 403 416 394 400 411 404 402 415 413 409 408 415 413 411 413 414 417 414 419 411 415 424 413 411 413 419 417 419 418 422 429 420 413 415 428 428 419 416 426 437 412 431 424 439 426 416 434 414 422 423 427 417 417 431 431 431 430 430 423 436 416 430 431 438 426 434 421 425 420 440 423 431 427 429 435 437 436 428 430 428 428 428 414 462 458 438 432 436 432 462 473 428 437 446 449 473 471 419 450 0 0 0 0 0 0
359 338 337 341 352 351 362 342 327 353 362 354 359 356 362 359 383 371 361 365 365 366 369 376 381 375 371 365 383 377 358 385 363 380 368 377 383 380 374 365 368 376 366 379 359 373 390 369 385 394 381 377 368 372 373 373 378 385 375 391 380 374 383 382 390 399 398 403 381 383 397 394 388 394 395 386 399 391 395 398 377 387 397 397 413 391 385 389 405 398 398 394 385 386 410 389 373 395 397 391 405 384 383 418 392 398 401 370 407 404 391 392 389 360 394 381 0 0 0 0
321 314 332 343 341 307 341 337 356 339 345 335 327 333 342 336 352 345 345 351 353 354 348 355 346 355 337 344 345 335 337 352 341 349 338 355 341 329 342 335 338 346 337 341 337 339 351 341 344 347 354 340 351 356 340 338 333 340 334 350 340 349 345 356 357 345 341 349 350 357 354 359 338 350 364 356 337 349 353 338 343 348 366 354 353 343 350 348 360 349 364 361 351 360 371 359 352 374 359 355 367 366 363 356 345 352 353 379 373 367 355 349 345 380 340 310 365 0 0 0
286 300 304 293 304 293 301 308 298 308 313 292 302 311 300 297 305 308 305 297 295 323 308 302 297 301 297 307 303 310 310 309 296 311 310 308 314 299 310 310 315 316 315 300 310 305 323 315 317 311 316 307 321 311 325 314 317 320 322 308 314 310 319 318 307 320 321 311 310 319 314 327 314 310 315 320 320 315 308 317 315 309 324 323 323 332 333 316 318 336 316 323 318 321 325 332 322 339 315 331 322 313 336 343 334 328 345 328 334 323 320 334 315 351 315 375 345 325 348 0
280 270 276 269 297 273 281 277 277 287 282 279 283 277 282 283 277 278 279 285 277 279 270 276 280 279 284 270 289 279 279 282 272 288 281 282 277 286 278 286 276 278 287 287 280 279 294 293 287 284 284 285 291 288 285 288 277 284 288 282 290 291 285 284 291 286 290 290 298 288 288 286 293 284 294 289 291 283 294 288 299 290 285 301 292 291 293 289 299 294 297 292 301 286 308 300 285 298 302 285 290 302 290 296 291 313 296 288 304 282 312 292 312 303 303 330 261 319 303 317
258 252 256 250 262 255 252 256 245 251 253 255 251 248 264 255 261 247 256 260 254 267 259 260 256 261 260 258 248 253 254 264 263 257 259 264 260 259 265 262 259 262 262 264 263 263 259 259 268 277 270 266 262 269 264 260 263 267 265 263 266 266 262 269 271 267 268 270 268 263 268 270 272 276 272 266 262 264 266 275 269 261 258 262 268 265 268 265 259 266 266 278 272 278 265 273 283 274 274 280 278 272 281 283 277 278 270 283 267 267 260 273 269 269 281 257 245 280 271 283
233 227 232 236 238 237 238 231 237 229 234 240 241 240 238 233 244 237 249 239 239 241 240 240 242 237 243 240 241 242 241 249 245 235 244 241 248 244 248 244 252 240 244 244 249 248 249 249 243 254 250 244 243 245 248 243 247 246 248 244 249 246 247 250 245 245 251 253 252 252 245 252 246 250 249 254 249 249 253 245 255 249 253 246 249 249 252 248 252 246 252 259 247 247 248 248 251 247 254 252 247 249 252 245 264 245 250 241 254 251 263 245 284 269 244 228 249 276 271 215
216 223 217 211 222 224 224 220 224 214 216 222 219 227 218 225 228 221 231 222 227 222 229 227 229 221 223 236 226 226 232 224 234 225 225 229 235 226 227 240 218 233 228 226 229 232 231 240 234 230 232 235 225 239 231 235 234 232 235 237 236 230 233 232 237 232 236 235 230 236 237 230 231 232 227 228 238 230 235 233 230 233 231 232 235 227 233 234 237 230 227 228 238 232 229 226 226 242 243 238 235 235 232 232 231 230 238 236 239 243 222 227 237 227 233 225 219 219 221 249
209 202 223 213 216 200 208 204 205 208 211 213 206 221 208 208 215 205 212 218 212 205 214 208 213 215 210 216 214 219 220 215 212 215 212 213 221 201 188 199 213 216 219 216 217 214 219 204 221 225 201 203 222 207 222 218 216 202 223 218 219 221 218 232 220 198 223 222 206 217 223 225 221 219 203 218 221 217 222 221 217 220 226 222 227 224 223 213 218 217 223 215 222 218 218 221 227 215 225 226 220 215 220 233 233 225 213 223 237 226 226 224 237 222 223 215 198 219 222 225
189 199 197 201 203 204 206 199 186 182 201 203 188 191 202 191 190 186 189 191 188 190 197 182 183 189 188 192 192 197 193 191 188 188 194 196 197 193 188 186 194 191 200 189 199 201 199 191 198 194 192 201 190 194 193 195 194 193 195 197 196 200 202 199 197 198 196 194 202 196 194 193 198 196 195 197 199 195 198 190 194 193 199 197 198 200 196 188 196 214 196 213 192 191 193 208 207 208 213 210 210 219 203 195 209 214 209 215 211 212 208 186 209 215 221 200 212 194 213 182
180 175 193 193 192 182 196 183 182 184 179 175 175 186 204 186 186 185 186 189 191 185 191 184 180 191 192 185 183 193 183 189 190 190 197 195 197 189 195 194 194 195 198 199 190 199 195 199 192 195 195 195 191 200 196 199 198 199 199 197 196 198 199 201 197 194 198 198 192 194 195 196 199 196 196 198 198 194 198 193 193 191 198 193 188 194 192 194 195 188 185 186 190 178 182 185 191 182 187 187 206 184 184 186 208 187 204 205 203 213 189 206 188 179 186 177 184 171 213 207
175 175 176 179 173 175 174 183 173 180 183 181 184 183 185 178 184 186 184 183 187 189 188 187 183 187 185 189 189 183 188 182 187 182 189 187 184 184 186 189 182 184 188 189 186 186 185 197 187 184 190 192 190 191 188 191 187 192 187 190 185 185 185 191 190 189 188 188 186 191 193 188 193 187 191 188 192 187 185 190 190 192 185 184 194 192 186 191 185 192 186 192 186 189 180 188 190 188 190 186 183 176 185 187 180 181 189 177 175 178 179 181 177 182 173 178 195 174 180 177
174 167 160 167 163 171 164 177 168 170 169 170 173 172 177 175 174 180 178 180 173 172 176 174 171 167 171 176 172 179 176 177 174 172 177 176 178 179 174 179 171 179 180 178 181 183 179 179 184 186 179 177 176 185 180 182 177 181 178 180 179 179 179 181 176 179 183 179 183 177 177 180 178 179 179 177 182 181 179 179 176 179 181 174 178 178 180 176 178 185 180 181 181 167 175 180 177 178 179 178 185 176 175 180 180 178 177 170 174 180 174 178 175 166 169 176 170 166 166 172
168 166 164 163 157 163 158 163 172 165 167 168 165 169 167 170 168 172 167 170 166 164 170 168 170 160 167 170 167 176 179 170 171 169 170 165 170 164 171 169 166 160 174 171 173 168 168 169 175 174 177 172 173 175 173 171 171 174 175 170 175 172 170 173 172 172 171 173 170 169 170 167 175 174 169 178 174 173 173 167 169 167 171 167 168 173 175 165 172 171 166 171 167 173 167 173 170 169 170 177 170 170 172 168 177 179 171 168 165 168 168 166 178 179 169 178 173 174 160 170
156 157 165 162 161 159 164 153 153 155 162 156 155 160 163 160 163 162 167 162 161 163 165 168 164 163 161 155 160 163 162 171 160 163 157 157 160 157 163 162 162 163 161 164 166 169 164 161 166 166 164 167 164 162 168 170 162 171 162 170 160 167 165 163 169 162 161 161 168 162 163 160 167 159 162 164 169 166 170 164 163 160 160 165 167 168 166 162 162 164 163 163 162 165 162 164 166 165 164 163 166 164 160 162 161 161 165 162 157 156 161 170 161 166 171 165 174 142 158 156
144 146 154 147 152 154 148 151 154 153 148 149 151 151 156 153 151 154 154 165 157 154 153 155 157 157 153 161 158 158 157 157 155 154 153 150 147 159 151 161 158 154 160 155 157 159 159 154 158 159 162 156 163 163 159 157 160 159 162 160 159 157 156 162 158 156 156 163 155 156 156 160 156 161 160 162 160 163 157 156 163 158 155 156 156 154 163 157 162 158 158 154 153 155 158 158 158 153 153 157 156 154 160 161 157 149 156 153 153 158 153 158 158 165 162 161 155 157 165 143
135 143 147 143 149 147 145 144 148 145 148 151 141 142 147 140 148 150 144 150 153 149 158 149 154 151 147 156 150 147 149 146 146 149 148 149 152 153 146 151 153 152 152 151 151 151 150 146 154 155 154 150 152 149 151 149 153 151 157 157 156 144 149 155 147 153 151 151 151 155 151 156 147 156 152 154 158 160 149 151 151 151 150 146 147 151 156 151 156 148 154 151 153 156 155 149 147 149 155 155 154 156 159 154 150 142 148 147 158 154 151 154 154 152 162 144 153 168 147 135
138 139 138 134 140 139 139 141 141 139 142 139 143 140 136 128 142 138 140 144 142 145 140 150 140 141 147 144 145 141 142 140 142 139 141 142 140 146 142 147 148 146 149 148 144 147 141 128 147 147 141 146 133 143 151 144 147 150 146 146 149 145 144 146 150 143 150 146 150 148 145 148 147 149 148 145 149 150 149 146 143 145 146 139 148 142 151 143 152 144 146 147 149 148 145 146 140 142 148 149 145 145 149 140 142 139 142 145 142 147 142 136 149 149 146 136 138 148 149 133
128 132 132 136 135 141 138 139 140 137 136 0 131 142 132 135 135 141 139 137 145 143 141 135 140 144 144 137 137 138 127 129 140 126 131 139 130 130 139 139 132 144 139 141 139 130 132 130 139 128 143 139 134 142 143 146 147 146 143 134 131 128 142 144 143 128 132 142 144 128 140 132 132 143 144 142 145 140 141 142 148 140 139 128 144 139 141 136 142 141 128 143 144 144 141 142 145 142 140 142 137 138 140 139 137 139 138 128 141 140 131 135 136 139 138 137 127 128 137 143
134 130 130 131 138 134 144 135 131 141 134 137 138 140 136 134 124 138 136 133 138 142 139 137 141 136 133 138 138 124 128 130 140 127 127 128 126 129 125 129 142 130 141 127 0 133 130 139 126 126 124 128 141 132 0 142 0 130 129 131 136 129 134 131 130 128 143 139 140 128 132 127 125 131 129 140 131 130 131 139 139 129 125 120 128 126 140 126 139 147 134 138 138 141 137 127 138 145 140 141 136 132 127 134 127 123 123 129 132 135 133 135 135 135 134 146 131 153 127 154
119 106 124 108 128 128 142 131 116 113 121 127 121 124 125 123 121 131 130 120 120 126 128 123 126 137 127 138 0 131 125 123 123 127 117 119 127 124 124 119 129 127 128 129 0 0 126 122 129 122 124 121 125 128 126 127 132 129 128 124 117 123 128 129 129 126 129 131 124 128 121 125 120 123 114 121 121 132 124 126 128 125 123 122 119 138 118 126 123 128 124 128 135 126 118 121 137 137 134 129 131 115 120 121 122 121 119 116 119 134 118 132 144 118 131 127 127 115 104 89
107 117 123 112 114 117 128 112 128 114 114 120 120 119 119 114 116 132 124 114 121 127 126 122 126 123 129 126 125 129 128 0 124 118 120 113 122 122 0 121 128 124 0 0 0 0 125 126 123 121 123 123 125 120 127 127 123 124 119 117 127 123 115 120 126 122 131 122 119 122 125 121 125 113 122 115 122 131 124 121 122 113 122 126 119 116 121 119 125 118 114 123 118 122 119 123 126 123 120 122 126 111 118 119 111 116 117 119 119 133 128 131 121 129 130 110 136 93 105 130
107 98 113 112 110 109 114 120 111 114 123 113 108 108 113 107 117 113 110 120 116 107 111 117 113 112 118 116 117 125 125 0 116 117 115 110 117 0 114 117 122 0 0 122 125 0 123 120 115 113 116 115 118 119 121 120 117 120 115 120 123 119 122 119 120 120 119 120 119 114 117 118 110 113 117 118 114 116 116 117 114 118 116 117 115 117 118 112 119 122 117 116 116 118 105 119 123 120 112 118 117 119 119 106 113 113 118 116 111 120 124 107 115 115 124 132 131 108 106 111
94 105 111 100 102 102 114 110 100 110 107 106 108 114 120 118 113 110 105 107 115 107 113 101 108 110 114 116 110 115 116 116 112 113 116 111 108 115 0 116 113 115 112 110 109 113 116 0 112 0 114 110 118 113 0 0 105 108 116 111 125 116 106 107 107 113 106 109 117 111 117 109 110 103 107 108 105 109 107 111 111 105 113 108 109 108 115 104 108 114 113 111 99 111 112 112 111 114 111 103 109 110 115 106 105 112 105 111 117 120 101 110 104 97 99 127 106 97 118 103
98 105 112 108 109 106 108 108 107 109 107 118 107 106 116 114 114 113 115 101 102 98 98 102 115 108 108 111 103 116 109 107 105 105 113 111 113 0 107 109 112 106 112 97 105 106 107 110 116 0 112 111 108 112 110 112 101 111 111 110 107 109 115 0 115 108 108 112 107 110 106 100 106 113 102 103 101 101 101 107 111 109 106 106 96 104 101 106 107 101 105 109 100 102 96 110 103 111 107 105 108 112 111 114 108 101 108 101 93 104 106 96 119 103 120 109 109 132 120 115
96 95 103 110 98 94 98 97 96 94 95 99 98 98 105 103 97 103 102 101 99 101 91 101 101 103 106 102 100 101 112 108 106 93 106 99 103 111 104 109 107 102 99 97 99 103 108 100 106 102 104 107 102 102 105 96 95 101 102 101 101 110 105 0 108 103 0 111 104 106 101 103 98 106 101 106 97 102 0 102 0 103 104 99 99 96 92 96 98 103 106 101 104 93 96 91 99 100 100 103 101 102 96 105 101 98 94 91 91 90 98 97 89 104 103 90 106 95 93 110
88 103 85 94 94 94 97 96 98 94 98 92 100 100 102 97 89 98 107 96 99 94 91 91 96 98 102 100 98 103 105 105 106 101 100 101 95 102 98 96 100 103 97 94 99 101 99 103 103 104 105 98 97 102 92 103 100 108 100 103 104 102 105 101 106 101 105 110 108 98 97 103 101 100 97 93 108 99 101 100 0 103 95 90 100 100 96 108 93 99 107 102 102 99 91 103 97 98 91 108 101 94 97 88 97 105 102 91 111 105 87 93 94 86 97 125 94 85 90 105
89 98 89 98 92 91 92 87 83 91 95 96 91 89 89 87 94 89 106 108 102 93 90 92 94 92 95 92 94 101 97 99 102 97 91 105 100 94 96 102 96 95 91 90 98 96 100 97 93 99 101 91 86 94 101 97 94 99 103 97 96 93 100 0 97 103 95 95 95 95 98 99 102 99 89 105 100 100 96 109 93 99 90 107 95 96 91 90 92 96 88 94 95 82 88 89 90 88 99 93 93 97 97 93 100 93 97 74 90 86 92 98 92 88 98 77 114 105 101 85
86 87 78 81 89 82 86 92 85 90 85 90 95 88 93 88 88 92 92 93 90 92 94 93 94 90 97 89 96 94 90 87 98 93 87 90 88 94 93 91 86 93 96 86 91 97 91 88 92 96 97 94 92 95 90 89 94 93 96 89 88 90 88 93 95 91 89 87 98 97 87 92 95 99 97 96 90 87 94 98 89 88 89 90 89 85 88 93 90 92 90 92 94 91 92 92 94 89 87 92 91 85 89 93 91 83 83 84 83 85 90 79 76 87 89 84 81 77 101 123
90 80 80 82 91 87 88 95 85 88 84 94 86 90 92 87 90 86 96 87 85 98 91 86 95 89 95 90 86 84 87 88 101 88 100 96 89 96 88 93 88 91 97 94 95 98 92 92 89 93 99 88 97 99 97 97 94 94 90 100 93 88 95 91 88 93 93 90 90 94 96 86 96 91 91 97 92 95 83 94 93 84 93 95 90 95 90 98 93 92 98 97 102 90 94 88 88 93 93 94 87 90 88 92 85 99 91 83 83 83 91 89 84 96 82 98 89 88 0 0
80 97 85 86 89 92 89 93 85 0 85 90 83 87 92 89 88 86 83 90 90 88 89 94 87 91 88 84 86 92 87 94 96 84 92 93 85 93 94 93 86 98 92 86 86 90 89 97 89 96 96 94 97 91 94 98 97 96 93 94 94 97 88 99 89 99 96 94 94 95 88 95 95 94 94 90 88 93 95 96 94 88 94 88 95 90 93 97 107 94 91 94 101 88 87 92 93 86 87 84 91 88 88 87 80 81 92 89 97 79 84 78 80 78 86 78 88 76 78 0
76 83 74 86 87 85 92 87 88 80 82 82 83 90 87 90 85 89 83 91 86 90 90 85 86 87 90 89 88 88 83 90 88 89 87 92 93 90 89 91 92 83 92 96 86 88 98 92 93 90 97 94 87 82 95 96 94 90 97 94 90 91 92 87 90 93 88 90 93 93 89 90 95 95 87 88 87 94 91 90 96 85 88 91 85 92 92 86 92 89 91 90 81 84 80 85 84 80 88 87 76 79 88 88 82 84 99 84 73 81 82 86 84 81 72 72 88 87 0 0
79 75 80 78 86 85 91 94 78 85 81 89 88 83 90 86 83 85 89 89 88 93 93 87 77 90 86 87 92 91 90 83 94 88 88 85 89 89 85 93 93 86 88 95 95 86 94 90 94 94 92 91 91 91 86 91 88 95 85 92 95 91 85 95 90 96 89 86 87 92 89 94 92 89 93 88 92 92 96 87 91 91 85 88 92 96 92 85 94 90 89 92 80 85 92 92 94 90 94 88 82 93 84 87 83 91 87 90 87 76 86 85 92 106 85 93 0 0 0 0
78 66 64 63 74 80 88 79 85 82 84 77 77 89 82 80 81 76 77 79 89 77 80 79 73 74 81 87 76 77 86 74 81 81 84 76 82 83 84 75 79 78 84 71 76 84 80 90 90 80 86 80 74 81 80 84 89 87 83 73 85 77 86 82 78 82 77 78 76 78 80 87 80 77 83 74 74 85 87 84 84 75 72 77 75 85 76 75 72 81 85 71 79 76 84 78 75 83 67 86 69 78 75 57 63 72 75 78 65 75 80 76 71 79 82 82 0 0 0 0
72 68 77 78 72 82 86 86 84 80 79 88 73 83 80 84 84 81 77 80 78 82 75 84 81 87 79 71 81 83 83 82 89 80 80 73 79 78 81 84 90 85 87 86 87 86 85 81 85 83 86 77 77 80 82 81 86 77 80 81 86 77 82 84 81 82 79 77 91 76 83 81 80 83 85 85 89 90 86 87 89 83 86 80 75 78 82 70 84 90 63 76 72 73 81 76 87 88 70 71 83 67 75 73 74 77 74 82 87 87 84 48 94 78 82 0 0 0 0 0
