0 0 0 0 0 0 0 0 0 0 0 0 0 0 0 0 0 0 0 0 0 0 0 0 0 0 0 0 0 0 0 0 0 0 0 0 0 0 0 0 0 0 0 0 0 0 0 0 0 0 0 0 0 0 0 0 0 0 0 0 0 0 0 0 0 0 0 0 0 0 0 0 0 0 0 0 0 0 0 0 0 0 0 0 0 0 0 0 0 0 0 0 0 0 0 0 0 0 0 0 0 0 0 0 0 0 0 0 0 0 0 0 0 0 0 0 0 0 0 0
0 0 0 0 0 0 0 0 0 0 0 0 0 0 0 0 0 0 0 0 0 0 0 0 0 0 0 0 0 0 0 0 0 0 0 0 0 0 0 0 0 0 0 0 0 0 0 0 0 0 0 0 0 0 0 0 0 0 0 0 0 0 0 0 0 0 0 0 0 0 0 0 0 0 0 0 0 0 0 0 0 0 0 0 0 0 0 0 0 0 0 0 0 0 0 0 0 0 0 0 0 0 0 0 0 0 0 0 0 0 0 0 0 0 0 0 0 0 0 0
0 0 0 0 0 0 0 0 0 0 0 0 0 0 0 0 0 1280 0 0 0 0 0 0 0 0 0 0 0 0 0 0 0 0 0 0 0 0 0 0 0 0 0 0 0 0 0 0 0 0 0 0 0 0 0 0 0 0 0 0 0 0 0 0 0 0 0 0 0 0 0 0 0 0 0 0 0 0 0 0 0 0 0 0 0 0 0 0 0 0 0 0 0 0 0 0 0 0 0 0 0 0 0 0 0 0 0 0 0 0 0 0 0 0 0 0 0 0 0 0
0 0 0 0 0 0 0 0 0 0 0 1113 1165 1171 1129 0 1296 1279 0 0 0 0 1224 0 0 0 0 0 0 0 0 0 0 0 0 0 0 0 0 0 0 0 0 0 0 0 0 0 0 0 0 0 0 0 0 0 0 0 0 0 0 0 0 0 0 0 0 0 0 0 0 0 0 0 0 0 0 0 0 0 0 0 0 0 0 0 0 0 0 0 0 0 0 0 0 0 0 0 0 0 0 0 0 0 0 0 0 0 0 0 0 0 0 0 0 0 0 0 0 0
0 0 0 0 0 0 0 0 1152 1133 1147 1174 1149 1200 1191 1269 1254 1289 1318 1291 1324 1261 1286 0 0 0 0 0 0 0 0 0 0 0 0 0 0 0 0 0 0 0 0 0 0 0 0 0 0 0 0 0 0 0 0 0 0 0 0 0 0 0 0 0 0 0 0 0 0 0 0 0 0 0 0 0 0 0 0 0 0 0 0 0 0 0 0 0 0 0 0 0 0 0 0 0 0 0 0 0 0 0 0 0 0 0 0 0 0 0 0 0 0 0 0 0 0 0 0 0
0 0 0 0 0 0 0 1142 1119 1112 1184 0 1129 1175 1187 1209 1290 1299 1273 1267 1250 1266 1275 1269 0 0 0 0 0 0 0 0 0 0 0 0 0 0 0 0 0 0 0 0 0 0 0 0 0 0 0 0 0 0 0 0 0 0 0 0 0 0 0 0 0 0 0 0 0 0 0 0 0 0 0 0 0 0 0 0 0 0 0 0 0 0 0 0 0 0 0 0 0 0 0 0 0 0 0 0 0 0 0 0 0 0 0 0 0 0 0 0 0 0 0 0 0 0 0 0
0 0 0 0 0 0 0 0 0 0 0 0 1228 1212 1251 1274 1275 1288 1265 1265 1269 1271 1277 1276 1295 0 0 0 0 0 0 1391 0 0 0 0 0 0 0 0 0 0 0 0 0 0 0 0 0 0 0 0 0 0 0 0 0 0 0 0 0 0 0 0 0 0 0 0 0 0 0 0 0 0 0 0 0 0 0 0 0 0 0 0 0 0 0 0 0 0 0 0 0 0 0 0 0 0 0 0 0 0 0 0 0 0 0 0 0 0 0 0 0 0 0 0 0 0 0 0
0 0 0 0 0 0 0 0 0 0 0 0 1272 1240 1267 1277 1264 1296 1281 1291 1255 1263 1277 1276 0 1297 1353 1314 1355 1339 0 1406 0 0 0 0 0 0 0 0 0 0 0 0 0 0 0 0 0 0 0 0 0 0 0 0 0 0 0 0 0 0 0 0 0 0 0 0 0 0 0 0 0 0 0 0 0 0 0 0 0 0 0 0 0 0 0 0 0 0 0 0 0 0 0 0 0 0 0 0 0 0 0 0 0 0 0 0 0 0 0 0 0 0 0 0 0 0 0 0
0 0 0 0 0 0 0 0 0 0 0 0 1238 1244 1220 1288 1267 1265 1288 1275 1221 1251 1237 1274 0 0 1318 1358 1321 1354 1354 1400 0 0 0 0 0 0 0 0 0 0 0 0 0 0 0 0 0 0 0 0 0 0 0 0 0 0 0 0 0 0 0 0 0 0 0 0 0 0 0 0 0 0 0 0 0 0 0 0 0 0 0 0 0 0 0 0 0 0 0 0 0 0 0 0 0 0 0 0 0 0 0 0 0 0 0 0 0 0 0 0 0 0 0 0 0 0 0 0
0 0 0 0 0 0 0 0 0 0 0 0 0 0 1286 1287 1267 1276 1255 1271 1250 1244 1255 1249 1270 0 0 1359 1344 1379 1361 1402 0 0 0 0 0 0 0 0 0 0 0 0 0 0 0 0 0 0 0 0 0 0 0 0 0 0 0 0 0 0 0 0 0 0 0 0 0 0 0 0 0 0 0 0 0 0 0 0 0 0 0 0 0 0 0 0 0 0 0 0 0 0 0 0 0 0 0 0 0 0 0 0 0 0 0 0 0 0 0 0 0 0 0 0 0 0 0 0
0 0 0 0 0 0 0 0 0 0 0 0 0 0 0 0 0 0 0 0 0 1268 1251 1260 1284 0 0 1344 1350 1344 1337 1433 1396 0 0 0 0 0 0 0 0 0 0 0 0 0 0 0 0 0 0 0 0 0 0 0 0 0 0 0 0 0 0 0 0 0 0 0 0 0 0 0 0 0 0 0 0 0 0 0 0 0 0 0 0 0 0 0 0 0 0 0 0 0 0 0 0 0 0 0 0 0 0 0 0 0 0 0 0 0 0 0 0 0 0 0 0 0 0 0
0 0 0 0 0 0 0 0 0 0 0 0 0 0 0 0 0 0 0 0 0 0 0 1360 1327 0 0 0 1332 1342 1336 1383 1445 0 0 0 0 0 0 0 0 0 0 0 0 0 0 0 0 0 0 0 0 0 0 0 0 0 0 0 0 0 0 0 0 0 0 0 0 0 0 0 0 0 0 0 0 0 0 0 0 0 0 0 0 0 0 0 0 0 0 0 0 0 0 0 0 0 0 0 0 0 0 0 0 0 0 1737 1721 0 0 0 0 0 0 0 0 0 0 0
0 0 0 0 0 0 0 0 0 0 0 0 0 0 0 0 0 0 0 0 0 0 0 1404 1397 1333 1310 1319 1351 1359 1381 1410 1423 0 0 0 0 0 0 0 0 0 0 0 0 0 0 0 0 0 0 0 0 0 0 0 0 0 0 0 0 0 0 0 0 0 0 0 0 0 0 0 0 0 0 0 0 0 0 0 0 0 0 0 0 0 0 0 0 0 0 0 0 0 0 0 0 0 0 0 0 0 0 0 0 0 1740 1750 0 0 0 0 0 0 0 0 0 0 0 0
0 0 0 0 0 0 0 0 0 0 0 0 0 0 0 0 0 0 0 0 0 0 0 1362 1378 1388 1311 1350 1329 1353 1362 1387 1426 0 0 0 0 0 0 0 0 0 0 0 0 0 0 0 0 0 0 0 0 0 0 0 0 0 0 0 0 0 0 0 0 0 0 0 0 0 0 0 0 0 0 0 0 0 0 0 0 0 0 0 0 0 0 0 0 0 0 0 0 0 0 0 0 0 0 0 0 0 0 0 0 1714 1663 1713 1687 0 0 0 0 0 0 0 0 0 0 0
0 0 0 0 0 0 0 0 0 0 0 0 0 0 0 0 0 0 0 0 0 0 0 1382 1381 1407 1362 1358 1321 1348 1360 1434 1429 0 0 0 0 0 0 0 0 0 0 0 0 0 0 0 0 0 0 0 0 0 0 0 0 0 0 0 0 0 0 0 0 0 0 0 0 0 0 0 0 0 0 0 0 0 0 0 0 0 0 0 0 0 0 0 0 0 0 0 0 0 0 0 0 0 0 0 0 0 0 0 0 1791 1789 0 0 1700 0 0 0 0 0 0 0 0 0 0
0 0 0 0 0 0 0 0 0 0 0 0 0 0 0 0 0 0 0 0 0 0 0 1397 1359 1341 1400 1376 1349 1324 1374 1404 1448 0 0 0 0 0 0 0 0 0 0 0 0 0 0 0 0 0 0 0 0 0 0 0 0 0 0 0 0 0 0 0 0 0 0 0 0 0 0 0 0 0 0 0 0 0 0 0 0 0 0 0 0 0 0 0 0 0 0 0 0 0 0 0 0 0 0 0 0 0 0 0 0 1727 0 1690 1707 0 0 0 0 1683 0 0 0 0 0 0
1231 1256 1229 1280 1296 1282 1288 0 0 0 0 0 0 0 0 0 0 0 0 0 0 0 0 0 1352 1373 1359 1347 1364 1380 1337 1416 1417 0 0 0 0 0 0 0 0 0 0 0 0 0 0 0 0 0 0 0 0 0 0 0 0 0 0 0 0 0 0 0 0 0 0 0 0 0 0 0 0 0 0 0 0 0 0 0 0 0 0 0 0 0 0 0 0 0 0 0 0 0 0 0 0 0 0 0 0 0 0 0 1736 1720 1745 1690 1729 1733 0 0 0 0 0 0 0 0 0 0
1243 1256 1274 1284 1288 1300 1293 1288 1343 1325 1356 0 0 0 0 0 0 0 0 0 0 0 0 1350 1354 1349 1368 1367 1363 1359 1415 1411 1437 0 0 0 0 0 0 0 0 0 0 0 0 0 0 0 0 0 0 0 0 0 0 0 0 0 0 0 0 0 0 0 0 0 0 0 0 0 0 0 0 0 0 0 0 0 0 0 0 0 0 0 0 0 0 0 0 0 0 0 0 0 0 0 0 0 0 0 0 0 0 0 1751 1735 1708 1724 1695 1692 1633 1676 0 0 0 0 0 0 0 0
1267 1250 1266 1281 1301 1282 1310 1304 1320 1333 1348 1359 1367 1334 1347 1394 0 0 0 0 0 0 0 0 0 1369 0 0 1388 0 0 1426 1413 0 0 0 0 0 0 0 0 0 0 0 0 0 0 0 0 0 0 0 0 0 0 0 0 0 0 0 0 0 0 0 0 0 0 0 0 0 0 0 0 0 0 0 0 0 0 0 0 0 0 0 0 0 0 0 0 0 0 0 0 0 0 0 0 0 0 0 0 0 0 1826 1787 1753 1762 1749 1668 1658 1699 1668 0 0 0 0 0 0 0 0
0 0 0 0 1298 1289 1313 1318 1326 1320 1336 1343 1333 1389 1387 1385 1376 1433 1455 1442 0 0 0 0 0 0 0 0 0 0 0 1427 1445 1399 0 0 0 0 0 0 0 0 0 0 0 0 0 0 0 0 0 0 0 0 0 0 0 0 0 0 0 0 0 0 0 0 0 0 0 0 0 0 0 0 0 0 0 0 0 0 0 0 0 0 0 0 0 0 0 0 0 0 0 0 0 0 0 0 0 0 0 0 1802 1766 1720 1741 1713 1681 1657 1596 0 0 0 0 0 0 0 0 0 0
0 0 0 0 0 0 0 0 0 1347 1360 1331 1352 1363 1386 1393 1415 1427 1417 1478 1463 1514 0 0 0 0 0 0 0 0 0 1476 1505 1462 0 0 0 0 0 0 0 0 0 0 0 0 0 0 0 0 0 0 0 0 0 0 0 0 0 0 0 0 0 0 0 0 0 0 0 0 0 0 0 0 0 0 0 0 0 0 0 0 0 0 0 0 0 0 0 0 0 0 0 0 0 0 0 0 0 0 0 1872 0 1741 1672 1662 1621 1634 1590 1600 1574 1576 1589 1579 1573 0 0 0 0 0
0 0 0 0 0 0 0 0 0 0 0 0 0 0 0 1381 1389 1434 1408 1458 1423 1462 0 0 0 0 0 0 0 0 0 0 1481 0 0 0 0 0 0 0 0 0 0 0 0 0 0 0 0 0 0 0 0 0 0 0 0 0 0 0 0 0 0 0 0 0 0 0 0 0 0 0 0 0 0 0 0 0 0 0 0 0 0 0 0 0 0 0 0 0 0 0 0 0 0 0 0 0 0 0 0 1800 1639 1599 1601 1614 1595 1587 1581 1583 1582 1605 1573 1603 1589 0 0 0 0 0
0 0 0 0 0 0 0 0 0 0 0 0 0 0 0 0 0 0 0 0 0 1487 0 0 0 0 0 0 0 0 0 0 0 0 0 0 0 0 0 0 0 0 0 0 0 0 0 0 0 0 0 0 0 0 0 0 0 0 0 0 0 0 0 0 0 0 0 0 0 0 0 0 0 0 0 0 0 0 0 0 0 0 0 0 0 0 0 0 0 0 0 0 0 0 0 0 0 0 0 0 0 1564 1581 1597 1592 1587 1571 1593 1583 1595 1592 1586 1566 1631 0 0 0 0 0 0
0 0 0 0 0 0 0 0 0 0 0 0 0 0 0 0 0 0 0 0 0 0 0 0 0 0 0 0 0 0 0 0 0 0 0 0 0 0 0 0 0 0 0 0 0 0 0 0 0 0 0 0 0 0 0 0 0 0 0 0 0 0 0 0 0 0 0 0 0 0 0 0 0 0 0 0 0 0 0 0 0 0 0 0 0 0 0 0 0 0 0 0 0 0 0 0 0 0 0 0 0 0 0 1591 1579 1583 1580 1598 1575 1589 1584 1588 0 0 0 0 0 0 0 0
0 0 0 0 0 0 0 0 0 0 0 0 0 0 0 0 0 0 0 0 0 0 0 0 0 0 0 0 0 0 0 0 0 0 0 0 0 0 0 0 0 0 0 0 0 0 0 0 0 0 0 0 0 0 0 0 0 0 0 0 0 0 0 0 0 0 0 0 0 0 0 0 0 0 0 0 0 0 0 0 0 0 0 0 0 0 0 0 0 0 0 0 0 0 0 0 0 0 0 0 0 0 0 0 0 0 0 1586 1614 0 0 0 0 0 0 0 0 0 0 0
0 0 0 0 0 0 0 0 0 0 0 0 0 0 0 0 0 0 0 0 0 0 0 0 0 0 0 0 0 0 0 0 0 0 0 0 0 0 0 0 0 0 0 0 0 0 0 0 0 0 0 0 0 0 0 0 0 0 0 0 0 0 0 0 0 0 0 0 0 0 0 0 0 0 0 0 0 0 0 0 0 0 0 0 0 0 0 0 0 0 0 0 0 0 0 0 0 1666 0 0 0 0 0 0 0 0 0 0 0 0 0 0 0 0 0 0 0 0 0 0
568 539 0 0 0 0 0 0 0 0 0 0 0 0 0 0 0 0 0 0 0 0 0 0 0 1886 1841 0 0 0 0 0 0 0 0 0 0 0 0 0 0 0 0 0 0 0 0 0 2913 2982 2930 2915 2916 2880 2905 2929 2970 2949 2916 2913 2936 2939 2914 2903 2927 2953 0 0 0 0 0 0 0 0 0 0 0 0 0 0 0 0 0 0 0 0 0 0 0 0 0 0 0 0 0 1784 1714 0 0 0 0 0 0 0 0 0 0 0 0 0 0 0 0 0 0 0 0 0 0 0
572 582 587 601 585 603 0 0 0 0 0 0 0 0 0 0 0 0 0 0 0 0 0 0 0 0 0 1922 0 0 0 0 0 0 0 0 0 0 0 0 0 0 0 0 0 0 0 2966 3001 2909 2979 2877 2944 2971 2979 2978 2894 2954 2902 2962 2893 2907 2939 2925 2933 2981 0 0 0 0 0 0 0 0 0 0 0 0 0 0 0 0 0 0 0 0 0 0 0 0 0 0 0 0 0 0 0 0 0 0 0 0 0 0 0 0 0 0 0 0 0 0 0 0 0 0 0 0 0 0
581 582 598 596 618 636 634 683 711 0 0 0 0 0 0 0 0 0 0 0 0 0 0 0 0 0 0 0 0 0 0 0 0 0 0 0 0 0 0 0 0 0 0 0 0 0 0 2929 2881 2931 2892 2873 2887 2889 2888 2839 2872 2897 2883 2908 2913 2898 2891 2933 2846 2904 0 0 0 0 0 0 0 0 0 0 0 0 0 0 0 0 0 0 0 0 0 0 0 0 0 0 0 0 0 0 0 0 0 0 0 0 0 0 0 0 0 0 0 0 0 0 0 0 0 0 0 0 0 0
587 584 600 594 639 648 641 661 680 696 678 724 0 0 0 0 0 0 0 0 0 0 0 0 0 0 0 0 0 0 0 0 0 0 0 0 0 0 0 0 0 0 0 0 0 0 0 2882 2891 2877 2904 2858 2917 2866 2860 2904 2844 2867 2868 2853 2853 2872 2875 2857 2855 2846 0 0 0 0 0 0 0 0 0 0 0 0 0 0 0 0 0 0 0 0 0 0 0 0 0 0 0 0 0 0 0 0 0 0 0 0 0 0 0 0 0 0 0 0 0 0 0 0 0 0 0 0 0 0
602 598 612 610 634 637 629 655 658 681 682 709 702 711 795 0 0 0 0 0 0 0 0 0 0 0 0 0 0 0 0 0 0 0 0 0 0 0 0 0 0 0 0 0 0 0 0 2918 2886 2895 2857 2909 2860 2877 2901 2867 2909 2851 2907 2929 2908 2883 2870 2875 2880 2861 0 0 0 0 0 0 0 0 0 0 0 0 0 0 0 0 0 0 0 0 0 0 0 0 0 0 0 0 0 0 0 0 0 0 0 0 0 0 0 0 0 0 0 0 0 0 0 0 0 0 0 0 0 0
796 782 795 747 734 687 675 682 677 690 685 712 735 753 753 752 806 821 0 0 0 0 0 0 0 0 0 0 0 0 0 0 0 0 0 0 0 0 0 0 0 0 0 0 0 0 0 2857 2943 2859 2872 2879 2874 2878 2883 2868 2880 2887 2843 2878 2864 2883 2864 2867 2827 2878 0 0 0 0 0 0 0 0 0 0 0 0 0 0 0 0 0 0 0 0 0 0 0 0 0 0 0 0 0 0 0 0 0 0 0 0 0 0 0 0 0 0 0 0 0 0 0 0 0 0 0 0 0 0
768 811 802 809 812 829 848 818 835 767 762 729 687 730 732 725 750 774 787 820 782 0 0 0 0 0 0 0 0 0 0 0 0 0 0 0 0 0 0 0 0 0 0 0 0 0 0 2904 2907 2978 2921 2891 2892 3008 2942 2937 2900 2930 2912 2894 2908 2884 2931 2929 2947 2949 0 0 0 0 0 0 0 0 0 0 0 0 0 0 0 0 0 0 0 0 0 0 0 0 0 0 0 0 0 0 0 0 0 0 0 0 0 0 0 0 0 0 0 0 0 0 0 0 0 0 0 0 0 0
734 779 798 816 836 852 863 884 896 906 903 923 924 891 842 805 775 779 791 795 832 849 860 853 0 0 0 0 0 0 0 0 0 0 0 0 0 0 0 0 0 0 0 0 0 0 0 2937 2872 2940 2953 2920 2913 2911 2996 2892 2952 2969 2926 2966 2925 2914 2883 2927 2934 2925 0 0 0 0 0 0 0 0 0 0 0 0 0 0 0 0 0 0 0 0 0 0 0 0 0 0 0 0 0 0 0 0 0 0 0 0 0 0 0 0 0 0 0 0 0 0 0 0 0 0 0 0 0 0
560 0 820 835 836 836 865 890 899 909 919 958 944 950 944 958 935 918 898 856 844 857 862 880 885 928 0 0 0 0 0 0 0 0 0 0 0 0 0 0 0 0 0 0 0 0 0 2942 2891 2891 2898 2913 2927 2951 2866 2952 2936 2910 2881 2887 2952 2912 2931 2883 2935 2893 0 0 0 0 0 0 0 0 0 0 0 0 0 0 0 0 0 0 0 0 0 0 0 0 0 0 0 0 0 0 0 0 0 0 0 0 0 0 0 0 0 0 0 0 0 0 0 0 0 0 0 0 0 0
636 917 927 942 904 932 907 883 902 919 944 945 950 940 952 950 948 952 936 945 940 930 911 904 905 924 946 985 977 0 0 0 0 0 0 0 0 0 0 0 0 0 0 0 0 0 0 2886 2958 2931 2941 2918 2942 2921 2947 2942 2993 2958 2864 2893 2919 2913 2924 2868 2870 2942 0 0 0 0 0 0 0 0 0 0 0 0 0 0 0 0 0 0 0 0 0 0 0 0 0 0 0 0 0 0 0 0 0 0 0 0 0 0 0 0 0 0 0 0 0 0 0 0 0 0 0 0 0 0
635 734 0 0 0 0 0 0 0 988 1005 1000 973 982 989 1001 972 971 959 942 969 965 956 964 994 978 992 989 1055 1072 1054 0 0 0 0 0 0 0 0 0 0 0 0 0 0 0 0 2905 2886 2873 2855 2862 2881 2901 2914 2872 2921 2876 2925 2900 2914 2893 2866 2871 2866 2871 0 0 0 0 0 0 0 0 0 0 0 0 0 0 0 0 0 0 0 0 0 0 0 0 0 0 0 0 0 0 0 0 0 0 0 0 0 0 0 0 0 0 0 0 0 0 0 0 0 0 0 0 0 0
615 646 635 0 1117 1168 1176 1175 1162 1137 1150 1156 1159 1153 1161 1143 1107 1045 0 0 1026 1079 1067 991 1017 1035 1119 1125 1110 1104 1100 0 0 0 0 0 0 0 0 0 0 0 0 0 0 0 0 2888 2924 2838 2888 2891 2862 2844 2844 2888 2905 2890 2827 2881 2857 2916 2887 2895 2910 2857 0 0 0 0 0 0 0 0 0 0 0 0 0 0 0 0 0 0 0 0 0 0 0 0 0 0 0 0 0 0 0 0 0 0 0 0 0 0 0 0 0 0 0 0 0 0 0 0 0 0 0 0 0 0
599 595 614 588 0 0 0 0 0 0 0 0 0 0 0 0 1421 1034 997 0 0 1138 1089 0 0 1129 1180 1171 1133 1142 1145 0 0 0 0 0 0 0 0 0 0 0 0 0 0 0 0 2871 2885 2903 2886 2836 2918 2888 2915 2825 2891 2856 2852 2890 2923 2865 2874 2870 2883 2869 0 0 0 0 0 0 0 0 0 0 0 0 0 0 0 0 0 0 0 0 0 0 0 0 0 0 0 0 0 0 0 0 0 0 0 0 0 0 0 0 0 0 0 0 0 0 0 0 0 0 0 0 0 0
606 621 594 641 649 0 0 0 0 0 0 0 0 0 0 0 0 1021 1011 0 0 0 0 987 0 0 0 0 0 0 0 0 0 0 0 0 0 0 0 0 0 0 0 0 0 0 0 2890 2882 2907 2868 2899 2897 2837 2857 2837 2855 2886 2888 2898 2895 2903 2868 2870 2836 2866 0 0 0 0 0 0 0 0 0 0 0 0 0 0 0 0 0 0 0 0 0 0 0 0 0 0 0 0 0 0 0 0 0 0 0 0 0 0 0 0 0 0 0 0 0 0 0 0 0 0 0 0 0 0
551 610 597 595 597 587 0 0 0 0 0 0 0 0 0 0 0 0 0 0 0 0 0 0 0 0 0 0 0 0 0 0 0 0 0 0 0 0 0 0 0 0 0 0 0 0 0 2990 2923 2989 2932 2962 2947 2956 2929 2933 2928 2955 2954 2960 2914 2924 2941 2916 2932 0 0 0 0 0 0 0 0 0 0 0 0 0 0 0 0 0 0 0 0 0 0 0 0 0 0 0 0 0 0 0 0 0 0 0 0 0 0 0 0 0 0 0 0 0 0 0 0 0 0 0 0 0 0 0
592 552 593 599 592 569 0 0 0 0 0 0 0 0 0 0 0 0 0 0 0 0 932 0 0 0 0 0 0 0 0 0 0 0 0 0 0 0 0 0 0 0 0 0 0 0 0 2958 2943 2885 2939 2953 2958 2924 2928 2949 2892 2915 2935 2941 2883 2902 2885 2872 2907 0 0 0 0 0 0 0 0 0 0 0 0 0 0 0 0 0 0 0 0 0 0 0 0 0 0 0 0 0 0 0 0 0 0 0 0 0 0 0 0 0 0 0 0 0 0 0 0 0 0 0 0 0 0 0
579 560 603 554 579 595 0 0 0 0 0 0 0 0 0 0 0 0 0 0 0 0 947 0 0 0 0 0 0 0 0 0 0 0 0 0 0 0 0 0 0 0 0 0 0 0 0 2938 2918 2999 2896 2912 2867 2917 2895 2975 2902 2923 2978 2903 2901 2914 2907 2891 2868 0 0 0 0 0 0 0 0 0 0 0 0 0 0 0 0 0 0 0 0 0 0 0 0 0 0 0 0 0 0 0 0 0 0 0 0 0 0 0 0 0 0 0 0 0 0 0 0 0 0 0 0 0 0 0
583 573 597 557 605 564 566 0 0 0 0 0 0 0 0 0 0 0 0 0 0 0 0 0 0 0 0 0 0 0 0 0 0 0 0 0 0 0 0 0 0 0 0 0 0 0 0 2929 2902 2972 2960 2929 2958 2913 2963 2886 2925 2923 2884 2947 2907 2917 2870 2945 2897 0 0 0 0 0 0 0 0 0 0 0 0 0 0 0 0 0 0 0 0 0 0 0 0 0 0 0 0 0 0 0 0 0 0 0 0 0 0 0 0 0 0 0 0 0 0 0 0 0 0 0 0 0 0 0
593 626 622 618 625 618 630 0 0 0 0 0 0 0 0 0 2308 0 0 0 934 0 981 1001 0 0 0 0 0 0 0 0 0 0 0 0 0 0 0 0 0 0 0 0 0 0 0 2845 2875 2870 2862 2890 2881 2890 2902 2869 2890 2861 2862 2862 2877 2883 2863 2871 2857 2850 0 0 0 0 0 0 0 0 0 0 0 0 0 0 0 0 0 0 0 0 0 0 0 0 0 0 0 0 0 0 0 0 0 0 0 0 0 0 0 0 0 0 0 0 0 0 0 0 0 0 0 0 0 0
606 619 607 638 621 648 647 0 0 0 0 0 0 0 0 0 0 0 0 0 0 0 0 0 0 0 0 0 0 0 0 0 0 0 0 0 0 0 0 0 0 0 0 0 0 0 0 2862 2862 2905 2933 2883 2874 2883 2906 2857 2879 2911 2866 2910 2874 2872 2882 2871 2852 2871 0 0 0 0 0 0 0 0 0 0 0 0 0 0 0 0 0 0 0 0 0 0 0 0 0 0 0 0 0 0 0 0 0 0 0 0 0 0 0 0 0 0 0 0 0 0 0 0 0 0 0 0 0 0
605 609 618 627 606 617 0 0 0 0 0 0 0 0 0 0 0 0 0 0 0 0 0 0 0 0 0 0 0 0 0 0 0 0 0 0 0 0 0 0 0 0 0 0 0 0 0 0 0 0 0 0 0 0 0 0 0 0 0 0 0 2943 3015 2887 2909 0 0 0 0 0 0 0 0 0 0 0 0 0 0 0 0 0 0 0 0 0 0 0 0 0 0 0 0 0 0 0 0 0 0 0 0 0 0 0 0 0 0 0 0 0 0 0 0 0 0 0 0 0 0 0
591 619 628 619 614 636 0 0 0 0 0 0 0 0 0 0 0 0 0 0 0 0 0 0 0 0 0 0 0 0 0 0 0 0 0 0 0 0 0 0 0 0 0 0 0 0 0 0 0 0 0 0 0 0 0 0 0 0 0 0 0 0 0 0 0 0 0 0 0 0 0 0 0 0 0 0 0 0 0 0 0 0 0 0 0 0 0 0 0 0 0 0 0 0 0 0 0 0 0 0 0 0 0 0 0 0 0 0 0 0 0 0 0 0 0 0 0 0 0 0
570 601 596 594 582 549 0 0 0 0 0 0 0 0 0 0 0 0 0 0 0 0 0 0 0 0 0 0 0 0 0 0 0 0 0 0 0 0 0 0 0 0 0 0 0 0 0 0 0 0 0 0 0 0 0 0 0 0 0 0 0 0 0 0 0 0 0 0 0 0 0 0 0 0 0 0 0 0 0 0 0 0 0 0 0 0 0 0 0 0 0 0 0 0 0 0 0 0 0 0 0 0 0 0 0 0 0 0 0 0 0 0 0 0 0 0 0 0 0 0
582 591 582 575 592 0 0 0 0 0 0 0 0 0 0 0 0 0 0 0 0 0 0 0 0 0 0 0 0 0 0 0 0 0 0 0 0 0 0 0 0 0 0 0 0 0 0 0 0 0 0 0 0 0 0 0 0 0 0 0 0 0 0 0 0 0 0 0 0 0 0 0 0 0 0 0 0 0 0 0 0 0 0 0 0 0 0 0 0 0 0 0 0 0 0 0 0 0 0 0 0 0 0 0 0 0 0 0 0 0 0 0 0 0 0 0 0 0 0 0
579 610 602 590 0 0 0 0 0 0 0 0 0 0 0 0 0 0 0 0 0 0 0 0 0 0 0 880 884 840 900 893 901 885 885 924 0 887 936 936 923 907 0 0 0 0 0 0 0 0 0 0 0 0 0 0 0 0 0 0 0 0 0 0 0 0 0 0 0 0 0 0 0 0 0 0 0 0 0 0 0 0 0 0 0 0 0 0 0 0 0 0 0 0 0 0 0 0 0 0 0 0 0 0 0 0 0 0 0 0 0 0 0 0 0 0 0 0 0 0
521 535 556 0 0 0 0 664 690 656 655 658 690 686 684 673 675 648 657 641 682 687 706 680 687 642 689 623 716 665 719 700 706 707 679 629 729 722 703 741 706 729 782 764 692 694 734 774 700 731 723 718 719 770 729 718 767 713 770 761 782 758 760 807 754 775 746 729 777 748 772 0 755 0 0 792 0 0 0 0 0 0 0 0 0 0 0 0 0 0 0 0 0 0 0 0 0 0 0 0 0 0 0 0 0 0 0 0 0 0 0 0 0 0 0 0 0 0 0 0
580 590 574 614 566 567 580 599 578 606 593 595 592 559 587 560 607 640 638 577 608 602 618 613 612 585 615 596 649 579 611 663 603 596 637 602 656 588 600 625 584 612 627 626 668 591 629 617 642 632 651 639 662 631 607 651 698 647 632 649 680 669 659 670 694 667 661 677 657 670 677 726 709 705 641 683 707 683 667 690 727 679 697 685 722 705 676 685 702 740 710 711 672 698 0 0 731 757 728 743 720 737 0 0 0 0 0 0 0 0 0 0 0 0 0 0 0 0 0 0
509 475 530 505 481 513 499 503 494 508 505 523 496 528 521 507 482 511 523 515 504 506 518 531 520 507 506 515 518 516 520 521 518 534 512 520 526 522 530 497 527 515 530 515 535 537 517 525 526 527 532 538 521 541 532 558 555 528 545 560 547 533 561 563 552 565 562 556 552 554 551 571 543 554 547 564 544 577 544 582 542 513 564 572 568 568 568 576 596 578 587 585 577 565 567 580 573 604 601 605 550 617 605 626 0 562 0 598 595 601 610 0 0 0 0 0 0 0 0 0
419 434 450 447 445 441 440 421 447 435 426 446 480 451 466 452 453 442 464 459 464 465 468 465 453 447 457 450 467 457 465 455 470 460 469 484 471 478 466 463 475 471 480 467 485 484 465 459 480 469 492 472 489 491 483 479 493 512 465 485 497 486 479 489 492 480 498 498 485 489 479 502 490 495 482 487 500 490 503 488 486 488 493 476 489 486 488 506 535 487 487 513 501 498 474 492 527 494 498 509 521 485 483 482 486 529 495 520 513 533 550 481 0 0 0 0 0 0 0 0
390 385 403 419 401 400 408 398 404 395 404 400 404 409 404 408 417 403 400 419 420 411 416 414 415 413 407 414 404 413 404 431 420 435 427 423 418 424 420 424 420 417 433 436 427 432 427 430 433 440 433 433 419 426 435 424 433 428 434 431 419 443 433 438 434 434 418 432 438 418 449 431 427 428 441 426 435 440 430 426 443 451 432 437 444 444 446 455 457 430 442 442 428 454 457 444 447 458 429 450 456 434 440 460 442 464 447 464 433 440 449 461 451 485 0 0 0 0 0 0
341 338 345 342 343 357 362 352 363 362 371 347 355 361 357 374 354 363 364 353 335 361 354 376 352 366 350 364 359 367 360 370 368 369 375 366 370 373 373 366 373 363 366 377 365 355 378 380 381 381 376 369 371 368 368 373 384 374 368 378 378 382 375 385 376 383 384 378 381 378 390 386 395 395 388 373 389 378 392 389 387 393 387 374 394 395 399 396 393 389 385 398 394 381 371 386 375 392 382 379 381 389 387 397 378 370 384 378 376 374 382 385 384 364 404 347 0 0 0 0
308 301 332 302 326 300 335 337 339 323 336 319 328 324 321 349 345 335 331 324 351 341 334 342 324 334 325 335 340 354 334 337 341 338 331 340 337 333 328 349 334 339 338 347 334 345 340 344 334 358 348 345 344 327 336 336 345 336 344 344 344 349 347 342 344 346 341 348 349 354 348 349 344 345 344 344 338 354 351 343 362 349 346 348 350 352 343 346 356 352 351 345 359 347 345 340 352 357 350 354 348 347 358 358 370 346 351 351 376 354 356 350 337 352 337 318 345 0 0 0
294 286 311 292 298 294 311 305 293 297 290 285 307 301 295 284 301 303 297 301 301 294 297 301 296 300 310 304 295 303 298 294 293 316 306 307 316 312 309 306 307 314 312 306 308 299 307 306 305 305 307 302 318 313 300 319 310 305 313 313 315 308 309 321 308 310 313 316 316 321 317 324 311 317 314 317 303 306 316 304 323 317 320 317 320 315 322 312 319 313 318 304 324 325 320 322 315 324 316 329 329 326 316 346 332 334 303 326 308 334 325 301 328 328 350 331 318 325 281 0
270 270 270 275 260 263 267 284 277 289 267 276 264 289 274 282 269 278 272 276 279 268 274 280 282 271 283 283 279 286 282 279 284 276 282 276 275 269 289 287 276 280 282 286 280 282 282 281 277 283 286 284 287 283 280 282 283 286 284 283 284 281 285 287 281 286 283 286 298 295 281 296 286 283 285 284 289 284 284 283 291 283 280 293 284 286 286 292 289 292 291 292 285 305 293 289 294 282 294 294 290 293 294 280 302 277 278 305 296 312 262 290 288 289 308 277 297 274 307 288
260 250 258 268 247 257 250 249 267 256 252 258 255 254 274 250 260 263 262 248 259 263 263 262 258 253 258 262 251 261 250 269 257 254 266 268 258 267 266 269 273 259 264 262 264 277 263 260 270 270 264 266 262 262 264 262 267 267 265 265 272 265 272 266 281 267 268 269 270 269 274 266 276 267 271 269 275 270 268 262 263 267 277 265 278 272 270 274 267 272 266 269 274 272 266 266 268 274 281 292 277 267 276 277 289 277 292 292 285 277 280 287 269 283 294 280 275 259 296 311
233 232 236 240 235 234 247 233 239 236 232 240 250 243 243 247 238 242 250 243 236 244 247 244 244 241 237 241 244 246 246 251 246 244 243 254 246 257 254 250 252 246 244 250 256 257 248 250 253 247 248 242 247 249 246 247 251 247 251 255 255 252 252 257 255 251 245 251 255 254 251 253 247 252 247 250 253 250 249 249 250 245 251 249 251 263 250 255 247 244 252 253 255 261 256 254 257 249 257 263 261 245 263 255 256 244 263 257 255 246 266 256 269 281 253 250 279 297 271 267
222 215 221 214 214 223 220 217 222 215 222 227 227 226 222 222 220 224 225 224 225 225 227 229 226 229 225 232 227 233 227 228 232 226 228 237 234 238 237 237 239 237 233 230 244 235 235 236 228 232 233 228 233 234 229 233 232 229 237 236 234 239 233 236 236 241 236 238 232 237 233 235 234 236 229 239 235 235 229 238 230 234 234 233 236 229 237 244 234 234 240 237 235 239 238 237 235 241 240 242 243 237 238 239 247 243 243 239 234 250 230 245 248 248 231 240 244 228 239 229
205 206 222 216 213 201 208 209 214 210 209 212 211 222 214 222 215 212 211 216 214 213 214 210 214 215 211 212 219 218 219 211 215 209 211 212 217 221 230 223 219 223 213 218 218 215 221 205 218 220 214 216 221 206 224 219 219 199 228 223 204 219 220 230 223 223 223 218 225 223 206 219 221 203 217 220 222 224 219 223 218 224 223 227 223 227 220 228 218 225 221 222 227 228 226 225 222 222 224 223 217 228 234 227 226 227 222 216 234 229 218 223 235 225 222 238 200 241 226 224
195 197 200 206 203 206 203 198 185 182 198 186 188 193 202 207 189 186 194 191 188 192 189 209 186 193 191 192 182 192 186 191 192 186 200 195 188 187 186 190 187 193 197 197 194 190 194 201 193 195 193 192 201 192 199 195 196 193 194 193 198 195 200 197 196 198 197 199 201 193 197 190 196 190 193 193 196 193 194 190 193 197 212 197 199 201 195 189 196 216 209 199 191 193 195 187 194 196 209 198 213 206 206 197 214 214 202 211 209 206 216 212 208 186 217 177 201 207 207 205
175 175 175 176 179 177 178 181 183 181 187 174 180 187 178 180 178 182 179 183 191 185 191 184 191 184 189 194 192 195 194 182 193 187 196 191 196 188 192 192 196 195 197 196 196 196 193 199 192 195 196 194 191 193 195 199 197 195 197 195 197 196 191 196 198 200 200 192 199 197 196 194 199 198 193 194 200 195 196 196 193 188 194 184 184 196 191 191 189 193 193 184 188 190 191 181 190 190 186 181 182 186 186 186 183 176 178 188 202 204 181 176 181 195 176 199 182 169 175 170
169 175 174 175 173 172 179 182 181 178 183 184 179 181 186 181 183 183 184 182 182 185 186 187 179 185 180 189 185 186 188 180 185 178 184 182 182 186 181 188 182 187 184 190 187 193 187 193 185 191 194 191 183 185 187 191 190 191 191 193 181 185 187 191 191 191 189 191 188 184 192 188 191 191 183 188 189 191 192 186 185 191 190 185 193 185 186 186 186 191 187 189 186 191 189 190 188 183 186 183 188 179 185 187 184 184 181 183 186 182 172 177 197 180 171 170 204 179 168 180
168 165 163 166 171 162 169 172 168 164 170 168 169 172 170 170 169 179 176 182 174 177 173 174 176 170 175 174 170 174 175 172 173 172 168 169 171 174 174 177 174 180 181 174 182 179 179 180 183 182 176 182 177 182 177 184 177 181 181 181 176 176 186 180 179 175 180 182 174 176 180 181 177 185 178 178 179 180 185 177 179 180 177 176 171 176 175 178 180 182 173 173 180 174 175 175 175 177 179 179 173 187 182 179 182 176 174 180 170 180 169 173 173 166 181 162 164 170 172 170
163 165 163 168 160 168 158 161 160 167 165 168 165 167 168 169 170 171 172 174 170 168 167 174 168 162 169 168 166 172 178 175 171 172 171 169 171 166 169 171 171 174 173 172 173 176 174 165 173 172 175 169 171 171 178 174 173 173 173 173 171 171 177 175 176 175 173 173 176 172 174 176 174 172 172 175 179 184 172 174 170 174 172 173 169 175 177 167 176 171 169 173 167 169 169 172 169 170 163 177 177 178 176 172 181 176 176 173 178 169 171 173 171 180 174 171 185 177 169 194
158 153 172 167 167 163 162 161 157 154 163 159 164 164 164 164 159 167 170 166 162 165 167 168 162 168 163 160 164 165 166 167 165 165 161 163 163 166 158 161 161 166 167 168 167 167 172 164 164 168 163 168 165 165 170 166 164 170 169 172 166 162 167 166 168 168 163 167 170 167 165 163 165 166 165 163 168 168 172 168 163 161 171 163 165 167 169 161 168 167 166 165 164 163 165 166 162 162 168 165 162 165 163 171 165 164 167 167 159 163 163 174 173 171 169 172 178 169 179 178
143 149 153 148 146 153 147 151 153 158 147 152 154 150 155 149 156 165 149 154 161 156 151 154 153 152 151 164 157 158 158 160 156 160 151 155 155 158 154 162 154 159 160 158 157 159 161 156 156 160 155 157 161 162 156 153 158 158 159 159 163 163 158 161 161 157 160 158 158 156 163 159 157 159 157 163 166 164 160 157 156 156 157 156 163 155 157 157 158 159 157 156 154 158 156 158 158 150 152 157 153 155 156 160 152 153 156 155 157 158 153 167 144 162 155 146 158 147 164 137
137 146 146 144 145 142 145 148 150 147 149 153 147 146 153 152 148 147 145 155 156 148 160 151 154 152 153 150 150 147 153 148 146 146 151 150 152 150 149 151 153 147 153 155 152 155 147 153 155 155 147 152 154 152 149 150 152 158 155 155 156 149 151 154 145 152 147 156 153 154 151 157 151 156 154 153 161 160 159 152 152 153 158 141 149 153 151 151 156 153 152 150 154 153 157 155 148 148 154 157 153 160 161 158 151 147 152 149 151 150 159 156 151 147 162 145 155 144 188 141
136 137 142 133 139 139 134 137 140 134 140 145 140 140 139 139 144 139 140 150 144 142 144 150 143 141 147 143 142 138 139 144 144 140 143 141 144 147 147 145 146 147 149 143 147 144 141 141 144 144 143 143 149 142 148 145 143 144 150 145 148 146 142 147 145 144 148 145 146 143 144 142 145 146 146 149 154 150 152 149 141 144 138 144 140 141 146 144 150 146 148 148 147 144 151 146 144 144 153 149 143 148 148 135 144 143 142 146 145 145 141 144 147 144 139 155 133 133 139 135
133 137 132 132 135 141 141 137 136 138 140 0 132 137 134 139 140 140 138 140 143 141 142 140 142 145 145 139 139 129 142 126 130 137 131 128 140 130 142 128 144 145 145 138 140 131 142 125 129 140 141 142 135 143 130 142 146 144 144 131 133 132 130 143 143 126 145 144 146 141 141 133 143 133 141 140 141 139 141 144 146 130 129 128 140 145 139 140 140 141 127 140 142 142 144 139 139 144 141 139 142 146 137 143 140 133 134 137 142 141 133 137 127 132 131 129 138 126 127 147
131 127 126 134 133 138 145 133 132 135 125 133 138 135 137 133 129 137 139 132 141 141 139 138 139 136 140 139 136 122 125 139 128 129 127 125 127 132 127 126 139 140 131 129 0 133 126 132 125 124 127 129 130 133 0 142 0 132 127 129 133 126 133 131 129 127 140 127 143 139 129 123 122 129 126 127 143 129 130 128 137 139 126 129 126 126 139 125 128 138 126 139 137 138 139 127 139 141 140 145 125 123 125 138 134 125 121 135 129 130 134 138 129 141 129 143 128 138 125 131
113 103 123 106 124 130 132 123 116 109 121 120 119 132 125 123 119 131 121 121 120 126 129 134 126 138 141 138 0 130 125 124 117 122 120 118 125 129 125 120 128 129 124 129 0 0 127 127 138 123 119 119 123 129 122 127 133 131 128 122 128 119 128 122 124 128 128 128 120 124 123 124 125 121 120 123 123 131 123 125 131 123 137 122 115 126 115 125 125 121 127 126 135 134 120 121 126 137 136 128 130 118 119 116 113 116 117 116 120 117 118 131 141 145 121 125 128 129 104 75
107 113 110 112 110 129 124 117 131 119 120 119 120 121 125 119 110 125 122 124 121 122 122 121 123 123 127 125 126 123 128 0 125 122 116 113 119 120 0 119 131 125 0 0 0 0 120 125 127 122 127 123 124 123 120 124 122 125 122 121 125 123 118 126 123 128 129 126 123 122 120 117 126 116 123 122 122 121 127 119 123 116 119 122 118 123 123 120 126 125 117 120 118 125 118 120 134 125 117 116 123 120 123 117 106 122 122 115 118 133 126 134 116 127 134 118 129 114 109 153
108 99 111 118 115 110 113 120 111 109 117 117 115 114 114 112 119 112 113 125 120 113 113 119 113 115 121 121 117 121 122 0 119 116 113 111 116 0 113 117 122 0 0 121 126 0 121 121 115 117 117 120 120 118 120 120 122 122 117 118 120 121 124 123 119 118 123 116 117 114 117 124 112 115 114 113 117 118 118 124 112 114 110 118 114 114 119 123 115 118 117 117 123 118 107 119 126 120 112 116 122 120 115 110 117 113 130 116 112 119 112 125 130 133 130 138 136 125 104 137
96 103 109 101 100 105 113 110 98 108 109 109 110 108 119 116 114 110 99 103 116 108 112 104 109 110 116 113 116 117 115 115 108 115 112 109 108 118 113 113 117 114 113 106 114 114 116 0 117 0 115 112 118 115 0 0 108 110 117 113 125 117 107 116 105 109 107 110 117 109 116 111 110 103 107 109 106 113 106 115 113 109 105 107 112 107 114 112 112 115 110 106 100 118 115 114 111 112 109 105 109 111 118 105 107 108 105 105 108 118 112 112 108 111 99 115 106 102 94 130
111 102 110 114 104 107 111 107 109 106 114 115 109 109 113 116 112 110 115 102 110 99 100 100 113 113 114 112 103 111 109 109 110 107 114 113 116 0 106 108 110 107 108 107 105 101 108 111 114 0 114 111 108 113 109 114 104 111 110 111 104 108 114 0 118 109 107 113 109 111 110 104 106 113 101 103 104 104 103 108 109 105 108 113 96 107 100 112 107 105 107 110 104 104 101 107 113 112 113 108 101 114 109 113 105 103 105 107 96 116 113 94 108 112 120 111 110 113 148 146
93 87 106 105 97 93 96 96 93 95 104 99 98 102 105 106 98 100 111 96 101 101 94 100 102 102 106 98 100 104 110 103 100 101 104 99 102 105 102 104 107 106 96 92 99 103 106 100 104 100 106 103 106 106 102 108 98 106 104 101 104 107 103 0 109 100 0 112 102 106 103 104 100 106 102 109 98 102 0 101 0 104 99 100 98 104 99 97 101 102 105 102 94 94 94 92 95 96 100 95 100 104 97 99 101 96 96 92 96 87 98 92 95 103 95 97 98 111 89 119
91 83 81 91 90 93 97 88 96 94 99 95 98 95 99 94 93 97 107 93 96 94 87 91 94 95 103 99 104 102 103 108 104 101 102 99 98 101 103 97 101 103 101 96 99 103 103 100 105 103 107 99 99 101 94 96 101 108 100 97 106 100 109 101 108 103 105 106 108 98 99 99 103 98 98 99 105 99 97 99 0 101 93 91 98 97 97 112 94 95 99 97 98 99 94 99 95 96 94 107 98 94 94 88 95 101 99 91 93 94 85 85 104 85 87 116 96 82 92 94
95 96 93 96 90 91 94 87 85 95 91 94 96 86 89 86 91 90 99 102 102 95 81 90 95 87 94 96 88 97 97 95 102 96 97 103 96 93 93 106 95 95 91 95 100 92 98 97 94 97 101 96 86 92 93 96 92 92 96 98 95 95 99 0 98 101 99 91 97 95 95 99 105 98 86 104 96 97 100 104 96 100 88 108 96 96 92 88 95 92 88 97 95 82 89 86 92 87 101 91 90 96 98 95 96 95 92 77 87 95 87 85 96 87 95 89 104 91 100 85
84 81 79 89 88 82 89 91 85 90 81 92 93 87 93 90 86 90 82 93 92 94 95 95 90 88 98 90 91 94 90 91 98 96 86 90 86 94 92 89 86 84 87 94 98 97 89 88 91 95 96 94 94 96 98 99 93 91 96 92 91 93 89 96 93 89 90 91 99 97 86 90 92 89 98 94 98 88 92 95 96 88 94 92 86 87 96 95 90 92 89 89 96 92 91 92 93 87 90 87 87 88 83 82 85 92 86 80 91 90 84 81 77 89 85 89 82 86 75 87
93 82 80 81 92 90 90 98 85 92 86 91 85 91 91 87 91 90 90 86 92 97 91 93 91 86 94 94 89 87 96 92 97 91 100 84 92 89 92 97 89 93 90 94 98 95 93 93 90 92 101 90 97 94 94 93 95 88 89 97 93 90 92 92 92 93 91 101 93 90 90 89 98 90 98 98 92 94 86 94 99 95 94 93 96 95 96 93 89 91 94 98 100 89 94 90 87 81 89 96 92 90 92 95 89 96 91 81 87 86 89 96 88 89 95 84 107 148 0 0
83 88 87 84 90 88 87 86 85 0 82 82 91 82 90 91 91 88 85 87 93 94 90 97 93 92 89 86 91 96 89 86 90 93 92 87 94 94 93 92 86 89 97 86 97 90 93 97 91 87 91 97 88 89 92 94 88 92 96 99 94 98 88 91 91 99 98 93 95 94 98 84 97 97 91 90 85 95 97 89 88 95 89 91 96 94 94 94 103 87 88 100 100 88 88 90 92 91 90 92 81 81 91 88 81 86 89 91 91 82 87 91 99 78 86 83 100 77 107 0
80 85 78 85 88 92 91 89 86 77 82 82 91 88 85 90 81 89 82 93 89 92 91 83 85 88 89 88 90 89 90 87 92 92 88 92 88 89 89 91 90 90 94 90 87 91 96 95 91 90 97 93 94 88 95 87 94 93 96 94 90 96 97 89 87 91 87 90 94 90 90 88 98 97 90 86 93 93 95 93 96 90 91 93 86 92 96 87 91 89 92 90 84 87 84 84 88 86 89 92 84 83 94 92 86 90 90 88 75 84 74 92 81 115 78 84 96 83 0 0
75 76 77 76 86 86 89 94 79 89 83 77 84 83 89 84 83 86 90 92 89 87 87 87 81 81 86 90 89 85 91 83 89 90 93 88 92 90 86 93 94 85 89 89 95 91 94 92 91 95 96 89 83 80 88 94 90 97 82 97 92 95 88 86 90 83 88 85 87 96 92 90 92 88 95 88 91 93 97 90 93 93 91 86 95 89 87 89 92 88 89 94 81 85 88 84 87 83 90 90 84 91 81 87 88 90 82 90 89 72 81 90 83 92 90 94 0 0 0 0
79 63 62 61 79 81 82 82 84 76 81 76 79 91 81 78 82 77 77 75 91 80 80 71 77 71 79 82 77 74 88 75 87 85 85 77 76 79 84 82 88 81 78 74 81 85 80 84 88 79 85 77 76 84 78 78 82 86 86 79 85 80 81 82 85 77 74 81 74 74 85 84 83 78 77 76 78 85 88 85 78 82 70 75 77 88 80 82 78 84 81 74 82 77 79 73 72 85 71 86 68 72 71 59 69 69 77 75 70 86 84 75 81 56 82 77 0 0 0 0
67 64 74 82 67 79 86 87 79 78 80 84 73 75 73 80 80 82 72 78 75 77 75 78 85 88 82 68 79 79 84 77 81 78 82 64 77 75 82 79 91 83 82 84 80 88 81 81 80 79 82 74 75 79 81 85 77 79 89 71 82 80 79 79 78 73 82 76 91 72 75 83 82 80 84 78 86 85 84 82 82 80 77 83 70 84 73 70 88 79 77 81 75 77 86 76 87 75 71 67 83 73 66 66 65 79 72 78 66 64 74 57 55 84 47 0 0 0 0 0
