0 0 0 0 0 0 0 0 0 0 0 0 0 0 0 0 0 0 0 0 0 0 0 0 0 0 0 0 0 0 0 0 0 0 0 0 0 0 0 0 0 0 0 0 0 0 0 0 0 0 0 0 0 0 0 0 0 0 0 0 0 0 0 0 0 0 0 0 0 0 0 0 0 0 0 0 0 0 0 0 0 0 0 0 0 0 0 0 0 0 0 0 0 0 0 0 0 0 0 0 0 0 0 0 0 0 0 0 0 0 0 0 0 0 0 0 0 0 0 0
0 0 0 0 0 0 0 0 0 0 0 0 0 0 0 0 0 0 0 0 0 0 0 0 0 0 0 0 0 0 0 0 0 0 0 0 0 0 0 0 0 0 0 0 0 0 0 0 0 0 0 0 0 0 0 0 0 0 0 0 0 0 0 0 0 0 0 0 0 0 0 0 0 0 0 0 0 0 0 0 0 0 0 0 0 0 0 0 0 0 0 0 0 0 0 0 0 0 0 0 0 0 0 0 0 0 0 0 0 0 0 0 0 0 0 0 0 0 0 0
0 0 0 0 0 0 0 0 0 0 0 0 0 0 0 0 1272 1306 0 0 0 0 1254 0 0 0 0 0 0 0 0 0 0 0 0 0 0 0 0 0 0 0 0 0 0 0 0 0 0 0 0 0 0 0 0 0 0 0 0 0 0 0 0 0 0 0 0 0 0 0 0 0 0 0 0 0 0 0 0 0 0 0 0 0 0 0 0 0 0 0 0 0 0 0 0 0 0 0 0 0 0 0 0 0 0 0 0 0 0 0 0 0 0 0 0 0 0 0 0 0
0 0 0 0 0 0 0 0 0 0 0 1135 1149 1149 1160 0 1290 1307 1296 0 0 0 1246 0 0 0 0 0 0 0 0 0 0 0 0 0 0 0 0 0 0 0 0 0 0 0 0 0 0 0 0 0 0 0 0 0 0 0 0 0 0 0 0 0 0 0 0 0 0 0 0 0 0 0 0 0 0 0 0 0 0 0 0 0 0 0 0 0 0 0 0 0 0 0 0 0 0 0 0 0 0 0 0 0 0 0 0 0 0 0 0 0 0 0 0 0 0 0 0 0
0 0 0 0 0 0 0 0 1133 1157 0 1146 1145 1168 1196 0 1301 1310 1323 0 1250 1260 1256 0 0 0 0 0 0 0 0 0 0 0 0 0 0 0 0 0 0 0 0 0 0 0 0 0 0 0 0 0 0 0 0 0 0 0 0 0 0 0 0 0 0 0 0 0 0 0 0 0 0 0 0 0 0 0 0 0 0 0 0 0 0 0 0 0 0 0 0 0 0 0 0 0 0 0 0 0 0 0 0 0 0 0 0 0 0 0 0 0 0 0 0 0 0 0 0 0
0 0 0 0 0 0 0 1143 1113 1142 0 0 1168 1169 1213 1222 1300 1272 1297 1325 1266 1261 1296 1294 0 0 0 0 0 0 0 0 0 0 0 0 0 0 0 0 0 0 0 0 0 0 0 0 0 0 0 0 0 0 0 0 0 0 0 0 0 0 0 0 0 0 0 0 0 0 0 0 0 0 0 0 0 0 0 0 0 0 0 0 0 0 0 0 0 0 0 0 0 0 0 0 0 0 0 0 0 0 0 0 0 0 0 0 0 0 0 0 0 0 0 0 0 0 0 0
0 0 0 0 0 0 0 0 0 0 0 0 1248 1258 1251 1288 1275 1289 1290 1262 1275 1282 1284 1280 0 0 0 0 0 0 0 1402 0 0 0 0 0 0 0 0 0 0 0 0 0 0 0 0 0 0 0 0 0 0 0 0 0 0 0 0 0 0 0 0 0 0 0 0 0 0 0 0 0 0 0 0 0 0 0 0 0 0 0 0 0 0 0 0 0 0 0 0 0 0 0 0 0 0 0 0 0 0 0 0 0 0 0 0 0 0 0 0 0 0 0 0 0 0 0 0
0 0 0 0 0 0 0 0 0 0 0 0 1256 1262 1294 1258 1259 1259 1259 1217 1266 1260 1272 1234 0 1275 1339 1325 1324 1323 0 1362 0 0 0 0 0 0 0 0 0 0 0 0 0 0 0 0 0 0 0 0 0 0 0 0 0 0 0 0 0 0 0 0 0 0 0 0 0 0 0 0 0 0 0 0 0 0 0 0 0 0 0 0 0 0 0 0 0 0 0 0 0 0 0 0 0 0 0 0 0 0 0 0 0 0 0 0 0 0 0 0 0 0 0 0 0 0 0 0
0 0 0 0 0 0 0 0 0 0 0 0 1263 1270 1275 1247 1278 1272 1282 1275 1249 1251 1281 1265 0 0 1288 1341 1329 1360 1344 1427 0 0 0 0 0 0 0 0 0 0 0 0 0 0 0 0 0 0 0 0 0 0 0 0 0 0 0 0 0 0 0 0 0 0 0 0 0 0 0 0 0 0 0 0 0 0 0 0 0 0 0 0 0 0 0 0 0 0 0 0 0 0 0 0 0 0 0 0 0 0 0 0 0 0 0 0 0 0 0 0 0 0 0 0 0 0 0 0
0 0 0 0 0 0 0 0 0 0 0 0 0 1304 1276 1272 1261 1278 1257 1260 1248 1236 1253 1252 1288 0 0 1326 1339 1367 1384 1380 1361 0 0 0 0 0 0 0 0 0 0 0 0 0 0 0 0 0 0 0 0 0 0 0 0 0 0 0 0 0 0 0 0 0 0 0 0 0 0 0 0 0 0 0 0 0 0 0 0 0 0 0 0 0 0 0 0 0 0 0 0 0 0 0 0 0 0 0 0 0 0 0 0 0 0 0 0 0 0 0 0 0 0 0 0 0 0 0
0 0 0 0 0 0 0 0 0 0 0 0 0 0 0 0 0 0 0 0 0 1239 1250 1246 1266 0 0 1365 1324 1361 1328 1398 1421 0 0 0 0 0 0 0 0 0 0 0 0 0 0 0 0 0 0 0 0 0 0 0 0 0 0 0 0 0 0 0 0 0 0 0 0 0 0 0 0 0 0 0 0 0 0 0 0 0 0 0 0 0 0 0 0 0 0 0 0 0 0 0 0 0 0 0 0 0 0 0 0 0 0 0 0 0 0 0 0 0 0 0 0 0 0 0
0 0 0 0 0 0 0 0 0 0 0 0 0 0 0 0 0 0 0 0 0 0 0 1372 1310 0 0 0 1330 1346 1352 1430 1456 0 0 0 0 0 0 0 0 0 0 0 0 0 0 0 0 0 0 0 0 0 0 0 0 0 0 0 0 0 0 0 0 0 0 0 0 0 0 0 0 0 0 0 0 0 0 0 0 0 0 0 0 0 0 0 0 0 0 0 0 0 0 0 0 0 0 0 0 0 0 0 0 0 0 0 0 0 0 0 0 0 0 0 0 0 0 0
0 0 0 0 0 0 0 0 0 0 0 0 0 0 0 0 0 0 0 0 0 0 0 1426 1381 1336 1334 1345 1360 1325 1399 1439 1464 0 0 0 0 0 0 0 0 0 0 0 0 0 0 0 0 0 0 0 0 0 0 0 0 0 0 0 0 0 0 0 0 0 0 0 0 0 0 0 0 0 0 0 0 0 0 0 0 0 0 0 0 0 0 0 0 0 0 0 0 0 0 0 0 0 0 0 0 0 0 0 0 0 0 0 0 0 0 0 0 0 0 0 0 0 0 0
0 0 0 0 0 0 0 0 0 0 0 0 0 0 0 0 0 0 0 0 0 0 0 1429 1399 1371 1341 1339 1356 1341 1386 1395 1449 0 0 0 0 0 0 0 0 0 0 0 0 0 0 0 0 0 0 0 0 0 0 0 0 0 0 0 0 0 0 0 0 0 0 0 0 0 0 0 0 0 0 0 0 0 0 0 0 0 0 0 0 0 0 0 0 0 0 0 0 0 0 0 0 0 0 0 0 0 0 0 0 0 0 0 0 0 0 0 0 0 0 0 0 0 0 0
0 0 0 0 0 0 0 0 0 0 0 0 0 0 0 0 0 0 0 0 0 0 0 1379 1382 1372 1377 1342 1318 1336 1358 1397 1409 0 0 0 0 0 0 0 0 0 0 0 0 0 0 0 0 0 0 0 0 0 0 0 0 0 0 0 0 0 0 0 0 0 0 0 0 0 0 0 0 0 0 0 0 0 0 0 0 0 0 0 0 0 0 0 0 0 0 0 0 0 0 0 0 0 0 0 0 0 0 0 0 0 0 0 0 0 0 0 0 0 0 0 0 0 0 0
0 0 0 0 0 0 0 0 0 0 0 0 0 0 0 0 0 0 0 0 0 0 0 0 1339 1364 1370 1369 1374 1313 1328 1410 1419 0 0 0 0 0 0 0 0 0 0 0 0 0 0 0 0 0 0 0 0 0 0 0 0 0 0 0 0 0 0 0 0 0 0 0 0 0 0 0 0 0 0 0 0 0 0 0 0 0 0 0 0 0 0 0 0 0 0 0 0 0 0 0 0 0 0 0 0 0 0 0 0 0 0 0 0 0 0 0 0 0 0 0 0 0 0 0
1218 1256 1268 1275 1265 1309 1325 0 0 0 0 0 0 0 0 0 0 0 0 0 0 0 0 0 1379 1369 1378 1369 1373 1365 1367 1412 1402 0 0 0 0 0 0 0 0 0 0 0 0 0 0 0 0 0 0 0 0 0 0 0 0 0 0 0 0 0 0 0 0 0 0 0 0 0 0 0 0 0 0 0 0 0 0 0 0 0 0 0 0 0 0 0 0 0 0 0 0 0 0 0 0 0 0 0 0 0 0 0 0 0 0 0 0 0 0 0 0 0 0 0 0 0 0 0
1239 1228 1252 1276 1287 1283 1296 1302 1321 1339 1328 0 0 0 0 0 0 0 0 0 0 0 0 1365 1338 1344 1373 1363 1363 1344 1387 1398 1423 0 0 0 0 0 0 0 0 0 0 0 0 0 0 0 0 0 0 0 0 0 0 0 0 0 0 0 0 0 0 0 0 0 0 0 0 0 0 0 0 0 0 0 0 0 0 0 0 0 0 0 0 0 0 0 0 0 0 0 0 0 0 0 0 0 0 0 0 0 0 0 0 0 0 0 0 0 0 0 0 0 0 0 0 0 0 0
1254 1234 1265 1275 1283 1310 1299 1309 1323 1333 1329 1336 1382 1399 1378 1368 1439 0 0 0 0 0 0 0 0 1371 1379 1345 1396 0 0 1416 1434 0 0 0 0 0 0 0 0 0 0 0 0 0 0 0 0 0 0 0 0 0 0 0 0 0 0 0 0 0 0 0 0 0 0 0 0 0 0 0 0 0 0 0 0 0 0 0 0 0 0 0 0 0 0 0 0 0 0 0 0 0 0 0 0 0 0 0 0 0 0 0 0 0 0 0 0 0 0 0 0 0 0 0 0 0 0 0
0 0 0 0 1293 1324 1298 1304 1325 1331 1327 1348 1362 1371 1384 1390 1432 1433 1435 1445 0 0 0 0 0 0 0 0 0 0 0 1442 1435 1469 0 0 0 0 0 0 0 0 0 0 0 0 0 0 0 0 0 0 0 0 0 0 0 0 0 0 0 0 0 0 0 0 0 0 0 0 0 0 0 0 0 0 0 0 0 0 0 0 0 0 0 0 0 0 0 0 0 0 0 0 0 0 0 0 0 0 0 0 0 0 0 0 0 0 0 0 0 0 0 0 0 0 0 0 0 0
0 0 0 0 0 0 0 0 0 1372 1343 1350 1333 1381 1376 1395 1405 1431 1434 1427 1463 1451 0 0 0 0 0 0 0 0 0 1474 1473 1460 0 0 0 0 0 0 0 0 0 0 0 0 0 0 0 0 0 0 0 0 0 0 0 0 0 0 0 0 0 0 0 0 0 0 0 0 0 0 0 0 0 0 0 0 0 0 0 0 0 0 0 0 0 0 0 0 0 0 0 0 0 0 0 0 0 0 0 0 0 0 0 0 0 0 0 0 0 0 0 0 0 0 0 0 0 0
0 0 0 0 0 0 0 0 0 0 0 0 0 0 1375 1385 1403 1411 1440 1436 1447 1466 0 0 0 0 0 0 0 0 0 0 1502 0 0 0 0 0 0 0 0 0 0 0 0 0 0 0 0 0 0 0 0 0 0 0 0 0 0 0 0 0 0 0 0 0 0 0 0 0 0 0 0 0 0 0 0 0 0 0 0 0 0 0 0 0 0 0 0 0 0 0 0 0 0 0 0 0 0 0 0 0 0 0 0 0 0 0 0 0 0 0 0 0 0 0 0 0 0 0
0 0 0 0 0 0 0 0 0 0 0 0 0 0 0 0 0 0 0 0 0 1484 0 0 0 0 0 0 0 0 0 0 0 0 0 0 0 0 0 0 0 0 0 0 0 0 0 0 0 0 0 0 0 0 0 0 0 0 0 0 0 0 0 0 0 0 0 0 0 0 0 0 0 0 0 0 0 0 0 0 0 0 0 0 0 0 0 0 0 0 0 0 0 0 0 0 0 0 0 0 0 0 0 0 0 0 1760 0 0 0 0 0 0 0 0 0 0 0 0 0
0 0 0 0 0 0 0 0 0 0 0 0 0 0 0 0 0 0 0 0 0 0 0 0 0 0 0 0 0 0 0 0 0 0 0 0 0 0 0 0 0 0 0 0 0 0 0 0 0 0 0 0 0 0 0 0 0 0 0 0 0 0 0 0 0 0 0 0 0 0 0 0 0 0 0 0 0 0 0 0 0 0 0 0 0 0 0 0 0 0 0 0 0 0 0 0 0 0 0 0 0 0 0 0 0 0 0 1648 1597 1602 1617 1608 1555 1568 1540 0 0 0 0 0
0 0 0 0 0 0 0 0 0 0 0 0 0 0 0 0 0 0 0 0 0 0 0 0 0 0 0 0 0 0 0 0 0 0 0 0 0 0 0 0 0 0 0 0 0 0 0 0 0 0 0 0 0 0 0 0 0 0 0 0 0 0 0 0 0 0 0 0 0 0 0 0 0 0 0 0 0 0 0 0 0 0 0 0 0 0 0 0 0 0 0 0 0 0 0 0 0 0 0 1656 1687 1641 1660 1649 1652 1648 1616 1608 1600 1600 1529 1562 1547 1589 1574 1510 0 0 0 0
0 0 0 0 0 0 0 0 0 0 0 0 0 0 0 0 0 0 0 0 0 0 0 0 0 0 0 0 0 0 0 0 0 0 0 0 0 0 0 0 0 0 0 0 0 0 0 0 0 0 0 0 0 0 0 0 0 0 0 0 0 0 0 0 0 0 0 0 0 0 0 0 0 0 0 0 0 0 0 0 0 0 0 0 0 0 0 0 0 0 0 1819 1819 1789 1790 1754 1735 1680 1690 1693 1692 1645 1644 1643 1654 1630 1609 1625 1622 1600 1589 0 0 0 0 0 0 0 0 0
576 551 0 0 0 0 0 0 0 0 0 0 0 0 0 0 0 0 0 0 0 0 0 0 0 1861 1877 0 0 0 0 0 0 0 0 0 0 0 0 0 0 0 0 0 0 0 0 2901 2962 2939 2938 2944 2909 2886 2876 2905 2861 2915 2901 2935 2922 2928 2930 2880 2870 2899 0 0 0 0 0 0 0 0 0 0 0 0 0 0 0 0 0 0 0 0 0 0 0 0 0 1756 1753 1723 1732 1714 1731 1714 1676 1697 1662 1671 1577 1633 1652 0 0 0 0 0 0 0 0 0 0 0 0 0 0 0
571 591 600 605 614 682 0 0 0 0 0 0 0 0 0 0 0 0 0 0 0 0 0 0 0 0 1913 1908 1911 0 0 0 0 0 0 0 0 0 0 0 0 0 0 0 0 0 0 2915 2883 2918 2880 2895 2909 2877 2861 2899 2887 2901 2872 2903 2885 2895 2887 2841 2918 2887 0 0 0 0 0 0 0 0 0 0 0 0 0 0 0 0 0 0 0 0 0 0 0 0 0 1790 1766 1779 1751 0 0 0 0 0 0 0 0 0 0 0 0 0 0 0 0 0 0 0 0 0 0 0 0 0
565 602 592 617 637 632 649 666 656 0 0 0 0 0 0 0 0 0 0 0 0 0 0 0 0 0 0 0 0 0 0 0 0 0 0 0 0 0 0 0 0 0 0 0 0 0 0 2936 2912 2879 2851 2902 2886 2893 2911 2884 2911 2904 2889 2866 2908 2875 2853 2873 2855 0 0 0 0 0 0 0 0 0 0 0 0 0 0 0 0 0 0 0 0 0 0 0 0 0 0 0 0 0 0 0 0 0 0 0 0 0 0 0 0 0 0 0 0 0 0 0 0 0 0 0 0 0 0 0
591 615 605 596 646 641 649 635 657 667 696 737 0 0 0 0 0 0 0 0 0 0 0 0 0 0 0 0 0 0 0 0 0 0 0 0 0 0 0 0 0 0 0 0 0 0 0 2900 2882 2875 2912 2868 2876 2861 2846 2878 2919 2851 2886 2870 2887 2866 2863 2825 2877 2842 0 0 0 0 0 0 0 0 0 0 0 0 0 0 0 0 0 0 0 0 0 0 0 0 0 0 0 0 0 0 0 0 0 0 0 0 0 0 0 0 0 0 0 0 0 0 0 0 0 0 0 0 0 0
573 575 579 596 615 643 628 655 674 684 688 712 723 730 774 0 0 0 0 0 0 0 0 0 0 0 0 0 0 0 0 0 0 0 0 0 0 0 0 0 0 0 0 0 0 0 0 2946 2941 2918 2906 2932 2950 2921 2916 2898 2919 2903 2860 2942 2929 2883 2937 2915 2894 2860 0 0 0 0 0 0 0 0 0 0 0 0 0 0 0 0 0 0 0 0 0 0 0 0 0 0 0 0 0 0 0 0 0 0 0 0 0 0 0 0 0 0 0 0 0 0 0 0 0 0 0 0 0 0
751 761 733 737 713 664 661 661 647 678 660 696 710 717 728 732 745 744 0 0 0 0 0 0 0 0 0 0 0 0 0 0 0 0 0 0 0 0 0 0 0 0 0 0 0 0 0 2935 2943 2928 2930 2872 2918 2910 2963 2873 2964 2927 2956 2949 2912 2900 2894 2918 2912 0 0 0 0 0 0 0 0 0 0 0 0 0 0 0 0 0 0 0 0 0 0 0 0 0 0 0 0 0 0 0 0 0 0 0 0 0 0 0 0 0 0 0 0 0 0 0 0 0 0 0 0 0 0 0
773 790 802 813 811 835 853 819 823 797 744 710 707 748 753 753 764 759 787 807 849 0 0 0 0 0 0 0 0 0 0 0 0 0 0 0 0 0 0 0 0 0 0 0 0 0 0 2956 2945 2976 2919 2927 2892 2973 2880 2947 2925 2913 2918 2920 2904 2899 2914 2881 2917 2848 0 0 0 0 0 0 0 0 0 0 0 0 0 0 0 0 0 0 0 0 0 0 0 0 0 0 0 0 0 0 0 0 0 0 0 0 0 0 0 0 0 0 0 0 0 0 0 0 0 0 0 0 0 0
727 779 810 821 832 828 853 861 888 890 892 914 934 896 842 786 775 784 794 799 791 849 872 855 0 0 0 0 0 0 0 0 0 0 0 0 0 0 0 0 0 0 0 0 0 0 0 2914 2948 2887 2946 2940 2928 2982 2952 2977 2955 2913 2948 2950 2935 2872 2890 2913 2889 2899 0 0 0 0 0 0 0 0 0 0 0 0 0 0 0 0 0 0 0 0 0 0 0 0 0 0 0 0 0 0 0 0 0 0 0 0 0 0 0 0 0 0 0 0 0 0 0 0 0 0 0 0 0 0
578 0 814 825 830 856 850 896 898 907 927 955 940 945 946 936 938 917 895 865 823 854 854 874 879 937 0 0 0 0 0 0 0 0 0 0 0 0 0 0 0 0 0 0 0 0 0 2911 2902 2946 2939 2938 2917 2949 2936 2957 2898 2902 2887 2912 2895 2909 2873 2883 2924 2910 0 0 0 0 0 0 0 0 0 0 0 0 0 0 0 0 0 0 0 0 0 0 0 0 0 0 0 0 0 0 0 0 0 0 0 0 0 0 0 0 0 0 0 0 0 0 0 0 0 0 0 0 0 0
660 933 956 941 942 969 919 945 931 922 951 935 950 950 955 950 955 948 947 939 953 928 919 921 926 978 961 1012 1020 0 0 0 0 0 0 0 0 0 0 0 0 0 0 0 0 0 0 2903 2875 2879 2873 2884 2852 2872 2845 2886 2861 2892 2841 2864 2869 2852 2861 2855 2854 2848 0 0 0 0 0 0 0 0 0 0 0 0 0 0 0 0 0 0 0 0 0 0 0 0 0 0 0 0 0 0 0 0 0 0 0 0 0 0 0 0 0 0 0 0 0 0 0 0 0 0 0 0 0 0
573 717 0 0 0 0 0 0 0 0 999 973 962 982 960 971 970 950 954 954 963 958 956 946 948 951 955 1006 1042 1053 1099 0 0 0 0 0 0 0 0 0 0 0 0 0 0 0 0 2879 2968 2867 2921 2858 2921 2862 2869 2901 2860 2910 2920 2915 2919 2914 2887 2919 2896 0 0 0 0 0 0 0 0 0 0 0 0 0 0 0 0 0 0 0 0 0 0 0 0 0 0 0 0 0 0 0 0 0 0 0 0 0 0 0 0 0 0 0 0 0 0 0 0 0 0 0 0 0 0 0
576 614 660 0 1118 1160 1134 1157 1145 1150 1144 1145 1141 1139 1145 1145 1113 1045 0 0 1016 1083 1053 1023 1017 1026 1113 1129 1111 1083 1053 0 0 0 0 0 0 0 0 0 0 0 0 0 0 0 0 2938 2903 2873 2897 2908 2866 2851 2883 2884 2902 2917 2883 2876 2896 2868 2920 2814 2885 2883 0 0 0 0 0 0 0 0 0 0 0 0 0 0 0 0 0 0 0 0 0 0 0 0 0 0 0 0 0 0 0 0 0 0 0 0 0 0 0 0 0 0 0 0 0 0 0 0 0 0 0 0 0 0
582 586 592 638 0 0 0 0 0 0 0 0 0 0 0 0 1465 1014 985 0 0 1187 1103 0 0 1141 1173 1167 1156 1171 1135 0 0 0 0 0 0 0 0 0 0 0 0 0 0 0 0 2936 2904 2912 2843 2887 2881 2890 2878 2857 2915 2873 2935 2880 2885 2887 2910 2894 2851 2823 0 0 0 0 0 0 0 0 0 0 0 0 0 0 0 0 0 0 0 0 0 0 0 0 0 0 0 0 0 0 0 0 0 0 0 0 0 0 0 0 0 0 0 0 0 0 0 0 0 0 0 0 0 0
562 582 586 593 568 0 0 0 0 0 0 0 0 0 0 0 0 932 981 0 0 0 0 0 0 0 0 0 0 0 0 0 0 0 0 0 0 0 0 0 0 0 0 0 0 0 0 2944 2950 2960 2936 2966 2952 2948 2940 2908 2890 2922 2969 2878 2914 2919 2932 2924 2912 0 0 0 0 0 0 0 0 0 0 0 0 0 0 0 0 0 0 0 0 0 0 0 0 0 0 0 0 0 0 0 0 0 0 0 0 0 0 0 0 0 0 0 0 0 0 0 0 0 0 0 0 0 0 0
547 588 590 603 601 618 0 0 0 0 0 0 0 0 0 0 0 0 0 0 0 0 0 0 0 0 0 0 0 0 0 0 0 0 0 0 0 0 0 0 0 0 0 0 0 0 0 2910 2934 2924 2917 2935 2913 2928 2883 2915 2878 2917 2898 2898 2910 2904 2936 2926 2934 0 0 0 0 0 0 0 0 0 0 0 0 0 0 0 0 0 0 0 0 0 0 0 0 0 0 0 0 0 0 0 0 0 0 0 0 0 0 0 0 0 0 0 0 0 0 0 0 0 0 0 0 0 0 0
585 587 578 602 605 619 0 0 0 0 0 0 0 0 0 0 0 0 0 0 0 0 961 0 0 0 0 0 0 0 0 0 0 0 0 0 0 0 0 0 0 0 0 0 0 0 0 2940 2928 2933 2912 2940 2921 2937 2940 2980 2914 2932 2945 2919 2915 2932 2938 2869 2930 0 0 0 0 0 0 0 0 0 0 0 0 0 0 0 0 0 0 0 0 0 0 0 0 0 0 0 0 0 0 0 0 0 0 0 0 0 0 0 0 0 0 0 0 0 0 0 0 0 0 0 0 0 0 0
579 579 553 604 598 581 0 0 0 0 0 0 0 0 0 0 0 0 0 0 0 0 927 0 0 0 0 0 0 0 0 0 0 0 0 0 0 0 0 0 0 0 0 0 0 0 0 2938 2907 2944 2962 2893 2919 2930 2889 2978 3001 2887 2896 2925 2923 2899 2910 2923 2888 0 0 0 0 0 0 0 0 0 0 0 0 0 0 0 0 0 0 0 0 0 0 0 0 0 0 0 0 0 0 0 0 0 0 0 0 0 0 0 0 0 0 0 0 0 0 0 0 0 0 0 0 0 0 0
582 581 602 641 593 602 612 0 0 0 0 0 0 0 0 0 0 0 0 0 0 0 943 0 0 0 0 0 0 0 0 0 0 0 0 0 0 0 0 0 0 0 0 0 0 0 0 2870 2849 2906 2915 2932 2847 2810 2870 2905 2885 2869 2900 2846 2871 2896 2876 2867 2851 0 0 0 0 0 0 0 0 0 0 0 0 0 0 0 0 0 0 0 0 0 0 0 0 0 0 0 0 0 0 0 0 0 0 0 0 0 0 0 0 0 0 0 0 0 1875 0 0 0 0 0 0 0 0 0
570 588 602 570 593 593 621 0 0 0 0 0 0 0 0 0 2332 0 0 0 0 0 961 981 0 0 0 0 0 0 0 0 0 0 0 0 0 0 0 0 0 0 0 0 0 0 0 2899 2876 2875 2898 2931 2881 2912 2939 2877 2919 2908 2876 2854 2908 2843 2847 2870 2900 2925 0 0 0 0 0 0 0 0 0 0 0 0 0 0 0 0 0 0 0 0 0 0 0 0 0 0 0 0 0 0 0 0 0 0 0 0 0 0 0 0 0 0 0 0 1975 0 0 0 0 0 0 0 0 0
577 602 628 613 621 641 619 0 0 0 0 0 0 0 0 0 0 0 0 0 0 0 0 0 0 0 0 0 0 0 0 0 0 0 0 0 0 0 0 0 0 0 0 0 0 0 0 2921 2910 2867 2892 2916 2935 2875 2910 2921 2899 2903 2878 2867 2873 2864 2884 2864 2886 2873 0 0 0 0 0 0 0 0 0 0 0 0 0 0 0 0 0 0 0 0 0 0 0 0 0 0 0 0 0 0 0 0 0 0 0 0 0 0 0 0 0 0 0 0 0 0 0 0 0 0 0 0 0 0
592 585 584 609 591 583 0 0 0 0 0 0 0 0 0 0 0 0 0 0 0 0 0 0 0 0 0 0 0 0 0 0 0 0 0 0 0 0 0 0 0 0 0 0 0 0 0 0 0 0 0 0 0 0 0 0 0 0 0 0 0 0 2985 2837 2893 0 0 0 0 0 0 0 0 0 0 0 0 0 0 0 0 0 0 0 0 0 0 0 0 0 0 0 0 0 0 0 0 0 0 0 0 0 0 0 0 0 0 0 0 0 0 0 0 0 0 0 0 0 0 0
601 580 580 590 588 629 0 0 0 0 0 0 0 0 0 0 0 0 0 0 0 0 0 0 0 0 0 0 0 0 0 0 0 0 0 0 0 0 0 0 0 0 0 0 0 0 0 0 0 0 0 0 0 0 0 0 0 0 0 0 0 0 0 0 0 0 0 0 0 0 0 0 0 0 0 0 0 0 0 0 0 0 0 0 0 0 0 0 0 0 0 0 0 0 0 0 0 0 0 0 0 0 0 0 0 0 0 0 0 0 0 0 0 0 0 0 0 0 0 0
588 607 586 605 595 620 0 0 0 0 0 0 0 0 0 0 0 0 0 0 0 0 0 0 0 0 0 0 0 0 0 0 0 0 0 0 0 0 0 0 0 0 0 0 0 0 0 0 0 0 0 0 0 0 0 0 0 0 0 0 0 0 0 0 0 0 0 0 0 0 0 0 0 0 0 0 0 0 0 0 0 0 0 0 0 0 0 0 0 0 0 0 0 0 0 0 0 0 0 0 0 0 0 0 0 0 0 0 0 0 0 0 0 0 0 0 0 0 0 0
584 579 588 569 585 0 0 0 0 0 0 0 0 0 0 0 0 0 0 0 0 0 0 0 0 0 0 0 0 0 0 0 0 0 0 0 0 0 0 0 0 0 0 0 0 0 0 0 0 0 0 0 0 0 0 0 0 0 0 0 0 0 0 0 0 0 0 0 0 0 0 0 0 0 0 0 0 0 0 0 0 0 0 0 0 0 0 0 0 0 0 0 0 0 0 0 0 0 0 0 0 0 0 0 0 0 0 0 0 0 0 0 0 0 0 0 0 0 0 0
580 580 584 548 0 0 0 0 0 0 0 0 0 0 0 0 0 0 0 0 0 0 0 0 0 0 846 887 880 903 892 927 918 921 860 924 0 852 905 887 904 925 0 0 0 0 946 0 0 0 0 0 0 0 0 0 0 0 0 0 0 0 0 0 0 0 0 0 0 0 0 0 0 0 0 0 0 0 0 0 0 0 0 0 0 0 0 0 0 0 0 0 0 0 0 0 0 0 0 0 0 0 0 0 0 0 0 0 0 0 0 0 0 0 0 0 0 0 0 0
600 584 650 0 0 0 756 730 731 734 715 721 741 736 733 703 723 700 722 718 730 748 720 768 716 758 779 813 749 731 767 745 767 763 738 790 759 755 745 769 787 765 810 801 792 753 803 759 809 803 801 803 803 785 790 839 797 805 800 821 775 809 802 808 788 815 857 805 778 821 846 795 832 0 0 801 0 0 0 807 0 0 0 0 0 0 0 0 0 0 0 0 0 0 0 0 0 0 0 0 0 0 0 0 0 0 0 0 0 0 0 0 0 0 0 0 0 0 0 0
554 588 568 563 590 583 597 600 574 615 576 596 586 635 588 620 590 583 627 594 601 607 579 607 615 588 616 601 621 637 589 629 621 642 616 580 641 630 602 612 637 620 607 627 616 611 630 622 641 667 636 654 637 631 643 654 631 646 642 642 649 625 672 686 656 683 653 657 670 698 708 711 687 710 678 652 651 682 709 688 669 709 690 702 677 684 729 729 660 699 732 689 732 732 0 0 706 698 736 0 745 738 0 0 0 0 0 0 0 0 0 0 0 0 0 0 0 0 0 0
484 510 530 481 512 473 496 483 499 497 504 511 524 497 498 520 468 486 500 511 508 505 503 502 488 512 513 518 506 521 508 510 503 506 524 530 527 499 520 504 506 527 514 521 525 531 519 515 527 509 526 530 541 554 527 530 537 530 551 533 538 552 554 544 560 553 583 573 537 568 562 550 545 547 530 556 571 527 549 546 546 565 573 573 588 603 549 601 603 561 621 567 594 569 590 590 569 561 625 610 594 563 607 643 0 620 0 582 631 587 0 0 0 0 0 0 0 0 0 0
422 429 437 439 433 450 439 432 453 433 440 444 439 466 446 445 439 456 457 437 473 453 453 445 450 454 443 449 446 459 461 456 461 456 455 475 457 459 465 459 468 465 450 474 487 473 464 464 489 472 470 474 473 460 472 461 477 473 481 469 479 486 488 483 463 491 486 469 494 473 502 473 498 488 474 478 488 477 495 483 490 491 472 486 498 469 494 477 510 491 517 522 494 480 511 482 510 498 491 523 508 527 494 539 504 517 551 470 510 507 460 501 0 0 0 0 0 0 0 0
394 384 384 374 373 400 391 411 392 375 399 393 394 396 395 395 391 394 402 391 392 402 401 393 412 398 407 408 406 409 410 412 406 414 409 405 415 411 407 416 407 406 416 416 416 408 411 413 424 407 431 427 424 417 420 408 412 425 425 409 425 418 408 414 412 428 415 438 422 432 428 442 419 426 429 409 426 426 425 426 441 431 445 419 449 428 426 434 430 432 419 442 432 424 440 423 431 437 430 424 419 445 414 451 426 449 425 429 435 455 414 455 428 402 0 0 0 0 0 0
370 341 360 344 347 367 362 356 358 374 363 366 366 356 364 359 355 369 360 360 359 365 356 378 367 362 359 379 364 363 373 372 359 369 364 366 360 366 362 365 370 373 377 376 377 374 364 375 389 360 369 364 374 384 378 370 376 372 369 376 381 386 380 383 374 374 388 384 384 375 397 392 404 389 390 393 382 394 380 384 381 387 391 388 397 380 394 361 394 397 398 393 373 378 390 382 401 398 394 378 392 386 395 401 388 400 372 396 382 377 380 383 398 399 379 405 0 0 0 0
316 321 346 331 316 308 336 330 339 338 334 323 328 320 324 323 337 344 344 335 330 329 349 344 343 336 319 361 343 336 324 336 341 339 335 333 338 330 324 331 345 341 347 341 347 331 338 350 345 346 346 345 338 348 350 343 350 334 336 342 343 348 337 353 346 350 352 347 347 358 354 349 336 354 344 344 341 341 353 342 343 347 354 337 341 356 348 341 352 347 374 361 348 348 360 358 358 340 361 355 367 352 358 350 355 340 350 359 378 351 362 371 366 345 351 372 323 0 0 0
291 279 311 282 301 307 294 304 297 311 306 282 309 298 307 295 307 298 307 301 295 304 298 304 300 299 296 289 300 316 302 303 301 300 310 315 311 309 300 305 315 306 311 302 315 304 314 306 314 309 308 303 311 310 308 315 320 302 311 318 316 311 310 316 307 322 313 311 321 309 305 313 319 309 307 310 315 305 311 307 321 317 322 316 310 323 325 307 317 323 306 325 332 320 316 326 319 329 325 327 328 314 327 336 331 319 326 343 340 333 303 331 329 301 330 339 322 292 309 0
281 277 269 285 293 282 284 287 285 288 278 278 287 282 291 292 281 281 278 276 275 283 276 281 281 268 275 274 292 277 267 283 282 283 288 283 287 277 288 290 295 285 281 283 281 287 287 291 287 291 291 288 291 290 283 299 284 292 289 291 290 291 285 286 293 286 292 290 299 289 286 293 289 292 287 288 275 280 295 295 290 285 287 294 292 291 294 294 288 301 295 291 298 302 304 308 286 302 312 296 300 295 296 296 307 308 298 296 300 291 301 324 316 313 321 307 296 329 343 286
257 253 258 258 264 256 257 264 256 261 250 252 260 258 259 261 261 258 258 250 251 263 266 254 254 259 259 257 251 257 254 250 261 258 261 260 261 258 270 266 262 257 265 271 262 267 262 265 268 269 268 266 265 263 271 262 264 268 259 267 268 265 264 266 274 264 266 265 271 271 268 271 264 274 269 262 264 264 264 265 265 264 273 265 274 268 277 261 262 265 265 265 270 263 270 266 274 278 278 281 281 262 268 281 287 282 290 286 271 278 272 286 253 269 276 287 272 276 276 259
234 234 240 231 246 226 239 232 243 235 234 241 239 248 241 248 232 243 243 243 236 246 240 237 244 238 243 243 247 244 238 246 245 247 249 255 248 250 246 246 245 247 245 247 246 243 249 248 246 246 248 244 245 254 247 248 252 243 247 245 252 248 251 251 246 256 254 255 250 252 246 250 250 252 250 252 247 251 252 248 250 248 256 254 254 258 249 251 258 250 248 248 259 251 247 251 248 254 257 255 266 251 265 248 251 258 256 254 258 251 251 248 267 242 252 253 265 275 255 274
220 222 222 216 216 227 224 217 218 211 218 230 218 228 225 223 226 227 233 224 228 228 224 233 224 222 223 221 226 227 225 231 222 233 235 232 229 235 225 237 232 234 233 232 236 227 229 231 235 231 232 229 225 229 230 236 232 230 234 229 228 230 237 229 228 233 233 234 235 232 238 229 232 235 227 234 231 232 232 227 238 234 231 235 233 235 239 235 232 231 239 233 236 237 227 239 236 232 241 237 243 220 236 237 239 239 238 239 236 229 230 234 236 244 236 225 233 260 216 226
206 206 218 217 222 203 206 208 205 217 215 211 207 222 210 215 215 210 209 216 212 212 209 210 210 214 212 215 213 212 215 213 215 217 216 217 214 200 213 201 192 218 212 199 221 216 219 220 203 217 216 220 217 218 222 218 221 218 224 219 220 220 218 222 223 219 224 222 218 219 219 225 222 200 220 218 227 215 220 220 217 223 228 222 221 224 220 230 209 220 215 222 217 215 224 221 222 217 228 216 217 216 213 235 218 217 222 215 221 231 212 221 229 216 220 219 206 223 232 232
198 195 192 197 201 198 198 201 187 198 184 201 189 190 212 191 207 187 206 187 193 191 197 185 182 182 186 190 195 191 186 187 192 188 195 212 189 197 192 191 194 199 195 198 198 192 192 190 192 196 190 200 192 199 189 197 198 194 192 193 193 196 202 195 195 199 194 195 199 192 194 198 199 193 192 192 196 193 198 191 186 192 196 199 200 196 194 190 214 210 194 197 191 208 190 193 211 210 210 209 213 214 208 193 214 207 210 202 204 209 208 210 216 201 190 185 172 209 205 209
176 178 191 179 191 174 182 178 183 183 183 175 175 183 185 177 184 187 187 177 190 185 183 179 192 191 190 182 195 194 192 186 191 187 191 192 191 192 190 195 186 197 193 196 195 194 188 192 192 192 196 198 198 198 197 195 201 199 194 193 195 198 196 202 194 197 195 196 191 200 196 193 196 197 195 199 199 192 193 193 193 193 193 185 189 194 188 189 190 184 190 185 192 192 189 192 188 181 182 185 186 184 178 188 181 181 180 187 186 187 181 183 181 176 189 171 178 175 202 186
177 171 178 176 180 181 178 184 179 184 184 177 183 183 186 183 185 185 180 184 187 183 184 187 184 186 182 188 189 190 189 187 186 180 185 179 187 187 188 184 187 182 180 188 187 186 186 192 190 188 187 188 189 188 188 194 195 191 190 187 184 187 186 191 186 190 189 184 188 186 195 191 189 193 184 187 191 186 192 185 190 192 186 186 187 189 192 189 184 189 193 190 190 187 181 182 186 189 188 188 180 179 187 184 180 178 182 177 182 186 176 173 197 176 173 172 195 174 180 181
177 171 163 167 172 169 170 172 168 169 176 180 170 176 172 177 172 176 181 178 177 171 172 171 173 174 173 171 174 185 179 184 177 185 174 178 178 175 176 180 181 175 177 180 180 178 179 176 181 184 181 179 178 181 180 183 181 185 182 183 176 179 178 177 178 183 182 181 181 180 180 176 176 183 180 179 182 182 185 187 182 184 180 179 180 179 175 182 181 185 172 178 176 174 178 177 179 181 181 183 180 183 179 187 176 178 176 182 172 181 171 171 181 167 180 179 172 164 198 173
163 163 165 164 163 163 165 163 167 164 169 167 166 169 166 169 166 168 171 170 168 163 169 170 166 163 173 170 171 172 177 168 165 167 170 167 171 169 168 173 164 174 171 171 172 175 173 173 175 170 173 176 171 170 176 172 170 174 175 171 173 172 169 172 167 171 170 173 174 166 173 170 177 174 175 171 175 172 175 171 167 173 168 169 167 175 170 172 176 170 164 175 171 172 167 169 176 171 172 171 168 175 179 165 178 172 174 170 170 173 177 170 172 170 177 176 180 169 167 173
154 155 167 161 160 156 163 156 157 158 160 158 158 157 163 165 159 162 163 167 155 164 163 160 160 162 163 157 160 164 166 167 164 164 157 161 157 158 160 162 160 167 163 160 163 168 165 165 164 166 162 166 165 165 163 169 163 166 167 170 163 168 163 165 165 166 161 164 165 163 158 162 163 160 161 164 176 169 166 167 161 159 164 166 162 164 166 163 167 166 162 165 165 162 164 166 159 164 166 167 172 164 160 158 163 164 160 162 162 158 157 171 173 155 165 169 177 162 166 144
142 145 153 149 154 146 146 151 155 157 150 152 150 147 153 147 151 154 148 158 153 151 157 156 148 150 151 157 159 160 160 159 154 153 154 154 152 155 151 161 156 156 159 153 153 154 157 156 156 156 156 155 161 156 158 152 154 156 162 164 162 151 160 157 154 160 152 157 156 154 155 159 158 165 161 159 162 163 159 148 158 159 158 150 154 160 156 157 159 156 160 159 157 155 163 148 153 152 154 158 156 153 157 156 158 150 150 153 155 161 153 152 147 157 151 153 158 155 153 137
135 145 141 142 147 149 146 142 151 144 149 152 143 150 152 142 145 154 138 151 154 150 151 152 147 149 147 148 152 144 147 148 146 148 147 142 151 153 147 152 155 147 154 153 145 147 150 148 149 151 151 150 150 151 153 150 148 147 155 152 152 150 151 153 149 155 148 154 151 152 153 152 153 154 155 151 159 156 153 150 151 153 151 150 145 152 151 152 151 151 149 153 159 153 157 153 152 152 148 154 151 157 157 149 154 149 148 149 146 152 148 140 159 153 154 142 141 152 164 123
137 137 137 139 136 136 140 144 138 140 142 142 139 143 137 138 146 139 139 145 144 143 147 146 140 144 147 145 146 140 143 133 140 146 128 145 129 141 143 146 144 146 147 145 142 148 143 138 147 144 130 142 147 149 146 145 147 152 150 146 145 147 142 144 147 144 147 148 145 145 142 146 143 144 146 147 152 151 150 146 145 147 143 144 141 145 144 149 146 143 147 148 145 145 149 145 140 144 148 149 144 151 150 140 141 143 140 141 142 148 138 144 147 146 146 139 138 145 140 134
130 132 131 129 134 141 136 137 138 137 137 0 131 137 139 136 139 139 140 140 143 142 144 138 140 142 148 139 138 128 140 126 132 131 139 130 131 127 125 139 130 145 143 138 140 143 130 141 125 126 128 140 141 142 135 141 145 133 142 130 132 132 131 146 148 129 140 134 146 138 128 144 129 131 143 141 145 140 144 145 146 142 139 128 131 143 141 138 140 143 126 143 143 142 138 139 142 141 142 141 143 142 141 140 141 135 135 136 141 136 138 141 133 135 131 142 135 127 131 132
133 133 128 137 135 137 141 131 127 136 133 131 137 137 138 133 126 135 136 133 137 139 139 141 141 137 130 137 136 121 125 126 138 125 128 127 125 126 129 130 142 130 125 129 0 132 131 130 125 126 127 125 130 133 0 140 0 132 131 128 132 127 142 133 124 127 142 128 133 140 128 127 131 142 123 126 135 129 139 126 125 128 125 137 124 127 126 127 129 132 123 140 137 139 138 125 140 139 140 140 129 122 134 139 134 133 130 131 137 131 143 135 130 137 135 139 127 136 136 105
115 109 123 106 123 118 136 134 115 118 121 116 118 122 127 124 121 131 119 120 121 125 129 134 126 129 134 138 0 131 126 122 119 124 118 118 132 123 124 120 130 131 129 130 130 0 130 128 126 123 122 124 124 126 126 127 133 126 126 122 120 124 124 127 125 125 127 130 124 128 122 123 123 123 120 125 120 128 125 124 130 124 123 126 124 138 117 123 124 128 128 137 124 124 123 117 123 140 138 127 132 115 118 122 122 118 117 130 120 128 116 134 138 126 122 134 125 141 143 129
111 113 111 108 114 120 122 119 127 111 119 116 117 119 117 118 109 131 123 122 124 121 127 115 126 124 128 129 127 122 126 0 125 122 118 111 120 122 0 121 131 123 0 0 0 0 123 125 119 120 125 120 127 123 122 124 122 122 121 121 124 121 113 120 121 124 126 123 124 119 125 116 128 121 120 118 121 127 124 125 119 118 125 123 119 122 127 119 124 123 120 117 121 124 120 120 135 121 119 122 125 115 121 114 109 120 125 116 118 134 126 130 120 129 127 142 116 111 109 134
108 102 111 116 110 109 116 113 113 114 118 113 111 112 106 112 120 113 111 122 116 110 113 119 120 108 121 115 116 119 119 0 119 118 117 113 115 0 116 117 120 0 0 122 122 0 118 116 112 117 116 119 123 120 120 117 114 117 116 118 122 122 124 115 119 121 118 119 120 113 121 120 113 115 117 112 112 113 116 120 115 112 111 120 114 114 120 118 118 117 117 117 118 115 108 119 121 123 111 120 115 121 114 108 113 112 117 116 109 117 112 123 118 131 129 118 137 127 82 101
93 98 105 102 97 99 117 113 107 113 115 109 106 111 121 117 115 108 106 101 114 107 112 110 110 109 112 115 112 115 114 114 109 118 113 111 106 114 0 113 115 110 110 108 110 112 115 0 114 0 112 116 117 115 0 0 106 109 115 112 124 115 105 110 109 115 109 112 112 111 110 110 109 105 106 107 114 106 106 112 110 105 107 106 111 103 112 114 101 113 106 113 93 113 108 110 111 115 111 108 107 108 116 108 105 115 97 110 106 109 113 114 105 109 90 125 110 107 94 104
105 95 108 108 103 101 105 109 108 109 110 109 104 112 114 118 109 114 110 102 107 104 105 104 113 109 110 111 103 114 110 107 105 108 113 111 114 0 107 105 110 106 110 99 105 115 111 107 115 0 106 114 111 115 112 111 108 108 110 105 106 107 114 0 114 110 109 109 108 108 109 105 108 109 105 101 102 103 103 108 106 106 107 111 96 107 100 106 104 99 104 109 105 109 96 102 109 110 103 106 105 112 108 115 106 101 104 111 91 119 99 101 120 123 110 113 100 116 110 133
93 88 106 107 97 95 95 93 97 94 99 99 98 99 104 102 99 107 101 101 96 98 95 102 99 102 105 101 100 108 108 98 108 105 104 105 103 103 103 106 104 106 96 96 96 104 103 100 105 101 106 103 108 105 103 102 97 104 105 100 98 109 103 0 110 105 0 109 106 103 103 97 99 105 101 109 100 102 0 103 0 101 96 99 91 100 96 98 99 100 95 97 98 96 101 90 94 95 100 95 95 98 102 99 99 99 105 94 87 89 104 95 91 115 100 83 96 94 86 106
85 93 83 94 93 96 93 89 95 94 99 98 101 99 99 98 95 101 105 95 100 92 89 90 97 95 102 100 98 100 106 101 106 103 102 99 101 99 100 99 104 98 96 96 98 96 101 102 101 102 106 94 94 102 94 104 100 107 101 102 103 100 105 98 109 104 106 108 107 100 96 107 100 103 98 92 101 98 100 97 0 101 94 89 99 99 96 106 96 96 95 93 99 99 96 103 95 97 84 101 98 87 100 92 93 101 97 97 100 95 90 93 97 95 89 94 109 86 80 99
85 99 91 100 91 93 91 84 85 91 94 94 94 86 87 83 94 100 105 101 101 96 93 91 95 90 99 93 93 97 97 96 102 96 96 104 95 92 90 102 94 95 90 97 99 95 99 103 94 102 99 93 100 99 93 100 89 91 103 93 96 92 100 0 98 101 95 92 96 98 96 101 100 101 86 104 100 100 98 99 98 94 98 107 100 92 88 94 94 94 93 90 90 93 86 90 91 87 107 88 95 94 91 95 96 95 97 80 95 86 91 89 96 79 89 87 92 94 96 77
85 80 77 79 88 88 87 86 80 89 87 89 96 89 92 92 90 88 83 90 90 91 92 90 94 87 94 92 91 98 87 86 99 92 88 89 87 93 94 93 91 94 97 98 91 98 87 88 90 99 97 92 99 97 97 89 97 91 99 98 88 95 99 94 92 99 99 88 94 99 97 97 98 93 85 92 91 91 90 97 87 89 94 85 93 89 95 91 90 93 90 93 95 91 91 94 95 93 90 86 89 87 93 83 89 79 88 85 89 88 84 78 83 87 79 100 83 62 81 124
86 83 85 81 86 86 91 97 86 89 85 92 83 90 92 89 95 84 96 91 89 92 91 92 92 88 94 87 89 88 92 90 96 88 99 84 90 88 92 94 89 95 94 91 92 95 89 91 91 93 98 99 96 95 93 98 97 88 90 94 98 86 97 95 89 96 87 91 87 88 97 86 95 90 99 93 92 90 84 97 98 90 97 91 97 89 88 90 91 90 99 99 99 90 90 88 87 91 89 97 92 85 93 96 92 92 87 78 89 80 87 89 81 88 87 80 82 84 0 0
81 87 84 86 90 85 84 89 82 0 81 90 84 84 83 82 88 89 84 92 90 91 90 92 87 90 95 87 88 88 86 93 94 94 93 91 91 90 95 97 85 92 95 88 98 88 91 94 97 98 91 96 95 92 95 85 96 93 93 98 97 86 92 95 88 97 97 90 97 94 89 97 96 97 91 92 85 91 96 94 94 94 87 89 94 92 96 97 104 85 89 96 99 89 87 88 91 89 93 88 80 89 85 88 90 89 92 87 87 79 84 91 90 81 74 83 88 85 92 0
80 81 76 87 86 83 96 88 86 78 80 80 86 86 86 90 83 87 81 88 86 89 89 82 85 84 87 84 93 85 86 89 89 92 87 93 90 90 90 90 91 86 94 97 97 84 92 95 92 92 95 94 90 88 90 91 92 91 97 93 90 94 92 87 87 93 87 86 89 93 90 92 90 94 96 87 89 95 94 88 93 82 92 94 85 91 89 90 90 88 91 90 79 79 83 80 85 86 87 88 74 79 86 79 86 81 88 81 73 87 76 74 80 80 72 58 84 61 0 0
82 77 79 82 85 85 90 92 81 86 80 80 89 87 89 87 82 92 88 89 91 93 86 84 83 82 84 81 89 94 87 85 88 87 91 83 94 86 86 87 90 85 86 96 94 89 92 92 94 98 96 86 85 79 85 93 89 97 84 91 94 93 84 95 89 96 88 84 88 92 87 85 90 91 95 91 90 92 97 82 90 89 92 87 96 94 85 94 93 90 91 89 82 85 89 93 92 92 92 84 85 91 86 82 83 90 82 88 82 75 90 85 91 85 89 111 0 0 0 0
74 64 67 64 79 78 82 81 82 73 81 73 81 78 81 79 77 76 75 74 86 75 79 75 72 72 77 83 81 73 86 75 82 77 89 74 82 79 84 77 80 82 81 72 77 81 86 84 85 80 88 85 74 79 80 72 84 86 83 71 78 79 78 81 77 78 75 80 77 78 82 78 80 74 79 80 76 81 89 83 79 84 76 71 75 85 81 73 78 82 84 69 80 71 83 78 72 87 73 69 68 73 75 68 70 68 75 75 75 79 79 67 77 87 86 69 0 0 0 0
68 68 81 77 71 83 81 85 84 78 78 81 74 77 76 77 80 82 74 78 75 83 74 81 80 81 75 67 77 84 80 80 76 85 79 72 82 76 75 73 90 77 84 86 81 82 81 80 86 82 82 70 76 73 86 83 76 78 82 66 81 81 79 83 74 79 79 80 82 73 78 75 83 78 83 84 77 84 86 83 80 81 79 77 70 79 78 73 88 83 67 80 71 73 81 74 87 68 71 75 82 74 72 66 71 75 72 77 76 77 83 61 82 74 90 0 0 0 0 0
