0 0 0 0 0 0 0 0 0 0 0 0 0 0 0 0 0 0 0 0 0 0 0 0 0 0 0 0 0 0 0 0 0 0 0 0 0 0 0 0 0 0 0 0 0 0 0 0 0 0 0 0 0 0 0 0 0 0 0 0 0 0 0 0 0 0 0 0 0 0 0 0 0 0 0 0 0 0 0 0 0 0 0 0 0 0 0 0 0 0 0 0 0 0 0 0 0 0 0 0 0 0 0 0 0 0 0 0 0 0 0 0 0 0 0 0 0 0 0 0
0 0 0 0 0 0 0 0 0 0 0 0 0 0 0 0 0 0 0 0 0 0 0 0 0 0 0 0 0 0 0 0 0 0 0 0 0 0 0 0 0 0 0 0 0 0 0 0 0 0 0 0 0 0 0 0 0 0 0 0 0 0 0 0 0 0 0 0 0 0 0 0 0 0 0 0 0 0 0 0 0 0 0 0 0 0 0 0 0 0 0 0 0 0 0 0 0 0 0 0 0 0 0 0 0 0 0 0 0 0 0 0 0 0 0 0 0 0 0 0
0 0 0 0 0 0 0 0 0 0 0 0 0 0 0 0 0 1252 0 0 0 0 1231 0 0 0 0 0 0 0 0 0 0 0 0 0 0 0 0 0 0 0 0 0 0 0 0 0 0 0 0 0 0 0 0 0 0 0 0 0 0 0 0 0 0 0 0 0 0 0 0 0 0 0 0 0 0 0 0 0 0 0 0 0 0 0 0 0 0 0 0 0 0 0 0 0 0 0 0 0 0 0 0 0 0 0 0 0 0 0 0 0 0 0 0 0 0 0 0 0
0 0 0 0 0 0 0 0 0 0 0 1127 1129 0 0 0 1293 1303 0 0 0 0 1245 0 0 0 0 0 0 0 0 0 0 0 0 0 0 0 0 0 0 0 0 0 0 0 0 0 0 0 0 0 0 0 0 0 0 0 0 0 0 0 0 0 0 0 0 0 0 0 0 0 0 0 0 0 0 0 0 0 0 0 0 0 0 0 0 0 0 0 0 0 0 0 0 0 0 0 0 0 0 0 0 0 0 0 0 0 0 0 0 0 0 0 0 0 0 0 0 0
0 0 0 0 0 0 0 0 1152 1126 1147 1153 1123 1141 1173 0 1268 1283 0 0 1253 1252 1264 0 0 0 0 0 0 0 0 0 0 0 0 0 0 0 0 0 0 0 0 0 0 0 0 0 0 0 0 0 0 0 0 0 0 0 0 0 0 0 0 0 0 0 0 0 0 0 0 0 0 0 0 0 0 0 0 0 0 0 0 0 0 0 0 0 0 0 0 0 0 0 0 0 0 0 0 0 0 0 0 0 0 0 0 0 0 0 0 0 0 0 0 0 0 0 0 0
0 0 0 0 0 0 0 1129 1128 1137 0 0 1178 1139 1162 1218 1282 1261 1266 1275 1261 1251 1261 1297 0 0 0 0 0 0 0 1413 0 0 0 0 0 0 0 0 0 0 0 0 0 0 0 0 0 0 0 0 0 0 0 0 0 0 0 0 0 0 0 0 0 0 0 0 0 0 0 0 0 0 0 0 0 0 0 0 0 0 0 0 0 0 0 0 0 0 0 0 0 0 0 0 0 0 0 0 0 0 0 0 0 0 0 0 0 0 0 0 0 0 0 0 0 0 0 0
0 0 0 0 0 0 0 0 0 0 0 0 1212 1230 1253 1267 1285 1269 1256 1270 1271 1253 1266 1264 1280 0 0 0 0 0 0 1436 0 0 0 0 0 0 0 0 0 0 0 0 0 0 0 0 0 0 0 0 0 0 0 0 0 0 0 0 0 0 0 0 0 0 0 0 0 0 0 0 0 0 0 0 0 0 0 0 0 0 0 0 0 0 0 0 0 0 0 0 0 0 0 0 0 0 0 0 0 0 0 0 0 0 0 0 0 0 0 0 0 0 0 0 0 0 0 0
0 0 0 0 0 0 0 0 0 0 0 0 1296 1250 1250 1251 1274 1284 1276 1256 1262 1233 1247 1283 0 1293 1334 1360 1309 0 0 1402 0 0 0 0 0 0 0 0 0 0 0 0 0 0 0 0 0 0 0 0 0 0 0 0 0 0 0 0 0 0 0 0 0 0 0 0 0 0 0 0 0 0 0 0 0 0 0 0 0 0 0 0 0 0 0 0 0 0 0 0 0 0 0 0 0 0 0 0 0 0 0 0 0 0 0 0 0 0 0 0 0 0 0 0 0 0 0 0
0 0 0 0 0 0 0 0 0 0 0 0 1284 1247 1276 1304 1286 1255 1276 1249 1281 1273 1270 1267 0 0 1359 1349 1345 1354 1365 1383 0 0 0 0 0 0 0 0 0 0 0 0 0 0 0 0 0 0 0 0 0 0 0 0 0 0 0 0 0 0 0 0 0 0 0 0 0 0 0 0 0 0 0 0 0 0 0 0 0 0 0 0 0 0 0 0 0 0 0 0 0 0 0 0 0 0 0 0 0 0 0 0 0 0 0 0 0 0 0 0 0 0 0 0 0 0 0 0
0 0 0 0 0 0 0 0 0 0 0 0 0 0 1297 1284 1279 1277 1271 1268 1266 1285 1257 1285 1295 0 0 1361 1329 1344 1387 1410 0 0 0 0 0 0 0 0 0 0 0 0 0 0 0 0 0 0 0 0 0 0 0 0 0 0 0 0 0 0 0 0 0 0 0 0 0 0 0 0 0 0 0 0 0 0 0 0 0 0 0 0 0 0 0 0 0 0 0 0 0 0 0 0 0 0 0 0 0 0 0 0 0 0 0 0 0 0 0 0 0 0 0 0 0 0 0 0
0 0 0 0 0 0 0 0 0 0 0 0 0 0 0 0 0 0 0 0 0 1295 1260 1270 1247 0 0 1307 1352 1352 1342 1392 1441 0 0 0 0 0 0 0 0 0 0 0 0 0 0 0 0 0 0 0 0 0 0 0 0 0 0 0 0 0 0 0 0 0 0 0 0 0 0 0 0 0 0 0 0 0 0 0 0 0 0 0 0 0 0 0 0 0 0 0 0 0 0 0 0 0 0 0 0 0 0 0 0 0 0 0 0 0 0 0 0 0 0 0 0 0 0 0
0 0 0 0 0 0 0 0 0 0 0 0 0 0 0 0 0 0 0 0 0 0 0 1390 1320 0 0 0 1357 1344 1349 1453 1396 0 0 0 0 0 0 0 0 0 0 0 0 0 0 0 0 0 0 0 0 0 0 0 0 0 0 0 0 0 0 0 0 0 0 0 0 0 0 0 0 0 0 0 0 0 0 0 0 0 0 0 0 0 0 0 0 0 0 0 0 0 0 0 0 0 0 0 0 0 0 0 0 0 0 0 0 0 0 0 0 0 0 0 0 0 0 0
0 0 0 0 0 0 0 0 0 0 0 0 0 0 0 0 0 0 0 0 0 0 0 1388 1383 1318 1313 1334 1345 1352 1372 1407 1438 0 0 0 0 0 0 0 0 0 0 0 0 0 0 0 0 0 0 0 0 0 0 0 0 0 0 0 0 0 0 0 0 0 0 0 0 0 0 0 0 0 0 0 0 0 0 0 0 0 0 0 0 0 0 0 0 0 0 0 0 0 0 0 0 0 0 0 0 0 0 0 0 0 0 0 0 0 0 0 0 0 0 0 0 0 0 0
0 0 0 0 0 0 0 0 0 0 0 0 0 0 0 0 0 0 0 0 0 0 0 1367 1380 1379 1317 1298 1342 1337 1354 1410 1431 0 0 0 0 0 0 0 0 0 0 0 0 0 0 0 0 0 0 0 0 0 0 0 0 0 0 0 0 0 0 0 0 0 0 0 0 0 0 0 0 0 0 0 0 0 0 0 0 0 0 0 0 0 0 0 0 0 0 0 0 0 0 0 0 0 0 0 0 0 0 0 0 0 0 0 0 0 0 0 0 0 0 0 0 0 0 0
0 0 0 0 0 0 0 0 0 0 0 0 0 0 0 0 0 0 0 0 0 0 0 1345 1380 1392 1362 1316 1335 1343 1357 1409 1428 0 0 0 0 0 0 0 0 0 0 0 0 0 0 0 0 0 0 0 0 0 0 0 0 0 0 0 0 0 0 0 0 0 0 0 0 0 0 0 0 0 0 0 0 0 0 0 0 0 0 0 0 0 0 0 0 0 0 0 0 0 0 0 0 0 0 0 0 0 0 0 0 0 0 0 0 0 0 0 0 0 0 0 0 0 0 0
0 0 0 0 0 0 0 0 0 0 0 0 0 0 0 0 0 0 0 0 0 0 0 1341 1348 1398 1377 1380 1352 1337 1331 1400 1400 0 0 0 0 0 0 0 0 0 0 0 0 0 0 0 0 0 0 0 0 0 0 0 0 0 0 0 0 0 0 0 0 0 0 0 0 0 0 0 0 0 0 0 0 0 0 0 0 0 0 0 0 0 0 0 0 0 0 0 0 0 0 0 0 0 0 0 0 0 0 0 0 0 0 0 0 0 0 0 0 0 0 0 0 0 0 0
1221 1256 1261 1292 1302 1285 1314 0 0 0 0 0 0 0 0 0 0 0 0 0 0 0 0 0 1355 1366 1379 1373 1387 1377 1344 1425 1422 0 0 0 0 0 0 0 0 0 0 0 0 0 0 0 0 0 0 0 0 0 0 0 0 0 0 0 0 0 0 0 0 0 0 0 0 0 0 0 0 0 0 0 0 0 0 0 0 0 0 0 0 0 0 0 0 0 0 0 0 0 0 0 0 0 0 0 0 0 0 0 0 0 0 0 0 0 0 0 0 0 0 0 0 0 0 0
1281 1261 1265 1299 1306 1287 1317 1337 1333 1352 1328 0 0 0 0 0 0 0 0 0 0 0 0 1350 1373 1359 1373 1382 1372 1354 1366 1424 1455 0 0 0 0 0 0 0 0 0 0 0 0 0 0 0 0 0 0 0 0 0 0 0 0 0 0 0 0 0 0 0 0 0 0 0 0 0 0 0 0 0 0 0 0 0 0 0 0 0 0 0 0 0 0 0 0 0 0 0 0 0 0 0 0 0 0 0 0 0 0 0 0 0 0 0 0 0 0 0 0 0 0 0 0 0 0 0
1252 1289 1269 1269 1295 1310 1295 1328 1329 1336 1343 1368 1375 1398 1394 1384 1430 0 0 0 0 0 0 0 0 1357 0 0 1372 0 0 1437 1433 0 0 0 0 0 0 0 0 0 0 0 0 0 0 0 0 0 0 0 0 0 0 0 0 0 0 0 0 0 0 0 0 0 0 0 0 0 0 0 0 0 0 0 0 0 0 0 0 0 0 0 0 0 0 0 0 0 0 0 0 0 0 0 0 0 0 0 0 0 0 0 0 0 0 0 0 0 0 0 0 0 0 0 0 0 0 0
0 0 0 0 1296 1299 1283 1297 1320 1324 1335 1349 1361 1389 1364 1391 1414 1416 1443 1429 1445 0 0 0 0 0 0 0 0 0 0 1423 1433 1432 0 0 0 0 0 0 0 0 0 0 0 0 0 0 0 0 0 0 0 0 0 0 0 0 0 0 0 0 0 0 0 0 0 0 0 0 0 0 0 0 0 0 0 0 0 0 0 0 0 0 0 0 0 0 0 0 0 0 0 0 0 0 0 0 0 0 0 0 0 0 0 0 0 0 0 0 0 0 0 0 0 0 0 0 0 0
0 0 0 0 0 0 0 0 0 1360 1345 1380 1330 1376 1405 1391 1409 1419 1448 1407 1476 1472 0 0 0 0 0 0 0 0 0 1506 1485 1485 0 0 0 0 0 0 0 0 0 0 0 0 0 0 0 0 0 0 0 0 0 0 0 0 0 0 0 0 0 0 0 0 0 0 0 0 0 0 0 0 0 0 0 0 0 0 0 0 0 0 0 0 0 0 0 0 0 0 0 0 0 0 0 0 0 0 0 0 0 0 0 0 0 0 0 0 0 0 0 0 0 0 0 0 0 0
0 0 0 0 0 0 0 0 0 0 0 0 0 0 0 1416 1390 1397 1416 1444 1447 1473 0 0 0 0 0 0 0 0 0 0 1487 0 0 0 0 0 0 0 0 0 0 0 0 0 0 0 0 0 0 0 0 0 0 0 0 0 0 0 0 0 0 0 0 0 0 0 0 0 0 0 0 0 0 0 0 0 0 0 0 0 0 0 0 0 0 0 0 0 0 0 0 0 0 0 0 0 0 0 0 0 0 0 0 0 0 1777 1709 0 0 0 0 0 0 0 0 0 0 0
0 0 0 0 0 0 0 0 0 0 0 0 0 0 0 0 0 0 0 0 0 1424 0 0 0 0 0 0 0 0 0 0 0 0 0 0 0 0 0 0 0 0 0 0 0 0 0 0 0 0 0 0 0 0 0 0 0 0 0 0 0 0 0 0 0 0 0 0 0 0 0 0 0 0 0 0 0 0 0 0 0 0 0 0 0 0 0 0 0 0 0 0 0 0 0 0 0 0 0 0 0 0 0 0 1721 1741 1704 0 0 0 0 0 1571 0 0 0 0 0 0 0
0 0 0 0 0 0 0 0 0 0 0 0 0 0 0 0 0 0 0 0 0 0 0 0 0 0 0 0 0 0 0 0 0 0 0 0 0 0 0 0 0 0 0 0 0 0 0 0 0 0 0 0 0 0 0 0 0 0 0 0 0 0 0 0 0 0 0 0 0 0 0 0 0 0 0 0 0 0 0 0 0 0 0 0 0 0 0 0 0 0 0 0 0 0 0 0 0 0 0 0 0 0 0 0 0 0 1611 1623 1583 1571 1542 1595 1546 1553 0 0 0 0 0 0
0 0 0 0 0 0 0 0 0 0 0 0 0 0 0 0 0 0 0 0 0 0 0 0 0 0 0 0 0 0 0 0 0 0 0 0 0 0 0 0 0 0 0 0 0 0 0 0 0 0 0 0 0 0 0 0 0 0 0 0 0 0 0 0 0 0 0 0 0 0 0 0 0 0 0 0 0 0 0 0 0 0 0 0 0 0 0 0 0 0 0 0 0 0 0 0 0 0 0 0 1656 1692 1675 1721 1629 1605 1621 1601 1595 1553 1542 1553 1556 1548 0 0 0 0 0 0
0 0 0 0 0 0 0 0 0 0 0 0 0 0 0 0 0 0 0 0 0 0 0 0 0 0 0 0 0 0 0 0 0 0 0 0 0 0 0 0 0 0 0 0 0 0 0 0 0 0 0 0 0 0 0 0 0 0 0 0 0 0 0 0 0 0 0 0 0 0 0 0 0 0 0 0 0 0 0 0 0 0 0 0 0 0 0 0 0 0 0 0 0 0 0 0 1712 1766 1702 1728 1674 1661 1657 1634 1623 1627 1626 1601 1561 1534 0 0 0 0 0 0 0 0 0 0
582 579 0 0 0 0 0 0 0 0 0 0 0 0 0 0 0 0 0 0 0 0 0 0 0 1816 1877 0 0 0 0 0 0 0 0 0 0 0 0 0 0 0 0 0 0 0 0 2956 2986 2921 2967 2951 2956 2952 2877 2922 2903 2923 2901 2928 2898 2940 2912 2904 2902 2904 0 0 0 0 0 0 0 0 0 0 0 0 0 0 0 0 0 0 0 0 0 0 0 0 0 1823 1785 1791 1733 1747 1762 1754 1705 1701 1651 1642 1679 1661 0 0 0 0 0 0 0 0 0 0 0 0 0 0 0 0
568 574 606 574 639 704 0 0 0 0 0 0 0 0 0 0 0 0 0 0 0 0 0 0 0 0 0 1908 1921 0 0 0 0 0 0 0 0 0 0 0 0 0 0 0 0 0 0 2878 2864 2899 2902 2913 2918 2866 2901 2912 2905 2866 2937 2951 2900 2888 2931 2917 2867 2896 0 0 0 0 0 0 0 0 0 0 0 0 0 0 0 0 0 0 0 0 0 0 0 0 1840 1835 1818 1798 1742 1815 1735 0 0 0 0 0 0 0 0 0 0 0 0 0 0 0 0 0 0 0 0 0 0 0
575 585 596 584 628 626 649 654 662 0 0 0 0 0 0 0 0 0 0 0 0 0 0 0 0 0 0 0 0 0 0 0 0 0 0 0 0 0 0 0 0 0 0 0 0 0 0 2903 2894 2925 2899 2881 2907 2862 2887 2955 2873 2919 2887 2883 2903 2863 2914 2910 2900 0 0 0 0 0 0 0 0 0 0 0 0 0 0 0 0 0 0 0 0 0 0 0 0 0 0 0 0 0 0 0 0 0 0 0 0 0 0 0 0 0 0 0 0 0 0 0 0 0 0 0 0 0 0 0
565 574 605 597 614 633 636 668 672 678 678 640 0 0 0 0 0 0 0 0 0 0 0 0 0 0 0 0 0 0 0 0 0 0 0 0 0 0 0 0 0 0 0 0 0 0 0 2946 3014 2939 2895 2932 2930 2938 2935 2867 2912 2941 2937 2902 2890 2909 2962 2971 2904 2877 0 0 0 0 0 0 0 0 0 0 0 0 0 0 0 0 0 0 0 0 0 0 0 0 0 0 0 0 0 0 0 0 0 0 0 0 0 0 0 0 0 0 0 0 0 0 0 0 0 0 0 0 0 0
577 582 602 621 624 635 629 629 669 681 688 672 729 707 688 0 0 0 0 0 0 0 0 0 0 0 0 0 0 0 0 0 0 0 0 0 0 0 0 0 0 0 0 0 0 0 0 2930 2886 2912 2921 2862 2915 2897 2903 2914 2873 2875 2842 2893 2900 2905 2881 2843 2918 2865 0 0 0 0 0 0 0 0 0 0 0 0 0 0 0 0 0 0 0 0 0 0 0 0 0 0 0 0 0 0 0 0 0 0 0 0 0 0 0 0 0 0 0 0 0 0 0 0 0 0 0 0 0 0
752 774 757 734 713 664 665 672 674 666 679 688 716 714 728 763 744 761 0 0 0 0 0 0 0 0 0 0 0 0 0 0 0 0 0 0 0 0 0 0 0 0 0 0 0 0 0 2889 2974 2932 2919 2930 2897 2934 2916 2933 2909 2915 2890 2953 2919 2922 2901 2900 2902 2867 0 0 0 0 0 0 0 0 0 0 0 0 0 0 0 0 0 0 0 0 0 0 0 0 0 0 0 0 0 0 0 0 0 0 0 0 0 0 0 0 0 0 0 0 0 0 0 0 0 0 0 0 0 0
785 793 802 827 827 838 848 846 817 776 763 745 736 702 719 743 739 793 757 799 852 0 0 0 0 0 0 0 0 0 0 0 0 0 0 0 0 0 0 0 0 0 0 0 0 0 0 2945 2821 2915 2908 2919 2921 2936 2902 2896 2899 2951 2931 2871 2958 2943 2961 2895 2942 2851 0 0 0 0 0 0 0 0 0 0 0 0 0 0 0 0 0 0 0 0 0 0 0 0 0 0 0 0 0 0 0 0 0 0 0 0 0 0 0 0 0 0 0 0 0 0 0 0 0 0 0 0 0 0
762 803 804 814 846 856 873 891 901 895 905 930 927 900 853 809 779 784 795 814 837 844 859 896 0 0 0 0 0 0 0 0 0 0 0 0 0 0 0 0 0 0 0 0 0 0 0 2946 2951 2911 2907 2930 2952 2951 2957 2906 2890 2930 2893 2864 2917 2867 2912 2913 2899 2877 0 0 0 0 0 0 0 0 0 0 0 0 0 0 0 0 0 0 0 0 0 0 0 0 0 0 0 0 0 0 0 0 0 0 0 0 0 0 0 0 0 0 0 0 0 0 0 0 0 0 0 0 0 0
624 0 844 872 831 873 900 902 901 921 938 957 946 953 935 958 949 917 916 851 824 862 869 885 902 930 0 0 0 0 0 0 0 0 0 0 0 0 0 0 0 0 0 0 0 0 0 2924 2890 2909 2895 2903 2920 2872 2847 2881 2933 2838 2843 2886 2877 2907 2919 2953 2869 2840 0 0 0 0 0 0 0 0 0 0 0 0 0 0 0 0 0 0 0 0 0 0 0 0 0 0 0 0 0 0 0 0 0 0 0 0 0 0 0 0 0 0 0 0 0 0 0 0 0 0 0 0 0 0
648 930 935 955 930 936 0 952 923 942 942 943 947 946 955 942 956 958 948 942 934 937 922 917 914 972 953 963 1037 0 0 0 0 0 0 0 0 0 0 0 0 0 0 0 0 0 0 2901 2929 2885 2927 2895 2961 2876 2945 2834 2921 2946 2871 2885 2846 2922 2908 2897 2914 2876 0 0 0 0 0 0 0 0 0 0 0 0 0 0 0 0 0 0 0 0 0 0 0 0 0 0 0 0 0 0 0 0 0 0 0 0 0 0 0 0 0 0 0 0 0 0 0 0 0 0 0 0 0 0
598 703 0 0 0 0 0 0 0 0 990 993 973 979 983 991 963 962 960 963 960 950 956 955 978 974 995 1002 1047 1026 1057 0 0 0 0 0 0 0 0 0 0 0 0 0 0 0 0 2935 2876 2910 2882 2918 2892 2869 2862 2896 2887 2882 2871 2884 2931 2874 2893 2867 2877 2844 0 0 0 0 0 0 0 0 0 0 0 0 0 0 0 0 0 0 0 0 0 0 0 0 0 0 0 0 0 0 0 0 0 0 0 0 0 0 0 0 0 0 0 0 0 0 0 0 0 0 0 0 0 0
594 606 630 0 1092 1163 1165 1123 1158 1157 1142 1132 1157 1136 1135 1139 1132 1045 0 0 1031 1054 1055 981 1037 1037 1116 1127 1111 1097 1088 0 0 0 0 0 0 0 0 0 0 0 0 0 0 0 0 2902 2903 2934 2892 2931 2849 2925 2871 2947 2885 2917 2877 2891 2879 2911 2928 2903 2889 0 0 0 0 0 0 0 0 0 0 0 0 0 0 0 0 0 0 0 0 0 0 0 0 0 0 0 0 0 0 0 0 0 0 0 0 0 0 0 0 0 0 0 0 0 0 0 0 0 0 0 0 0 0 0
580 583 634 587 0 0 0 0 0 0 0 0 0 0 0 0 1356 1032 997 0 1129 1140 1121 0 0 1138 1162 1156 1129 1135 1094 0 0 0 0 0 0 0 0 0 0 0 0 0 0 0 0 2939 2923 2901 2875 2909 2918 2901 2906 2922 2920 2918 2873 2900 2910 2886 2869 2842 2884 2903 0 0 0 0 0 0 0 0 0 0 0 0 0 0 0 0 0 0 0 0 0 0 0 0 0 0 0 0 0 0 0 0 0 0 0 0 0 0 0 0 0 0 0 0 0 0 0 0 0 0 0 0 0 0
598 581 586 601 579 0 0 0 0 0 0 0 0 0 0 0 0 989 982 0 0 0 0 0 0 0 0 0 0 0 0 0 0 0 0 0 0 0 0 0 0 0 0 0 0 0 0 2912 2933 2944 2896 2908 2890 2920 2935 2896 2900 2897 2920 2912 2895 2898 2908 2917 2887 0 0 0 0 0 0 0 0 0 0 0 0 0 0 0 0 0 0 0 0 0 0 0 0 0 0 0 0 0 0 0 0 0 0 0 0 0 0 0 0 0 0 0 0 0 0 0 0 0 0 0 0 0 0 0
585 610 637 606 622 623 0 0 0 0 0 0 0 0 0 0 0 0 0 0 0 0 0 0 0 0 0 0 0 0 0 0 0 0 0 0 0 0 0 0 0 0 0 0 0 0 0 2892 2853 2935 2952 2865 2894 2877 2936 2905 2934 2912 2886 2913 2912 2931 2897 2890 2911 0 0 0 0 0 0 0 0 0 0 0 0 0 0 0 0 0 0 0 0 0 0 0 0 0 0 0 0 0 0 0 0 0 0 0 0 0 0 0 0 0 0 0 0 0 0 0 0 0 0 0 0 0 0 0
588 586 584 626 582 618 0 0 0 0 0 0 0 0 0 0 0 0 0 0 0 0 950 0 0 0 0 0 0 0 0 0 0 0 0 0 0 0 0 0 0 0 0 0 0 0 0 2900 2874 2902 2891 2946 2929 2953 2912 2919 2947 2910 2908 2898 2942 2895 2911 2904 2880 0 0 0 0 0 0 0 0 0 0 0 0 0 0 0 0 0 0 0 0 0 0 0 0 0 0 0 0 0 0 0 0 0 0 0 0 0 0 0 0 0 0 0 0 0 0 0 0 0 0 0 0 0 0 0
600 606 592 619 651 578 0 0 0 0 0 0 0 0 0 0 0 0 0 0 0 0 929 0 0 0 0 0 0 0 0 0 0 0 0 0 0 0 0 0 0 0 0 0 0 0 0 2897 2871 2899 2946 2901 2896 2935 2882 2882 2913 2886 2855 2922 2884 2898 2915 2935 2869 0 0 0 0 0 0 0 0 0 0 0 0 0 0 0 0 0 0 0 0 0 0 0 0 0 0 0 0 0 0 0 0 0 0 0 0 0 0 0 0 0 0 0 0 0 0 0 0 0 0 0 0 0 0 0
573 590 599 574 586 606 580 0 0 0 0 0 0 0 0 0 0 0 0 0 0 0 968 0 0 0 0 0 0 0 0 0 0 0 0 0 0 0 0 0 0 0 0 0 0 0 0 2909 2884 2870 2910 2939 2905 2871 2904 2913 2870 2930 2879 2906 2915 2858 2864 2865 2867 2857 0 0 0 0 0 0 0 0 0 0 0 0 0 0 0 0 0 0 0 0 0 0 0 0 0 0 0 0 0 0 0 0 0 0 0 0 0 0 0 0 0 0 0 0 0 0 0 0 0 0 0 0 0 0
584 578 577 585 622 608 593 0 0 0 0 0 0 0 0 0 2310 0 0 0 0 0 996 995 0 0 0 0 0 0 0 0 0 0 0 0 0 0 0 0 0 0 0 0 0 0 0 2941 2881 2949 2908 2893 2936 2953 2924 2888 2913 2944 2827 2888 2899 2889 2855 2937 2886 2850 0 0 0 0 0 0 0 0 0 0 0 0 0 0 0 0 0 0 0 0 0 0 0 0 0 0 0 0 0 0 0 0 0 0 0 0 0 0 0 0 0 0 0 0 0 0 0 0 0 0 0 0 0 0
605 578 628 613 620 609 676 0 0 0 0 0 0 0 0 0 0 0 0 0 0 0 0 0 0 0 0 0 0 0 0 0 0 0 0 0 0 0 0 0 0 0 0 0 0 0 0 2928 2878 2906 2920 2936 2912 2881 2904 2906 2878 2884 2890 2880 2902 2928 2882 2919 2869 2847 0 0 0 0 0 0 0 0 0 0 0 0 0 0 0 0 0 0 0 0 0 0 0 0 0 0 0 0 0 0 0 0 0 0 0 0 0 0 0 0 0 0 0 0 0 0 0 0 0 0 0 0 0 0
599 598 639 608 599 613 0 0 0 0 0 0 0 0 0 0 0 0 0 0 0 0 0 0 0 0 0 0 0 0 0 0 0 0 0 0 0 0 0 0 0 0 0 0 0 0 0 0 0 0 0 0 0 0 0 0 0 0 0 0 0 2907 3016 2899 2915 0 0 0 0 0 0 0 0 0 0 0 0 0 0 0 0 0 0 0 0 0 0 0 0 0 0 0 0 0 0 0 0 0 0 0 0 0 0 0 0 0 0 0 0 0 0 0 0 0 0 0 0 0 0 0
561 599 592 631 616 601 0 0 0 0 0 0 0 0 0 0 0 0 0 0 0 0 0 0 0 0 0 0 0 0 0 0 0 0 0 0 0 0 0 0 0 0 0 0 0 0 0 0 0 0 0 0 0 0 0 0 0 0 0 0 0 0 0 0 0 0 0 0 0 0 0 0 0 0 0 0 0 0 0 0 0 0 0 0 0 0 0 0 0 0 0 0 0 0 0 0 0 0 0 0 0 0 0 0 0 0 0 0 0 0 0 0 0 0 0 0 0 0 0 0
592 612 585 602 594 0 0 0 0 0 0 0 0 0 0 0 0 0 0 0 0 0 0 0 0 0 0 0 0 0 0 0 0 0 0 0 0 0 0 0 0 0 0 0 0 0 0 0 0 0 0 0 0 0 0 0 0 0 0 0 0 0 0 0 0 0 0 0 0 0 0 0 0 0 0 0 0 0 0 0 0 0 0 0 0 0 0 0 0 0 0 0 0 0 0 0 0 0 0 0 0 0 0 0 0 0 0 0 0 0 0 0 0 0 0 0 0 0 0 0
585 603 627 606 603 0 0 0 0 0 0 0 0 0 0 0 0 0 0 0 0 0 0 0 0 0 0 0 0 0 0 0 0 0 0 0 0 0 0 0 0 0 0 0 0 0 0 0 0 0 0 0 0 0 0 0 0 0 0 0 0 0 0 0 0 0 0 0 0 0 0 0 0 0 0 0 0 0 0 0 0 0 0 0 0 0 0 0 0 0 0 0 0 0 0 0 0 0 0 0 0 0 0 0 0 0 0 0 0 0 0 0 0 0 0 0 0 0 0 0
594 583 603 575 0 0 0 0 0 0 0 0 0 0 0 0 0 0 0 0 0 0 0 0 0 0 0 851 897 879 863 0 876 926 0 923 0 936 880 885 0 898 0 0 0 0 0 0 0 0 0 0 0 0 0 0 0 0 0 0 0 0 0 0 0 0 0 0 0 0 0 0 0 0 0 0 0 0 0 0 0 0 0 0 0 0 0 0 0 0 0 0 0 0 0 0 0 0 0 0 0 0 0 0 0 0 0 0 0 0 0 0 0 0 0 0 0 0 0 0
574 581 605 0 0 0 0 699 697 715 709 727 709 712 739 716 709 729 715 734 714 729 706 706 723 722 704 725 684 763 667 759 721 732 753 762 706 741 751 730 734 728 766 720 769 777 743 782 815 797 748 783 781 803 790 790 797 789 808 840 775 781 794 822 813 775 829 843 804 809 827 810 838 0 818 0 0 0 0 0 0 0 0 0 0 0 0 0 0 0 0 0 0 0 0 0 0 0 0 0 0 0 0 0 0 0 0 0 0 0 0 0 0 0 0 0 0 0 0 0
588 550 556 527 582 543 624 639 606 583 580 571 603 572 596 605 593 596 605 635 578 611 570 588 592 597 601 589 583 620 581 594 609 602 603 577 631 626 604 610 610 625 614 615 624 635 629 615 625 638 622 637 639 654 652 637 645 614 634 614 629 666 626 650 651 643 677 653 652 615 710 656 626 646 643 712 674 717 683 708 664 686 654 665 680 695 650 708 654 732 679 690 679 732 0 0 671 681 711 0 729 728 0 0 0 0 0 0 0 0 0 0 0 0 0 0 0 0 0 0
472 512 496 504 522 485 489 482 508 484 495 501 497 474 521 500 478 537 479 519 502 492 507 487 507 530 508 524 513 526 512 512 507 513 517 518 540 512 539 503 516 510 521 539 523 518 535 521 522 520 532 505 517 520 515 533 515 536 533 510 547 540 532 558 551 546 552 569 547 561 564 555 538 542 510 575 591 533 564 529 522 592 561 565 571 564 569 566 553 589 572 565 551 572 544 603 546 572 600 590 580 575 663 624 0 583 0 630 564 606 0 0 0 0 0 0 0 0 0 0
426 427 436 406 422 419 409 423 440 424 413 461 434 440 448 439 421 444 447 454 458 441 430 466 446 449 446 447 448 463 451 444 451 456 461 465 446 457 461 454 467 463 468 466 467 475 465 469 481 465 476 462 474 463 474 465 476 466 473 484 457 495 470 482 460 484 499 475 475 491 485 482 482 473 483 486 472 478 476 467 473 491 490 484 481 476 491 481 485 474 521 493 519 477 480 474 495 504 503 472 496 489 489 513 509 497 481 511 534 502 492 472 0 0 0 0 0 0 0 0
410 389 377 393 386 395 385 412 387 394 393 391 389 397 401 400 395 403 401 402 407 412 398 406 407 401 411 403 396 410 391 409 410 408 402 414 411 414 410 419 417 409 420 408 411 416 411 417 422 413 412 428 410 422 428 419 414 430 423 420 415 428 414 426 432 428 415 428 419 423 426 433 419 425 430 409 425 429 422 434 426 430 429 407 438 438 424 431 442 437 428 435 439 418 421 417 413 419 425 431 434 429 436 427 429 435 420 438 428 443 418 452 432 415 0 0 0 0 0 0
365 367 363 333 364 368 359 350 359 352 377 360 358 361 357 355 353 366 372 355 364 351 369 375 367 370 374 364 365 364 382 379 379 364 368 367 377 374 368 379 373 372 372 368 366 378 380 378 371 377 354 386 381 368 372 373 373 381 366 382 385 393 379 389 384 386 396 387 371 386 388 384 386 399 390 395 390 391 402 388 386 406 394 395 391 388 385 379 390 382 402 403 395 396 392 392 385 402 402 394 392 391 394 386 402 392 383 395 400 396 399 411 363 386 368 376 0 0 0 0
327 353 338 319 320 312 336 319 329 336 347 338 332 329 325 346 347 339 331 351 346 338 330 333 355 343 340 344 336 354 346 335 334 335 338 338 341 329 325 338 343 340 340 339 332 346 334 350 332 355 346 341 339 340 340 340 354 339 341 351 344 357 346 347 351 339 352 356 344 342 361 350 349 353 359 350 347 353 350 350 352 348 348 347 341 358 340 341 348 358 356 350 346 361 358 336 336 360 361 358 345 341 364 365 364 345 383 360 367 360 362 369 367 368 342 387 343 0 0 0
295 289 304 282 303 312 299 305 301 309 302 293 289 284 300 294 294 302 305 296 298 303 293 299 292 293 316 294 300 302 286 305 296 312 301 309 323 315 312 306 294 304 310 298 307 298 311 306 295 313 307 302 310 309 310 314 312 304 321 322 315 306 320 315 305 309 315 307 309 304 308 317 322 309 313 322 322 310 317 307 318 321 317 318 317 322 330 323 330 327 313 311 310 319 312 323 324 323 327 319 320 315 336 331 322 316 329 320 319 337 329 326 335 345 331 339 343 325 326 0
275 265 264 260 266 274 277 272 275 277 275 277 278 291 284 278 283 273 280 283 278 271 278 283 280 281 281 277 280 276 275 276 280 277 285 281 272 275 278 286 280 282 284 287 283 275 279 283 281 283 285 281 286 281 281 294 290 286 285 293 291 282 287 288 288 291 288 287 289 288 290 285 288 285 287 283 287 285 287 286 292 290 280 292 285 283 285 292 287 296 282 297 300 295 299 291 270 291 293 299 295 293 294 294 289 291 285 290 298 284 299 286 281 270 302 277 253 297 306 278
256 246 252 256 248 255 246 255 250 257 256 255 255 250 267 255 265 253 256 248 266 256 259 255 255 253 258 256 253 256 253 258 254 258 261 264 260 268 269 265 262 268 263 264 260 267 259 261 268 267 264 271 267 266 265 266 259 259 251 266 262 264 270 265 271 263 265 263 274 267 265 269 264 264 269 269 272 263 267 260 266 262 260 270 261 263 270 264 266 266 263 270 270 270 266 265 271 271 283 274 271 269 277 272 276 271 275 301 263 280 264 273 274 281 263 266 258 272 273 303
234 229 235 232 238 230 238 235 241 236 228 239 249 244 237 242 245 241 247 239 232 243 240 239 245 235 241 239 241 250 241 250 251 248 244 245 246 257 252 248 245 250 244 237 243 247 245 248 245 257 253 247 251 242 251 246 245 248 246 241 253 249 256 251 243 248 252 245 246 247 248 250 246 248 249 256 250 260 253 250 252 251 242 246 251 259 252 250 254 252 252 247 262 252 257 250 258 249 257 257 247 243 257 260 257 257 255 252 255 252 248 234 273 230 253 258 238 231 229 251
222 215 222 219 217 223 224 217 223 215 216 221 224 229 224 218 218 221 227 221 229 226 226 228 223 222 226 221 223 229 222 229 229 226 233 233 220 227 230 230 224 231 226 219 234 234 236 230 238 230 230 236 227 228 235 238 232 232 235 237 231 230 234 235 232 238 229 237 230 229 232 231 225 232 228 238 232 224 233 231 233 227 239 231 239 231 230 235 227 236 234 238 237 230 235 231 236 235 243 237 245 236 233 243 238 236 234 240 238 238 222 229 228 244 236 233 232 219 220 229
205 205 219 215 211 202 206 207 206 211 215 213 214 215 214 212 215 207 209 219 213 212 213 192 209 219 213 213 210 215 213 218 198 218 216 218 214 214 199 215 220 225 219 213 220 217 216 204 223 222 202 219 219 219 221 219 223 221 218 218 218 207 203 220 218 220 219 221 222 220 219 216 224 218 220 221 222 224 228 218 218 219 230 228 222 221 225 223 222 220 223 221 223 222 231 218 226 191 225 215 216 213 217 225 223 215 225 222 221 238 223 216 225 222 237 219 200 229 219 230
198 193 198 195 205 203 201 201 189 183 200 185 186 193 202 186 190 190 208 193 188 205 194 193 184 188 189 190 183 195 188 197 194 188 201 193 189 197 192 190 199 193 199 198 194 199 191 201 201 194 195 199 193 202 192 201 204 197 194 197 199 189 200 202 197 193 195 192 197 196 191 214 193 190 195 200 194 191 190 189 193 193 197 199 213 196 200 191 195 210 215 186 209 207 190 187 189 194 212 196 212 212 202 211 214 208 210 206 208 205 217 210 208 213 205 211 196 197 198 206
175 179 194 194 192 182 180 183 183 181 180 174 181 179 184 182 184 180 188 186 191 187 181 186 189 192 188 194 182 186 194 190 190 191 194 194 193 193 192 190 191 198 195 193 200 191 194 199 195 189 193 193 195 196 196 199 201 199 195 198 194 197 197 201 199 196 196 194 198 198 194 195 196 190 199 197 196 191 197 189 194 193 187 193 196 191 189 189 184 193 191 190 189 190 179 187 181 185 191 186 187 188 181 177 186 182 181 191 193 204 181 181 204 196 188 173 179 171 206 193
176 177 173 180 175 180 177 173 173 180 184 184 182 179 182 180 183 185 184 185 182 185 187 185 181 186 183 183 188 190 181 188 188 186 189 182 181 182 186 187 185 185 193 189 188 186 187 186 186 189 185 189 194 188 192 188 186 193 186 193 184 183 189 191 192 190 191 192 188 190 191 187 187 191 184 183 190 188 192 188 190 191 190 186 187 194 190 184 183 186 186 192 183 192 187 189 189 190 188 189 177 188 182 181 183 179 184 175 179 176 176 180 198 177 174 178 200 171 172 183
173 164 160 168 160 168 168 175 167 165 172 170 169 167 176 181 173 174 177 178 176 173 176 169 172 169 176 174 174 173 173 184 173 178 175 177 168 173 172 178 179 180 172 180 181 176 180 179 181 182 179 182 177 180 180 177 183 182 177 180 180 180 180 184 180 175 180 184 180 176 184 179 180 177 178 177 180 181 183 178 176 179 179 174 176 172 177 177 177 180 171 179 169 168 178 176 181 181 183 182 176 186 180 181 178 170 164 185 176 176 183 171 175 165 169 166 167 169 172 161
166 165 163 160 157 163 159 156 165 165 162 167 165 171 162 167 169 169 175 167 174 163 167 171 167 161 169 171 169 165 176 164 170 166 166 168 176 167 166 167 167 173 173 172 166 172 167 172 173 175 170 175 174 174 171 172 172 172 172 170 173 171 173 170 173 170 168 168 168 168 171 175 172 170 167 169 175 178 175 173 167 167 167 172 168 170 172 171 173 167 170 174 169 172 174 166 177 170 170 174 171 175 175 165 174 177 172 166 168 162 172 170 173 176 169 175 170 168 158 174
154 155 166 158 159 159 164 158 150 159 162 158 160 160 163 162 161 163 164 170 157 162 165 158 158 161 162 156 157 163 158 168 163 159 157 159 159 164 161 160 159 163 165 164 166 165 162 163 157 160 163 166 164 165 162 165 163 165 159 169 162 164 167 164 163 169 160 163 162 160 162 159 164 166 160 166 169 166 168 168 163 160 169 161 159 155 169 155 159 164 165 164 161 161 161 167 161 162 167 169 164 167 160 165 160 160 160 162 161 161 160 159 162 164 173 151 164 159 157 169
148 146 152 147 152 149 148 153 154 155 148 153 149 149 150 152 148 156 159 161 160 152 160 153 153 156 154 159 158 158 155 154 153 151 153 156 152 150 152 154 156 157 161 160 152 153 157 159 156 154 159 159 162 157 158 157 158 163 161 162 160 157 159 158 160 157 161 158 155 153 157 159 161 156 157 163 167 161 158 153 159 161 158 156 154 156 160 158 161 159 154 156 156 155 160 156 154 152 156 160 154 159 157 152 157 153 147 154 154 157 146 156 162 154 166 150 159 157 165 161
137 145 148 144 146 144 145 151 142 146 152 145 145 143 146 143 144 145 148 155 153 149 153 153 149 146 146 149 152 149 149 145 146 146 149 145 148 153 149 150 148 149 155 151 152 154 147 146 145 149 154 157 149 148 150 150 147 155 151 159 155 144 149 148 148 148 147 154 158 148 149 155 156 152 152 151 155 153 157 155 152 156 152 147 147 147 154 149 152 143 154 155 155 152 154 150 150 150 150 150 153 151 154 155 142 146 145 145 152 152 144 152 140 143 160 138 164 159 158 136
133 135 135 133 135 138 135 135 140 139 140 144 141 142 138 137 145 138 143 146 138 145 142 144 142 142 148 144 145 144 143 130 145 146 126 139 138 145 145 144 146 143 142 142 143 142 142 128 147 141 144 146 144 144 146 146 143 146 147 147 142 141 145 146 143 148 146 146 145 147 146 147 147 148 146 146 149 150 150 147 144 145 148 143 141 144 147 144 152 145 148 147 145 145 147 146 142 149 150 152 149 145 147 139 142 146 142 146 140 144 144 140 141 146 146 149 136 148 138 142
127 135 133 131 133 142 136 136 135 135 137 0 132 140 135 136 139 137 139 142 146 141 141 128 139 142 147 138 138 139 129 130 142 139 131 130 130 124 142 130 141 145 142 141 139 131 131 128 125 129 131 132 141 142 137 142 144 135 142 129 131 130 132 146 143 131 146 145 144 127 128 130 143 143 142 141 142 143 143 145 146 143 140 142 143 140 141 138 141 142 129 143 141 143 145 139 144 139 142 140 144 136 138 138 141 134 131 137 141 137 134 140 129 138 132 141 135 140 141 112
131 132 130 134 136 136 140 132 133 140 133 134 140 138 134 132 128 138 133 125 140 141 139 137 138 136 139 139 129 126 136 127 140 127 127 126 128 129 125 127 139 129 142 129 0 140 128 129 128 129 124 126 140 133 0 141 0 132 139 140 131 129 133 141 130 128 142 129 142 130 131 125 132 125 127 125 135 126 130 128 141 131 125 129 129 125 129 124 128 145 136 140 140 137 128 127 140 142 141 141 128 123 135 133 135 124 130 134 137 141 130 133 137 144 143 125 135 146 126 153
117 106 126 107 125 127 136 122 129 116 122 117 121 132 127 122 121 124 123 118 119 126 129 134 125 140 136 139 0 129 129 121 117 125 119 118 129 124 125 118 127 132 127 131 0 0 126 123 129 122 124 120 128 125 125 128 133 127 129 119 122 124 127 128 125 129 127 129 122 125 126 124 122 124 120 121 119 128 116 124 127 122 125 122 114 127 123 128 120 125 119 126 121 125 119 119 125 138 134 129 118 116 132 124 114 119 109 122 119 128 113 135 136 136 128 140 113 130 106 75
107 117 112 106 111 115 127 112 115 119 119 119 118 124 123 111 107 125 121 122 126 122 126 121 123 133 126 124 126 125 127 0 125 122 113 114 117 121 0 121 129 126 0 0 0 0 122 127 124 120 121 121 124 125 120 123 121 122 121 117 128 122 112 126 124 126 127 125 121 119 120 122 121 118 119 117 122 126 124 122 117 116 120 122 116 119 118 121 121 123 115 120 119 121 120 119 133 120 119 119 120 124 124 118 107 118 112 116 122 131 126 126 119 131 126 120 126 99 109 150
108 102 111 116 103 110 113 113 113 111 129 115 109 111 115 113 116 116 110 118 116 108 112 116 115 112 121 114 117 117 121 0 116 117 116 110 117 0 112 117 120 0 0 119 126 0 119 114 114 112 116 115 120 121 117 119 121 120 117 117 120 120 119 115 117 122 117 121 116 116 117 116 112 116 113 114 115 111 114 120 109 122 112 119 115 112 117 113 113 114 114 115 125 116 104 116 124 116 115 118 117 121 119 109 109 112 118 113 107 118 126 123 115 125 117 122 115 107 85 151
95 106 112 106 101 107 117 109 107 109 109 107 107 111 125 116 115 110 106 101 112 108 113 105 107 112 114 113 111 111 117 114 111 114 111 109 108 114 0 114 112 113 107 107 109 116 113 0 113 0 113 111 120 115 0 0 104 108 114 109 121 114 106 109 110 113 111 114 116 107 116 112 112 104 107 107 106 108 107 110 113 105 109 109 115 108 110 109 103 110 101 105 101 114 114 109 117 115 109 105 111 113 116 108 112 108 103 109 117 112 107 116 104 116 95 109 95 115 105 127
105 102 107 108 100 104 107 113 109 106 107 111 108 109 110 118 110 112 108 98 107 97 106 100 114 106 107 110 103 113 113 105 105 106 117 111 110 0 108 107 106 109 109 104 109 112 106 109 117 0 105 109 106 112 110 114 105 109 112 111 106 108 116 0 116 102 106 111 110 107 103 103 105 112 102 99 99 103 101 110 107 101 107 111 98 107 101 106 100 100 105 111 104 99 100 104 110 109 111 109 108 117 109 111 103 106 102 109 94 111 106 104 120 105 120 111 104 114 109 130
98 100 108 105 96 94 101 95 92 97 103 103 99 101 102 102 98 102 104 99 100 95 86 97 101 103 106 98 98 101 107 102 109 102 105 100 102 107 105 107 100 103 95 100 99 104 107 100 105 99 104 105 107 103 101 103 100 101 105 98 104 109 103 0 107 105 0 111 104 104 104 103 100 104 101 108 99 104 0 101 0 103 96 98 96 102 99 99 101 101 105 103 99 95 97 88 97 94 102 95 101 99 97 101 100 102 94 98 92 83 87 95 81 107 96 84 90 105 97 117
95 88 85 96 93 98 94 91 94 95 103 93 100 102 105 98 93 96 105 94 100 95 92 91 92 93 104 100 101 99 105 99 104 99 99 104 98 98 101 99 101 101 99 92 101 100 100 104 107 102 109 97 101 104 98 100 102 106 103 102 109 102 105 99 109 103 102 106 104 99 101 100 99 100 96 100 104 102 99 98 0 100 91 95 99 95 100 106 97 97 103 96 99 103 94 102 96 92 84 103 99 95 97 90 99 108 99 94 107 98 91 94 112 92 86 114 106 81 102 136
101 97 91 97 89 94 94 82 87 95 91 96 99 89 96 89 93 91 106 103 98 94 87 94 95 93 97 92 92 98 99 100 101 97 95 99 97 91 98 106 94 95 91 95 101 95 99 99 92 100 104 94 87 93 98 100 95 94 102 99 99 97 102 0 97 105 93 94 97 97 99 99 103 100 89 103 93 100 102 106 92 98 95 112 98 95 91 91 96 94 93 88 98 82 89 88 92 91 102 91 95 101 101 94 102 99 105 86 92 97 87 100 99 95 102 87 103 103 99 88
85 89 79 89 89 86 78 87 85 80 83 90 94 84 86 89 88 87 82 93 92 91 95 86 91 89 93 88 91 97 85 88 101 99 94 91 96 92 94 94 89 96 97 98 89 92 90 89 94 97 95 92 98 98 99 89 94 98 93 87 98 92 97 94 95 90 98 87 93 95 87 92 96 90 99 96 90 89 90 90 89 88 92 92 86 97 90 90 90 89 93 96 91 91 91 88 83 93 92 94 94 82 83 79 88 85 92 89 91 90 81 86 85 86 86 79 119 60 81 87
87 79 86 88 97 86 82 101 85 88 90 92 88 88 90 92 89 90 90 87 93 90 94 88 90 89 96 93 89 84 88 88 95 90 97 86 90 90 89 96 89 93 95 93 96 92 93 91 90 91 99 98 94 99 92 96 96 99 91 93 99 89 99 93 93 92 90 90 89 87 98 98 94 96 94 90 91 94 96 95 96 86 94 93 93 86 98 94 92 91 98 96 96 89 92 93 87 84 89 94 91 88 91 92 91 92 86 86 86 82 90 81 81 91 89 87 87 79 0 0
82 86 84 87 88 93 81 86 85 0 82 91 87 84 90 85 89 87 85 85 90 90 92 97 92 87 90 89 89 88 87 95 92 92 92 95 91 91 93 93 96 95 93 84 93 96 91 98 86 85 89 95 89 87 91 93 97 95 98 92 95 87 97 96 91 94 92 88 94 94 98 93 88 96 93 89 98 88 90 91 95 95 89 85 93 89 95 91 96 94 95 98 106 89 88 90 83 92 91 83 81 80 85 86 82 81 91 86 91 75 90 87 83 83 82 76 86 67 70 0
80 82 78 85 86 88 96 90 88 79 84 82 84 90 82 89 81 85 89 92 85 87 90 79 91 83 92 79 87 87 87 89 87 89 85 95 93 91 89 84 88 83 90 96 97 85 93 92 91 90 93 95 89 83 91 98 90 95 96 96 91 92 93 88 86 93 88 82 82 91 85 89 93 93 98 84 87 91 90 94 95 85 91 91 89 84 85 90 88 87 91 88 88 81 90 82 83 85 92 84 77 80 88 87 84 82 88 88 80 81 79 90 80 82 76 79 80 77 0 0
79 76 86 79 83 83 90 92 85 83 88 87 88 85 90 88 83 90 87 87 89 89 87 82 82 84 92 88 90 90 87 81 95 91 91 88 92 87 88 91 94 88 89 93 93 86 91 89 95 92 88 89 89 88 82 94 90 88 88 94 96 90 85 95 88 94 86 88 90 96 95 86 93 88 94 90 88 90 96 85 94 92 85 85 93 91 89 88 93 85 92 93 81 84 86 85 88 85 90 79 84 91 85 92 80 91 89 92 86 74 81 85 94 74 79 92 0 0 0 0
79 67 65 59 78 78 82 85 83 76 80 80 79 89 81 78 80 78 78 79 89 77 83 77 80 77 79 86 83 80 90 74 77 80 89 80 80 81 84 79 86 79 81 69 79 84 81 82 87 84 85 75 76 78 78 78 92 81 90 71 90 80 83 79 77 86 75 83 74 73 87 83 79 79 88 81 75 84 87 86 75 83 73 74 72 86 86 78 77 88 86 68 83 78 83 86 79 85 72 77 72 75 74 62 71 74 80 76 69 87 85 74 76 92 73 68 0 0 0 0
67 66 80 78 66 79 86 83 84 80 83 85 73 78 78 84 80 88 75 78 77 78 75 82 81 82 76 73 80 79 83 76 78 81 77 70 79 67 81 74 86 81 83 83 84 88 81 75 82 82 85 78 74 80 77 76 79 82 79 78 83 82 84 87 81 73 73 79 88 76 76 81 85 80 84 82 85 80 85 90 86 73 81 77 73 87 79 79 88 83 76 83 72 70 85 76 93 79 71 73 86 74 76 68 72 79 77 75 77 87 73 82 86 95 82 0 0 0 0 0
