0 0 0 0 0 0 0 0 0 0 0 0 0 0 0 0 0 0 0 0 0 0 0 0 0 0 0 0 0 0 0 0 0 0 0 0 0 0 0 0 0 0 0 0 0 0 0 0 0 0 0 0 0 0 0 0 0 0 0 0 0 0 0 0 0 0 0 0 0 0 0 0 0 0 0 0 0 0 0 0 0 0 0 0 0 0 0 0 0 0 0 0 0 0 0 0 0 0 0 0 0 0 0 0 0 0 0 0 0 0 0 0 0 0 0 0 0 0 0 0
0 0 0 0 0 0 0 0 0 0 0 0 0 0 0 0 0 0 0 0 0 0 0 0 0 0 0 0 0 0 0 0 0 0 0 0 0 0 0 0 0 0 0 0 0 0 0 0 0 0 0 0 0 0 0 0 0 0 0 0 0 0 0 0 0 0 0 0 0 0 0 0 0 0 0 0 0 0 0 0 0 0 0 0 0 0 0 0 0 0 0 0 0 0 0 0 0 0 0 0 0 0 0 0 0 0 0 0 0 0 0 0 0 0 0 0 0 0 0 0
0 0 0 0 0 0 0 0 0 0 0 0 0 0 0 0 0 1279 0 0 0 0 1259 0 0 0 0 0 0 0 0 0 0 0 0 0 0 0 0 0 0 0 0 0 0 0 0 0 0 0 0 0 0 0 0 0 0 0 0 0 0 0 0 0 0 0 0 0 0 0 0 0 0 0 0 0 0 0 0 0 0 0 0 0 0 0 0 0 0 0 0 0 0 0 0 0 0 0 0 0 0 0 0 0 0 0 0 0 0 0 0 0 0 0 0 0 0 0 0 0
0 0 0 0 0 0 0 0 0 0 0 1169 1152 1158 0 0 1311 1291 0 0 0 1274 1277 1302 0 0 0 0 0 0 0 0 0 0 0 0 0 0 0 0 0 0 0 0 0 0 0 0 0 0 0 0 0 0 0 0 0 0 0 0 0 0 0 0 0 0 0 0 0 0 0 0 0 0 0 0 0 0 0 0 0 0 0 0 0 0 0 0 0 0 0 0 0 0 0 0 0 0 0 0 0 0 0 0 0 0 0 0 0 0 0 0 0 0 0 0 0 0 0 0
0 0 0 0 0 0 0 0 1096 1142 1125 1135 1145 1182 1156 1201 1256 1266 1271 0 1256 1256 1233 0 0 0 0 0 0 0 0 0 0 0 0 0 0 0 0 0 0 0 0 0 0 0 0 0 0 0 0 0 0 0 0 0 0 0 0 0 0 0 0 0 0 0 0 0 0 0 0 0 0 0 0 0 0 0 0 0 0 0 0 0 0 0 0 0 0 0 0 0 0 0 0 0 0 0 0 0 0 0 0 0 0 0 0 0 0 0 0 0 0 0 0 0 0 0 0 0
0 0 0 0 0 0 0 1157 1146 1143 0 0 1178 1161 1201 1193 1267 1304 1281 1282 1305 1253 1282 1286 0 0 0 0 0 0 0 0 0 0 0 0 0 0 0 0 0 0 0 0 0 0 0 0 0 0 0 0 0 0 0 0 0 0 0 0 0 0 0 0 0 0 0 0 0 0 0 0 0 0 0 0 0 0 0 0 0 0 0 0 0 0 0 0 0 0 0 0 0 0 0 0 0 0 0 0 0 0 0 0 0 0 0 0 0 0 0 0 0 0 0 0 0 0 0 0
0 0 0 0 0 0 0 0 0 0 0 0 1187 1240 1240 1258 1260 1287 1275 1251 1281 1254 1234 1280 1293 0 0 0 0 0 0 1409 0 0 0 0 0 0 0 0 0 0 0 0 0 0 0 0 0 0 0 0 0 0 0 0 0 0 0 0 0 0 0 0 0 0 0 0 0 0 0 0 0 0 0 0 0 0 0 0 0 0 0 0 0 0 0 0 0 0 0 0 0 0 0 0 0 0 0 0 0 0 0 0 0 0 0 0 0 0 0 0 0 0 0 0 0 0 0 0
0 0 0 0 0 0 0 0 0 0 0 0 1267 1229 1265 1269 1269 1266 1241 1256 1233 1229 1260 1261 0 1284 1330 1348 1317 1358 0 1403 0 0 0 0 0 0 0 0 0 0 0 0 0 0 0 0 0 0 0 0 0 0 0 0 0 0 0 0 0 0 0 0 0 0 0 0 0 0 0 0 0 0 0 0 0 0 0 0 0 0 0 0 0 0 0 0 0 0 0 0 0 0 0 0 0 0 0 0 0 0 0 0 0 0 0 0 0 0 0 0 0 0 0 0 0 0 0 0
0 0 0 0 0 0 0 0 0 0 0 0 1241 1269 1262 1294 1273 1279 1258 1247 1242 1295 1264 1305 0 0 1347 1369 1376 1325 1359 1414 0 0 0 0 0 0 0 0 0 0 0 0 0 0 0 0 0 0 0 0 0 0 0 0 0 0 0 0 0 0 0 0 0 0 0 0 0 0 0 0 0 0 0 0 0 0 0 0 0 0 0 0 0 0 0 0 0 0 0 0 0 0 0 0 0 0 0 0 0 0 0 0 0 0 0 0 0 0 0 0 0 0 0 0 0 0 0 0
0 0 0 0 0 0 0 0 0 0 0 0 0 1316 1251 1272 1242 1248 1260 1253 1255 1242 1245 1261 1241 0 0 1311 1340 1352 1353 1417 1383 0 0 0 0 0 0 0 0 0 0 0 0 0 0 0 0 0 0 0 0 0 0 0 0 0 0 0 0 0 0 0 0 0 0 0 0 0 0 0 0 0 0 0 0 0 0 0 0 0 0 0 0 0 0 0 0 0 0 0 0 0 0 0 0 0 0 0 0 0 0 0 0 0 0 0 0 0 0 0 0 0 0 0 0 0 0 0
0 0 0 0 0 0 0 0 0 0 0 0 0 0 0 0 0 0 0 0 0 1290 1279 1249 1295 0 0 1346 1381 1344 1385 1386 1404 0 0 0 0 0 0 0 0 0 0 0 0 0 0 0 0 0 0 0 0 0 0 0 0 0 0 0 0 0 0 0 0 0 0 0 0 0 0 0 0 0 0 0 0 0 0 0 0 0 0 0 0 0 0 0 0 0 0 0 0 0 0 0 0 0 0 0 0 0 0 0 0 0 0 0 0 0 0 0 0 0 0 0 0 0 0 0
0 0 0 0 0 0 0 0 0 0 0 0 0 0 0 0 0 0 0 0 0 0 0 1385 1317 0 0 0 1345 1365 1359 1409 1458 0 0 0 0 0 0 0 0 0 0 0 0 0 0 0 0 0 0 0 0 0 0 0 0 0 0 0 0 0 0 0 0 0 0 0 0 0 0 0 0 0 0 0 0 0 0 0 0 0 0 0 0 0 0 0 0 0 0 0 0 0 0 0 0 0 0 0 0 0 0 0 0 0 0 1732 0 0 0 0 0 0 0 0 0 0 0 0
0 0 0 0 0 0 0 0 0 0 0 0 0 0 0 0 0 0 0 0 0 0 0 1390 1359 1315 1298 0 1350 1341 1360 1407 1420 0 0 0 0 0 0 0 0 0 0 0 0 0 0 0 0 0 0 0 0 0 0 0 0 0 0 0 0 0 0 0 0 0 0 0 0 0 0 0 0 0 0 0 0 0 0 0 0 0 0 0 0 0 0 0 0 0 0 0 0 0 0 0 0 0 0 0 0 0 0 0 0 0 1755 1701 1714 0 0 0 0 0 0 0 0 0 0 0
0 0 0 0 0 0 0 0 0 0 0 0 0 0 0 0 0 0 0 0 0 0 0 1425 1375 1368 1322 1313 1312 1352 1371 1385 1443 0 0 0 0 0 0 0 0 0 0 0 0 0 0 0 0 0 0 0 0 0 0 0 0 0 0 0 0 0 0 0 0 0 0 0 0 0 0 0 0 0 0 0 0 0 0 0 0 0 0 0 0 0 0 0 0 0 0 0 0 0 0 0 0 0 0 0 0 0 0 0 0 1779 1727 1702 0 1714 0 0 0 0 0 0 0 0 0 0
0 0 0 0 0 0 0 0 0 0 0 0 0 0 0 0 0 0 0 0 0 0 0 1375 1390 1365 1368 1347 1334 1308 1316 1435 1443 0 0 0 0 0 0 0 0 0 0 0 0 0 0 0 0 0 0 0 0 0 0 0 0 0 0 0 0 0 0 0 0 0 0 0 0 0 0 0 0 0 0 0 0 0 0 0 0 0 0 0 0 0 0 0 0 0 0 0 0 0 0 0 0 0 0 0 0 0 0 0 0 1752 1740 0 1703 0 0 0 0 0 0 0 0 0 0 0
0 0 0 0 0 0 0 0 0 0 0 0 0 0 0 0 0 0 0 0 0 0 0 1355 1355 1379 1378 1369 1349 1335 1328 1407 1415 0 0 0 0 0 0 0 0 0 0 0 0 0 0 0 0 0 0 0 0 0 0 0 0 0 0 0 0 0 0 0 0 0 0 0 0 0 0 0 0 0 0 0 0 0 0 0 0 0 0 0 0 0 0 0 0 0 0 0 0 0 0 0 0 0 0 0 0 0 0 0 0 0 0 1735 1682 0 0 0 0 0 0 0 0 0 0 0
1221 1238 1265 1275 1260 1321 1309 0 0 0 0 0 0 0 0 0 0 0 0 0 0 0 0 0 1365 1368 1372 1362 1383 1377 1358 1407 1410 0 0 0 0 0 0 0 0 0 0 0 0 0 0 0 0 0 0 0 0 0 0 0 0 0 0 0 0 0 0 0 0 0 0 0 0 0 0 0 0 0 0 0 0 0 0 0 0 0 0 0 0 0 0 0 0 0 0 0 0 0 0 0 0 0 0 0 0 0 0 0 1808 1709 1739 1677 1730 1711 0 0 0 0 0 0 0 0 0 0
1226 1254 1255 1260 1284 1301 1307 1292 1323 1322 1330 0 0 0 0 0 0 0 0 0 0 0 0 1341 1337 1346 1352 1367 1375 1360 1356 1404 1410 0 0 0 0 0 0 0 0 0 0 0 0 0 0 0 0 0 0 0 0 0 0 0 0 0 0 0 0 0 0 0 0 0 0 0 0 0 0 0 0 0 0 0 0 0 0 0 0 0 0 0 0 0 0 0 0 0 0 0 0 0 0 0 0 0 0 0 0 0 0 1723 1749 1736 1753 1674 1723 1712 1591 1654 0 0 0 0 0 0 0 0
1229 1277 1274 1282 1281 1289 1298 1311 1312 1339 1327 1368 1345 1397 1405 1473 1413 0 0 0 0 0 0 0 0 1361 0 0 1346 0 0 1415 1426 0 0 0 0 0 0 0 0 0 0 0 0 0 0 0 0 0 0 0 0 0 0 0 0 0 0 0 0 0 0 0 0 0 0 0 0 0 0 0 0 0 0 0 0 0 0 0 0 0 0 0 0 0 0 0 0 0 0 0 0 0 0 0 0 0 0 0 0 0 0 1750 1732 1750 1649 1715 1698 1650 1673 1633 0 0 0 0 0 0 0 0
0 0 0 0 1292 1286 1302 1290 1352 1338 1337 1363 1349 1378 1392 1430 1412 1423 1442 1434 0 0 0 0 0 0 0 0 0 0 0 1436 1414 1433 0 0 0 0 0 0 0 0 0 0 0 0 0 0 0 0 0 0 0 0 0 0 0 0 0 0 0 0 0 0 0 0 0 0 0 0 0 0 0 0 0 0 0 0 0 0 0 0 0 0 0 0 0 0 0 0 0 0 0 0 0 0 0 0 0 0 0 0 1828 1766 1755 1714 1699 1709 1719 1648 0 0 0 0 0 0 0 0 0 0
0 0 0 0 0 0 0 0 0 1317 1351 1349 1358 1366 1390 1394 1418 1442 1431 1457 1455 1478 0 0 0 0 0 0 0 0 0 1453 1489 1455 0 0 0 0 0 0 0 0 0 0 0 0 0 0 0 0 0 0 0 0 0 0 0 0 0 0 0 0 0 0 0 0 0 0 0 0 0 0 0 0 0 0 0 0 0 0 0 0 0 0 0 0 0 0 0 0 0 0 0 0 0 0 0 0 0 0 0 0 0 1763 1702 1658 1607 1592 1631 1554 1567 1583 1572 1530 1639 0 0 0 0 0
0 0 0 0 0 0 0 0 0 0 0 0 0 0 0 1378 1422 1421 1419 1468 1477 1461 0 0 0 0 0 0 0 0 0 0 1514 0 0 0 0 0 0 0 0 0 0 0 0 0 0 0 0 0 0 0 0 0 0 0 0 0 0 0 0 0 0 0 0 0 0 0 0 0 0 0 0 0 0 0 0 0 0 0 0 0 0 0 0 0 0 0 0 0 0 0 0 0 0 0 0 0 0 0 0 1738 1662 1633 1590 1629 1629 1577 1609 1570 1597 1609 1562 1654 1575 0 0 0 0 0
0 0 0 0 0 0 0 0 0 0 0 0 0 0 0 0 0 0 0 0 0 1516 0 0 0 0 0 0 0 0 0 0 0 0 0 0 0 0 0 0 0 0 0 0 0 0 0 0 0 0 0 0 0 0 0 0 0 0 0 0 0 0 0 0 0 0 0 0 0 0 0 0 0 0 0 0 0 0 0 0 0 0 0 0 0 0 0 0 0 0 0 0 0 0 0 0 0 0 0 0 0 1602 1581 1623 1595 1602 1596 1609 1588 1611 1616 1556 1564 1628 0 0 0 0 0 0
0 0 0 0 0 0 0 0 0 0 0 0 0 0 0 0 0 0 0 0 0 0 0 0 0 0 0 0 0 0 0 0 0 0 0 0 0 0 0 0 0 0 0 0 0 0 0 0 0 0 0 0 0 0 0 0 0 0 0 0 0 0 0 0 0 0 0 0 0 0 0 0 0 0 0 0 0 0 0 0 0 0 0 0 0 0 0 0 0 0 0 0 0 0 0 0 0 0 0 0 0 0 1574 1568 1563 1579 1590 1592 1569 1606 1575 1564 0 0 0 0 0 0 0 0
0 0 0 0 0 0 0 0 0 0 0 0 0 0 0 0 0 0 0 0 0 0 0 0 0 0 0 0 0 0 0 0 0 0 0 0 0 0 0 0 0 0 0 0 0 0 0 0 0 0 0 0 0 0 0 0 0 0 0 0 0 0 0 0 0 0 0 0 0 0 0 0 0 0 0 0 0 0 0 0 0 0 0 0 0 0 0 0 0 0 0 0 0 0 0 0 0 0 0 0 0 0 0 0 0 0 1570 1599 0 0 0 0 0 0 0 0 0 0 0 0
0 0 0 0 0 0 0 0 0 0 0 0 0 0 0 0 0 0 0 0 0 0 0 0 0 0 0 0 0 0 0 0 0 0 0 0 0 0 0 0 0 0 0 0 0 0 0 0 0 0 0 0 0 0 0 0 0 0 0 0 0 0 0 0 0 0 0 0 0 0 0 0 0 0 0 0 0 0 0 0 0 0 0 0 0 0 0 0 0 0 0 0 0 0 0 0 0 0 0 0 0 0 0 0 0 0 0 0 0 0 0 0 0 0 0 0 0 0 0 0
565 564 0 0 0 0 0 0 0 0 0 0 0 0 0 0 0 0 0 0 0 0 0 0 0 1877 1839 0 0 0 0 0 0 0 0 0 0 0 0 0 0 0 0 0 0 0 0 2926 2933 2953 2885 2940 2866 2880 2928 2949 2939 2948 2873 2917 0 2917 2934 2870 2895 2910 0 0 0 0 0 0 0 0 0 0 0 0 0 0 0 0 0 0 0 0 0 0 0 0 0 0 0 0 0 1705 1748 0 0 0 0 0 0 0 0 0 0 0 0 0 0 0 0 0 0 0 0 0 0 0
587 607 601 600 635 642 0 0 0 0 0 0 0 0 0 0 0 0 0 0 0 0 0 0 0 0 0 1899 1998 0 0 0 0 0 0 0 0 0 0 0 0 0 0 0 0 0 0 2887 2906 2886 2911 2892 2903 2904 2896 2899 2905 2896 2867 2917 2939 2934 2836 2864 2882 2859 0 0 0 0 0 0 0 0 0 0 0 0 0 0 0 0 0 0 0 0 0 0 0 0 0 0 0 0 0 0 0 0 0 0 0 0 0 0 0 0 0 0 0 0 0 0 0 0 0 0 0 0 0 0
578 589 586 603 608 637 639 637 679 0 0 0 0 0 0 0 0 0 0 0 0 0 0 0 0 0 0 0 0 0 0 0 0 0 0 0 0 0 0 0 0 0 0 0 0 0 0 2910 2928 2898 2942 2949 2918 2880 2961 2896 2883 2876 2917 2932 2917 2905 2860 2917 2910 2856 0 0 0 0 0 0 0 0 0 0 0 0 0 0 0 0 0 0 0 0 0 0 0 0 0 0 0 0 0 0 0 0 0 0 0 0 0 0 0 0 0 0 0 0 0 0 0 0 0 0 0 0 0 0
564 601 596 594 612 641 639 654 655 687 703 699 0 0 0 0 0 0 0 0 0 0 0 0 0 0 0 0 0 0 0 0 0 0 0 0 0 0 0 0 0 0 0 0 0 0 0 2927 2930 2902 2916 2948 2916 2908 2899 2946 2909 2904 2850 2919 2884 2947 2876 2893 2876 2866 0 0 0 0 0 0 0 0 0 0 0 0 0 0 0 0 0 0 0 0 0 0 0 0 0 0 0 0 0 0 0 0 0 0 0 0 0 0 0 0 0 0 0 0 0 0 0 0 0 0 0 0 0 0
600 605 572 616 629 617 630 624 662 678 690 695 708 742 710 0 0 0 0 0 0 0 0 0 0 0 0 0 0 0 0 0 0 0 0 0 0 0 0 0 0 0 0 0 0 0 0 2857 2923 2939 2934 2915 2924 2954 2920 2918 2884 2903 2957 2928 2875 2917 2906 2928 2851 2906 0 0 0 0 0 0 0 0 0 0 0 0 0 0 0 0 0 0 0 0 0 0 0 0 0 0 0 0 0 0 0 0 0 0 0 0 0 0 0 0 0 0 0 0 0 0 0 0 0 0 0 0 0 0
718 724 733 723 707 656 639 649 637 671 660 680 716 729 727 734 747 757 0 0 0 0 0 0 0 0 0 0 0 0 0 0 0 0 0 0 0 0 0 0 0 0 0 0 0 0 0 2934 2858 2936 2938 2943 2907 2941 2931 2964 2902 2922 2917 2913 2911 2905 2908 2891 2906 0 0 0 0 0 0 0 0 0 0 0 0 0 0 0 0 0 0 0 0 0 0 0 0 0 0 0 0 0 0 0 0 0 0 0 0 0 0 0 0 0 0 0 0 0 0 0 0 0 0 0 0 0 0 0
781 807 815 822 829 833 842 846 807 803 763 756 714 747 731 769 768 790 777 808 839 0 0 0 0 0 0 0 0 0 0 0 0 0 0 0 0 0 0 0 0 0 0 0 0 0 0 2887 2922 2912 2920 2886 2937 2904 2891 2919 2862 2874 2914 2897 2905 2873 2931 2851 2897 2882 0 0 0 0 0 0 0 0 0 0 0 0 0 0 0 0 0 0 0 0 0 0 0 0 0 0 0 0 0 0 0 0 0 0 0 0 0 0 0 0 0 0 0 0 0 0 0 0 0 0 0 0 0 0
762 792 808 831 834 836 874 888 874 895 908 916 917 887 870 808 766 789 802 801 835 837 842 860 0 0 0 0 0 0 0 0 0 0 0 0 0 0 0 0 0 0 0 0 0 0 0 2963 2920 2949 2922 2957 2976 2921 2915 2963 2873 2902 2909 2920 2894 2892 2925 2907 2904 2912 0 0 0 0 0 0 0 0 0 0 0 0 0 0 0 0 0 0 0 0 0 0 0 0 0 0 0 0 0 0 0 0 0 0 0 0 0 0 0 0 0 0 0 0 0 0 0 0 0 0 0 0 0 0
674 0 842 829 864 868 863 890 893 913 935 950 942 944 940 949 958 936 894 851 872 865 878 886 905 918 0 0 0 0 0 0 0 0 0 0 0 0 0 0 0 0 0 0 0 0 0 2888 2915 2901 2918 2894 2892 2874 2859 2911 2892 2890 2898 2862 2879 2876 2903 2877 2857 0 0 0 0 0 0 0 0 0 0 0 0 0 0 0 0 0 0 0 0 0 0 0 0 0 0 0 0 0 0 0 0 0 0 0 0 0 0 0 0 0 0 0 0 0 0 0 0 0 0 0 0 0 0 0
648 940 954 949 920 921 0 0 922 914 953 943 950 956 954 944 957 948 962 954 944 923 909 919 938 946 955 985 1035 0 0 0 0 0 0 0 0 0 0 0 0 0 0 0 0 0 0 2903 2901 2892 2880 2894 2906 2910 2922 2910 2973 2933 2865 2880 2869 2926 2881 2926 2928 2851 0 0 0 0 0 0 0 0 0 0 0 0 0 0 0 0 0 0 0 0 0 0 0 0 0 0 0 0 0 0 0 0 0 0 0 0 0 0 0 0 0 0 0 0 0 0 0 0 0 0 0 0 0 0
593 678 0 0 0 0 0 0 0 0 995 984 981 973 979 974 973 948 953 958 946 964 964 953 971 964 972 975 1011 1051 1095 0 0 0 0 0 0 0 0 0 0 0 0 0 0 0 0 2883 2897 2874 2947 2883 2877 2924 2890 2918 2866 2905 2905 2911 2916 2879 2873 2864 2914 2822 0 0 0 0 0 0 0 0 0 0 0 0 0 0 0 0 0 0 0 0 0 0 0 0 0 0 0 0 0 0 0 0 0 0 0 0 0 0 0 0 0 0 0 0 0 0 0 0 0 0 0 0 0 0
598 614 609 0 1098 1152 1158 1165 1152 1154 1143 1158 1169 1138 1146 1141 1101 1039 0 1016 1032 1062 1062 993 1030 1026 1141 1134 1125 1094 1072 0 0 0 0 0 0 0 0 0 0 0 0 0 0 0 0 2908 2910 2899 2885 2881 2895 2886 2886 2943 2936 2871 2856 2893 2875 2875 2884 2895 2871 2883 0 0 0 0 0 0 0 0 0 0 0 0 0 0 0 0 0 0 0 0 0 0 0 0 0 0 0 0 0 0 0 0 0 0 0 0 0 0 0 0 0 0 0 0 0 0 0 0 0 0 0 0 0 0
583 575 614 621 0 0 0 0 0 0 0 0 0 0 0 0 1435 1000 977 0 0 1167 1090 0 0 1108 1155 1148 1166 1157 1130 0 0 0 0 0 0 0 0 0 0 0 0 0 0 0 0 2886 2948 2879 2897 2935 2907 2902 2891 2897 2916 2885 2921 2883 2895 2935 2874 2893 2892 2933 0 0 0 0 0 0 0 0 0 0 0 0 0 0 0 0 0 0 0 0 0 0 0 0 0 0 0 0 0 0 0 0 0 0 0 0 0 0 0 0 0 0 0 0 0 0 0 0 0 0 0 0 0 0
594 596 605 623 602 0 0 0 0 0 0 0 0 0 0 0 0 966 969 0 0 0 0 0 0 0 0 0 0 0 0 0 0 0 0 0 0 0 0 0 0 0 0 0 0 0 0 2896 2931 2904 2919 2916 2911 2906 2877 2960 2866 2903 2924 2926 2910 2871 2933 2912 2891 0 0 0 0 0 0 0 0 0 0 0 0 0 0 0 0 0 0 0 0 0 0 0 0 0 0 0 0 0 0 0 0 0 0 0 0 0 0 0 0 0 0 0 0 0 0 0 0 0 0 0 0 0 0 0
581 608 608 620 625 623 0 0 0 0 0 0 0 0 0 0 0 0 0 0 0 0 0 0 0 0 0 0 0 0 0 0 0 0 0 0 0 0 0 0 0 0 0 0 0 0 0 2889 2900 2898 2904 2957 2883 2905 2866 2935 2899 2919 2878 2941 2891 2889 2898 2888 2842 0 0 0 0 0 0 0 0 0 0 0 0 0 0 0 0 0 0 0 0 0 0 0 0 0 0 0 0 0 0 0 0 0 0 0 0 0 0 0 0 0 0 0 0 0 0 0 0 0 0 0 0 0 0 0
559 570 596 598 585 602 0 0 0 0 0 0 0 0 0 0 0 0 0 0 0 0 912 0 0 0 0 0 0 0 0 0 0 0 0 0 0 0 0 0 0 0 0 0 0 0 0 2892 2911 2972 2887 2956 2918 2936 2940 2921 2901 2941 2909 2931 2935 2901 2957 2879 2913 0 0 0 0 0 0 0 0 0 0 0 0 0 0 0 0 0 0 0 0 0 0 0 0 0 0 0 0 0 0 0 0 0 0 0 0 0 0 0 0 0 0 0 0 0 0 0 0 0 0 0 0 0 0 0
573 606 592 619 604 576 0 0 0 0 0 0 0 0 0 0 0 0 0 0 0 0 940 0 0 0 0 0 0 0 0 0 0 0 0 0 0 0 0 0 0 0 0 0 0 0 0 2873 2985 2927 2909 2932 2885 2885 2943 2932 2943 2902 2921 2960 2875 2918 2867 2914 2884 0 0 0 0 0 0 0 0 0 0 0 0 0 0 0 0 0 0 0 0 0 0 0 0 0 0 0 0 0 0 0 0 0 0 0 0 0 0 0 0 0 0 0 0 0 0 0 0 0 0 0 0 0 0 0
604 605 632 632 588 615 610 0 0 0 0 0 0 0 0 0 0 0 0 0 0 0 937 0 0 0 0 0 0 0 0 0 0 0 0 0 0 0 0 0 0 0 0 0 0 0 0 2892 2865 2906 2870 2902 2878 2894 2838 2902 2899 2882 2877 2837 2920 2871 2888 2875 2894 2830 0 0 0 0 0 0 0 0 0 0 0 0 0 0 0 0 0 0 0 0 0 0 0 0 0 0 0 0 0 0 0 0 0 0 0 0 0 0 0 0 0 0 0 0 0 0 0 0 0 0 0 0 0 0
585 596 607 607 591 592 610 0 0 0 0 0 0 0 0 0 2290 0 0 0 0 0 966 1009 0 0 0 0 0 0 0 0 0 0 0 0 0 0 0 0 0 0 0 0 0 0 0 2898 2913 2939 2939 2860 2938 2888 2924 2925 2917 2897 2914 2878 2892 2886 2875 2880 2855 2838 0 0 0 0 0 0 0 0 0 0 0 0 0 0 0 0 0 0 0 0 0 0 0 0 0 0 0 0 0 0 0 0 0 0 0 0 0 0 0 0 0 0 0 0 0 0 0 0 0 0 0 0 0 0
597 607 592 601 603 623 651 0 0 0 0 0 0 0 0 0 0 0 0 0 0 0 0 0 0 0 0 0 0 0 0 0 0 0 0 0 0 0 0 0 0 0 0 0 0 0 0 2872 2898 2861 2913 2882 2896 2919 2905 2887 2907 2918 2889 2869 2879 2879 2862 2864 2877 2849 0 0 0 0 0 0 0 0 0 0 0 0 0 0 0 0 0 0 0 0 0 0 0 0 0 0 0 0 0 0 0 0 0 0 0 0 0 0 0 0 0 0 0 0 0 0 0 0 0 0 0 0 0 0
585 592 606 645 612 581 0 0 0 0 0 0 0 0 0 0 0 0 0 0 0 0 0 0 0 0 0 0 0 0 0 0 0 0 0 0 0 0 0 0 0 0 0 0 0 0 0 0 0 0 0 0 0 0 0 0 0 0 0 0 0 2917 3022 2911 2903 0 0 0 0 0 0 0 0 0 0 0 0 0 0 0 0 0 0 0 0 0 0 0 0 0 0 0 0 0 0 0 0 0 0 0 0 0 0 0 0 0 0 0 0 0 0 0 0 0 0 0 0 0 0 0
578 587 584 593 599 610 0 0 0 0 0 0 0 0 0 0 0 0 0 0 0 0 0 0 0 0 0 0 0 0 0 0 0 0 0 0 0 0 0 0 0 0 0 0 0 0 0 0 0 0 0 0 0 0 0 0 0 0 0 0 0 0 0 0 0 0 0 0 0 0 0 0 0 0 0 0 0 0 0 0 0 0 0 0 0 0 0 0 0 0 0 0 0 0 0 0 0 0 0 0 0 0 0 0 0 0 0 0 0 0 0 0 0 0 0 0 0 0 0 0
622 602 591 607 617 532 0 0 0 0 0 0 0 0 0 0 0 0 0 0 0 0 0 0 0 0 0 0 0 0 0 0 0 0 0 0 0 0 0 0 0 0 0 0 0 0 0 0 0 0 0 0 0 0 0 0 0 0 0 0 0 0 0 0 0 0 0 0 0 0 0 0 0 0 0 0 0 0 0 0 0 0 0 0 0 0 0 0 0 0 0 0 0 0 0 0 0 0 0 0 0 0 0 0 0 0 0 0 0 0 0 0 0 0 0 0 0 0 0 0
610 573 609 593 638 0 0 0 0 0 0 0 0 0 0 0 0 0 0 0 0 0 0 0 0 0 0 0 0 0 0 0 0 0 0 0 0 0 0 0 0 0 0 0 0 0 0 0 0 0 0 0 0 0 0 0 0 0 0 0 0 0 0 0 0 0 0 0 0 0 0 0 0 0 0 0 0 0 0 0 0 0 0 0 0 0 0 0 0 0 0 0 0 0 0 0 0 0 0 0 0 0 0 0 0 0 0 0 0 0 0 0 0 0 0 0 0 0 0 0
592 625 586 643 0 0 0 0 0 0 0 0 0 0 0 0 0 0 0 0 0 0 0 0 0 0 896 882 915 889 923 0 911 914 928 879 0 854 941 905 0 0 0 0 0 0 0 0 0 0 0 0 0 0 0 0 0 0 0 0 0 0 0 0 0 0 0 0 0 0 0 0 0 0 0 0 0 0 0 0 0 0 0 0 0 0 0 0 0 0 0 0 0 0 0 0 0 0 0 0 0 0 0 0 0 0 0 0 0 0 0 0 0 0 0 0 0 0 0 0
580 583 626 0 0 0 0 677 682 707 690 726 740 723 684 733 702 699 700 725 744 729 742 721 708 728 732 733 747 747 743 721 712 754 723 761 743 714 756 768 726 794 773 808 784 735 732 749 793 805 786 782 781 777 796 782 781 795 701 788 824 822 818 799 807 783 753 844 802 810 826 802 796 0 0 809 0 0 0 781 0 0 0 0 0 0 0 0 0 0 0 0 0 0 0 0 0 0 0 0 0 0 0 0 0 0 0 0 0 0 0 0 0 0 0 0 0 0 0 0
571 555 575 562 516 562 579 573 586 584 609 593 586 592 640 560 609 633 604 571 590 602 611 581 563 627 587 615 605 606 605 578 601 590 600 597 632 604 576 577 606 600 607 632 599 639 587 629 593 603 652 613 618 595 652 622 669 636 641 631 669 666 622 662 670 640 641 649 679 693 647 665 691 637 635 698 653 689 679 657 645 699 698 670 692 676 631 708 693 723 673 697 630 714 691 0 0 707 795 698 694 0 0 0 0 0 0 0 0 0 0 0 0 0 0 0 0 0 0 0
526 519 489 502 501 516 500 487 502 506 519 512 489 502 533 505 477 518 515 498 500 496 514 508 521 505 515 488 515 523 506 520 519 511 509 531 518 496 536 532 525 529 543 533 514 529 511 514 553 553 542 540 532 529 531 530 534 527 538 532 539 544 559 535 548 539 539 571 554 550 541 579 546 562 543 563 567 604 576 570 551 549 561 543 559 600 577 558 591 547 596 580 591 581 573 603 599 580 583 639 594 582 588 632 0 638 0 599 628 632 0 0 0 0 0 0 0 0 0 0
416 427 431 442 411 436 427 446 411 431 417 437 450 452 443 444 443 490 443 458 465 451 469 441 446 449 457 453 451 454 461 448 475 456 473 467 466 465 457 452 459 461 480 466 478 476 465 463 472 466 464 468 463 477 488 489 482 489 475 486 483 493 470 488 462 474 487 489 480 490 476 495 481 463 490 502 486 474 475 491 488 486 476 484 480 473 513 506 466 502 475 493 461 481 497 505 506 480 508 495 485 502 490 497 528 502 496 491 504 489 495 505 0 0 0 0 0 0 0 0
392 385 390 387 387 387 398 420 411 388 388 398 393 416 394 391 420 391 412 399 401 396 415 407 398 406 394 405 409 407 400 409 417 416 411 419 414 412 423 410 409 412 420 415 414 425 415 420 422 425 410 416 419 415 420 413 408 419 434 420 420 427 423 422 423 438 413 441 427 431 431 438 432 437 426 417 428 433 429 428 429 417 442 441 439 439 443 442 417 433 445 442 417 434 444 442 440 422 441 451 432 417 447 422 432 418 443 439 433 438 420 430 412 437 0 0 0 0 0 0
341 355 360 353 343 364 360 369 350 371 374 356 357 357 369 363 351 366 369 362 352 362 359 374 369 373 354 371 378 358 382 376 380 369 360 370 377 373 369 371 381 370 368 379 375 369 387 376 380 371 375 385 386 375 372 388 375 374 375 384 391 386 389 372 382 379 378 389 382 383 389 402 386 401 387 384 398 392 382 393 407 381 402 394 401 399 370 389 390 398 405 391 383 374 390 382 394 378 401 399 392 392 405 390 397 380 397 391 379 386 397 379 386 362 392 362 0 0 0 0
325 319 335 328 341 319 340 334 333 335 333 344 341 340 345 338 354 335 339 338 338 335 344 320 343 345 349 339 344 332 346 340 332 338 332 345 351 337 332 341 338 350 349 339 340 342 345 337 338 351 345 343 351 347 336 337 349 343 345 353 342 337 346 341 348 342 341 357 354 345 351 348 339 346 354 352 348 342 347 349 338 345 347 345 348 348 349 350 346 344 348 351 357 339 357 338 343 360 357 362 343 366 362 339 359 345 350 360 375 372 369 347 336 380 351 343 316 0 0 0
298 297 318 289 301 295 304 312 302 306 310 297 303 296 301 296 309 298 309 298 291 312 310 299 296 299 305 306 302 301 301 305 295 313 304 307 314 311 313 309 304 322 311 310 313 314 315 320 313 307 307 314 313 320 315 319 318 313 316 309 309 313 312 320 316 319 318 317 316 313 310 319 316 319 313 321 314 310 315 322 321 323 318 314 317 327 335 321 318 326 325 323 322 323 307 334 339 313 334 340 336 324 328 313 330 333 303 336 354 331 320 318 318 317 342 331 308 342 355 0
271 275 270 280 272 282 271 289 279 276 278 278 282 291 281 288 274 289 290 294 285 283 284 277 279 282 283 284 280 270 281 277 285 280 280 281 280 281 286 289 280 281 285 279 278 293 289 293 288 289 291 280 287 288 286 290 284 282 282 299 284 288 279 292 295 289 287 279 294 294 292 291 292 287 283 287 285 288 286 289 292 292 282 295 292 292 287 289 295 293 290 298 300 306 303 303 291 293 301 306 294 300 310 304 288 304 304 292 299 289 308 298 303 303 279 294 313 278 293 311
250 249 264 252 259 250 251 252 261 256 249 255 243 254 262 250 255 261 255 245 265 259 257 245 255 258 258 261 255 256 258 262 251 265 261 262 267 266 265 265 264 259 267 270 272 265 267 260 268 272 266 259 261 264 264 256 265 264 266 274 272 262 272 268 278 265 265 271 279 269 267 262 263 267 263 271 266 262 263 266 264 273 266 271 275 268 264 271 265 271 264 269 268 277 263 260 270 270 284 278 263 269 269 267 287 266 275 278 282 291 261 268 276 285 275 256 266 262 254 260
231 231 238 234 234 230 239 234 235 235 234 241 233 248 238 243 240 237 243 237 233 245 239 246 244 243 237 233 245 248 237 246 245 243 244 242 248 247 248 250 250 242 247 245 244 251 248 246 241 252 255 245 245 251 250 245 244 244 248 251 256 249 256 243 256 249 254 251 244 257 254 250 249 253 243 256 248 256 249 249 242 246 251 243 249 258 256 255 246 246 245 254 251 241 252 253 254 247 250 249 252 247 257 255 256 247 253 258 257 253 250 235 256 248 244 254 255 252 235 243
216 220 215 215 223 226 223 218 220 216 218 228 228 230 226 224 220 222 227 226 225 222 226 234 235 226 223 227 227 227 224 224 231 230 231 233 227 220 229 231 226 227 229 220 243 229 233 232 232 236 233 229 229 231 221 230 229 230 235 232 229 241 232 229 235 232 231 234 234 235 233 230 236 232 228 229 235 225 229 232 245 227 234 230 234 229 234 234 235 237 234 232 236 228 224 236 231 236 241 238 240 235 232 238 238 228 235 227 232 238 235 229 232 241 236 239 229 213 214 237
207 211 217 219 215 209 205 203 211 216 210 209 209 223 211 215 217 211 215 215 212 213 197 212 212 215 196 215 211 215 213 217 212 214 219 196 220 202 192 214 215 216 211 217 218 215 216 222 216 222 214 221 217 220 206 220 223 217 219 219 217 224 222 226 221 218 226 217 204 222 204 220 224 204 220 219 224 218 223 217 223 228 223 227 224 221 225 226 215 219 223 219 223 221 218 225 222 210 221 220 223 214 218 232 225 220 218 221 221 232 227 224 214 222 228 219 218 231 230 227
191 197 204 202 208 204 201 197 187 183 185 200 187 205 187 189 203 190 205 189 190 193 192 191 187 185 191 192 192 193 197 195 192 192 197 187 185 195 189 189 194 192 194 197 194 192 193 194 201 198 191 201 191 200 200 193 198 194 193 195 194 200 195 193 191 200 197 192 196 196 195 196 198 201 189 191 201 197 199 190 190 197 212 198 193 215 212 190 210 194 213 198 207 206 209 187 189 194 214 196 211 211 189 193 213 193 204 209 203 208 220 211 211 215 202 178 175 200 198 211
178 176 189 193 193 179 197 178 182 181 183 178 179 179 199 175 184 187 180 184 179 186 181 185 189 181 191 181 184 183 191 189 190 192 194 191 195 193 192 186 196 195 194 196 189 197 192 189 197 197 194 196 193 198 195 196 200 195 200 200 201 201 195 199 201 196 201 196 197 196 198 195 196 191 192 195 197 194 193 192 195 194 196 184 187 195 192 192 193 184 192 184 180 188 177 188 181 181 188 188 203 184 184 188 191 177 184 185 202 205 198 175 181 171 198 179 186 187 195 169
172 176 166 178 181 173 171 180 175 182 181 184 175 185 178 184 185 184 185 185 186 185 185 187 182 188 183 187 183 190 184 181 187 184 187 191 183 186 185 182 187 184 187 190 191 187 187 191 187 190 188 188 185 186 192 189 194 195 188 197 181 190 188 191 187 187 192 191 190 188 188 188 188 191 187 183 190 185 188 181 190 191 186 187 192 192 189 188 185 185 187 189 183 186 187 189 188 182 187 182 184 183 183 176 175 183 180 175 182 173 176 178 181 186 173 169 202 178 171 179
172 170 158 172 166 167 169 173 168 166 170 171 170 169 177 172 174 178 177 181 178 175 173 170 173 175 174 173 172 179 171 177 178 179 177 176 172 174 174 175 176 173 182 177 183 177 180 174 179 183 181 183 177 180 182 180 180 178 180 183 177 177 183 178 176 177 179 184 176 176 178 176 173 175 184 181 182 184 181 181 176 180 173 176 180 181 183 176 178 177 180 180 184 178 182 178 174 174 183 173 179 185 177 181 175 167 173 176 174 177 174 175 177 174 181 171 174 177 171 152
164 161 164 164 159 163 159 158 165 165 163 171 167 167 164 170 170 172 175 169 169 164 170 167 166 166 166 166 165 178 171 169 166 168 166 168 169 167 174 169 164 167 171 175 172 176 168 168 179 169 167 171 174 171 169 171 171 173 171 168 170 174 171 174 174 174 168 169 169 168 173 174 173 171 168 174 173 173 168 169 168 170 168 169 167 170 177 174 175 170 172 169 168 167 170 171 172 166 165 170 167 169 162 170 172 170 175 167 162 167 168 166 171 174 172 165 175 170 169 167
158 159 166 164 163 160 163 156 158 162 159 162 160 157 166 160 159 165 165 167 159 168 166 161 161 163 161 159 164 161 166 166 163 162 158 162 164 157 156 161 165 163 163 160 163 163 162 162 160 168 163 166 165 164 163 165 163 168 161 168 161 162 165 163 169 164 159 165 169 163 165 160 163 168 164 168 170 165 167 168 164 159 164 161 163 164 164 159 163 169 166 165 160 163 161 163 161 156 168 167 171 159 164 167 165 163 167 158 164 161 163 162 176 164 173 161 170 168 168 181
145 146 149 145 152 149 143 151 154 160 153 150 145 151 149 149 151 155 152 157 158 153 154 156 158 159 152 152 157 158 155 157 154 156 152 150 151 152 153 153 154 153 159 160 154 152 155 158 153 156 156 158 156 155 156 157 156 152 161 162 164 158 156 161 157 157 157 162 157 156 154 158 155 159 155 161 163 163 162 150 161 159 158 156 156 158 161 159 156 155 155 158 153 157 159 159 153 154 155 156 157 158 154 160 157 154 154 147 154 158 153 156 157 155 155 147 148 150 165 128
139 143 144 141 149 148 146 147 151 148 149 149 146 147 152 142 147 148 141 150 156 148 149 151 152 149 145 156 147 148 145 151 145 147 150 142 147 151 151 145 155 155 151 157 152 147 153 150 149 155 150 151 150 155 148 149 153 155 149 157 151 156 154 151 150 149 150 155 155 148 149 153 150 159 154 152 158 160 154 152 151 153 150 150 146 147 155 153 157 151 151 153 158 151 157 152 148 152 153 154 155 156 154 156 153 151 146 153 151 150 154 155 162 149 168 143 140 151 144 146
137 137 136 137 139 137 138 142 139 135 141 140 141 139 135 138 146 141 143 144 144 141 138 140 137 146 147 144 143 141 138 142 143 145 141 138 144 144 142 148 147 149 145 145 145 146 142 128 143 147 143 142 143 144 143 147 144 147 147 144 146 143 143 145 146 143 149 145 142 143 146 148 148 148 146 148 147 152 150 146 144 144 144 140 141 142 146 146 146 144 147 149 147 143 148 144 143 144 150 149 146 144 148 139 142 146 142 145 144 143 142 133 149 138 140 142 145 147 144 141
128 134 130 130 133 141 137 137 134 135 139 0 129 136 132 136 138 138 140 141 143 139 140 135 140 141 0 139 137 127 140 126 128 129 141 139 139 128 128 140 141 147 141 136 140 140 140 139 126 127 141 141 141 141 142 133 141 135 141 131 132 131 132 146 144 142 139 143 141 138 131 140 128 144 142 143 140 143 144 145 145 138 138 139 141 138 138 141 140 141 129 141 141 145 141 140 138 141 141 143 142 141 141 139 140 134 133 138 146 136 132 131 135 136 142 140 129 128 129 114
128 129 124 135 138 135 143 130 134 142 136 134 139 138 139 133 133 137 138 134 140 140 140 141 139 137 140 137 138 125 127 126 138 128 125 127 124 126 128 128 139 128 140 129 0 139 140 131 126 124 127 128 131 133 0 140 0 132 140 139 143 123 145 140 138 127 140 130 133 128 123 129 130 129 141 128 133 129 140 131 141 138 125 125 129 126 136 124 139 138 124 140 138 140 138 126 143 141 141 139 138 124 136 142 135 135 121 133 130 131 137 140 129 138 142 133 144 131 159 129
117 102 114 103 128 127 136 133 126 113 123 114 116 120 123 132 123 130 122 122 117 128 129 134 125 139 136 139 0 136 128 119 121 122 123 122 128 128 124 119 137 129 130 129 0 0 127 125 126 121 117 122 129 126 125 128 132 129 128 122 122 121 128 127 128 127 128 130 122 124 127 121 126 128 116 127 120 137 123 124 130 129 125 126 113 137 121 129 128 125 123 126 127 126 123 117 122 140 127 127 120 120 122 119 116 120 118 131 123 118 114 132 135 129 131 137 126 142 131 128
112 120 109 109 113 119 130 117 117 116 116 116 117 121 120 113 113 122 122 119 125 123 127 132 126 131 128 123 125 124 127 0 124 123 117 111 114 122 0 123 128 125 0 0 0 0 123 123 122 121 123 123 125 121 124 125 120 120 124 119 126 121 116 124 119 124 126 127 117 121 122 124 129 121 120 118 121 126 126 121 122 117 120 122 120 119 122 112 126 121 114 120 116 125 119 120 124 121 120 123 119 116 121 117 113 115 121 117 119 133 131 135 127 126 132 127 108 103 110 117
105 99 110 115 115 110 117 110 108 111 128 113 113 112 115 113 118 116 110 115 117 110 113 117 118 112 122 115 117 118 125 0 118 118 113 111 114 0 114 117 120 0 0 118 123 0 122 118 113 112 112 116 121 118 120 121 118 118 114 119 120 121 120 120 122 117 118 114 121 117 116 119 115 117 114 113 118 115 119 117 108 114 120 117 115 112 115 120 115 114 121 120 119 112 107 118 127 119 111 115 117 120 113 112 115 113 127 111 123 120 108 126 117 130 119 123 127 105 96 135
95 95 105 100 99 101 116 113 102 111 108 103 107 107 120 115 115 114 106 101 112 109 109 101 108 109 112 112 111 114 117 115 109 114 113 109 106 115 111 115 113 114 111 109 108 112 115 0 113 0 113 113 115 115 0 0 108 110 117 114 127 113 107 110 110 108 110 110 117 109 114 108 109 103 109 106 108 103 103 112 111 106 112 104 110 104 107 106 104 113 108 111 101 114 111 115 110 112 109 105 104 111 117 105 107 108 107 109 108 118 109 104 92 93 101 99 101 88 110 86
101 97 107 109 105 100 110 107 107 107 108 111 111 107 112 116 113 113 114 104 107 97 106 104 114 108 112 110 109 117 109 108 105 108 115 112 114 0 103 110 106 108 111 102 111 103 107 106 114 0 112 107 110 113 112 113 105 112 113 110 111 110 118 0 115 111 105 108 110 111 103 103 103 118 101 103 104 103 103 112 107 102 111 110 106 106 101 107 107 105 102 108 102 101 98 102 104 109 109 103 99 112 111 109 106 105 104 112 98 119 109 94 131 107 116 105 107 129 119 112
94 91 105 106 96 93 94 94 94 94 101 102 101 100 105 105 94 106 106 99 100 101 95 102 104 101 106 100 100 106 107 108 101 99 106 98 108 104 104 103 105 102 98 98 100 100 102 100 101 100 103 104 103 103 99 103 104 98 103 102 101 107 104 0 112 103 0 112 101 105 104 102 97 103 105 103 99 102 0 98 0 103 91 100 95 101 98 102 98 99 103 106 96 106 95 90 94 98 98 101 100 107 93 101 91 106 100 99 97 94 100 100 99 108 105 96 86 116 103 105
90 89 83 92 91 91 96 91 95 96 99 98 96 96 102 99 96 95 108 100 98 91 93 94 96 94 104 97 101 97 107 99 108 99 103 100 103 100 99 99 101 100 100 92 101 97 103 98 104 102 110 99 94 99 97 102 102 107 101 103 105 99 103 100 108 105 105 105 106 102 101 106 102 99 94 97 100 97 99 98 0 100 95 89 99 96 102 105 90 94 96 102 96 102 92 100 92 95 85 106 100 90 98 90 93 102 99 92 101 100 93 99 116 89 100 124 95 87 95 116
90 97 93 95 89 95 92 88 87 97 91 90 96 93 91 86 93 92 104 104 101 93 81 90 94 93 99 97 92 97 96 96 102 96 95 104 96 93 93 108 97 89 90 90 98 96 101 103 93 99 98 92 87 94 92 97 91 95 96 93 96 94 103 0 98 99 95 95 100 94 96 101 101 105 84 103 99 96 100 101 95 95 85 107 105 96 90 94 95 97 87 92 98 79 93 89 93 87 101 88 96 94 102 93 97 94 103 81 97 80 97 92 90 86 91 97 103 114 111 85
82 80 79 88 86 87 88 86 85 87 85 89 92 84 84 81 86 83 81 89 93 89 93 93 93 87 100 92 91 94 86 91 97 95 95 92 86 94 96 90 87 97 96 89 88 97 90 90 90 97 90 89 89 86 96 97 92 98 84 92 90 92 88 91 89 94 92 92 93 93 86 92 98 90 87 96 91 94 87 94 88 92 86 88 94 96 90 90 94 88 91 90 92 90 91 94 94 91 86 85 86 81 90 79 92 78 83 93 90 84 80 85 83 87 92 88 70 75 88 122
93 79 81 84 92 85 94 99 84 90 84 88 84 85 91 90 88 81 93 87 90 95 96 85 93 90 91 87 89 88 90 91 96 88 94 95 94 88 88 98 90 93 96 94 94 97 94 96 92 96 96 97 94 90 95 95 98 90 98 90 90 95 94 89 89 92 89 90 85 91 96 87 96 97 95 97 92 94 84 91 94 84 92 88 93 96 92 94 91 89 94 96 97 84 90 87 86 93 92 94 90 91 88 93 91 94 85 90 90 82 87 91 85 79 100 81 78 73 0 0
82 88 85 84 83 89 77 88 83 0 82 80 83 88 80 82 91 89 85 90 92 92 92 96 89 94 88 87 90 95 89 85 90 86 94 92 95 88 94 91 83 88 94 87 97 87 95 97 92 85 91 92 94 91 97 86 92 95 98 96 96 98 91 95 88 90 95 95 95 94 89 83 96 93 95 88 88 88 97 82 96 93 89 88 94 93 82 93 97 85 92 97 99 89 87 87 92 92 87 85 92 80 81 85 81 83 94 83 89 85 86 76 85 89 83 80 81 110 86 0
76 78 76 85 88 84 95 87 87 78 80 79 87 89 88 88 84 87 87 82 88 89 92 83 87 85 90 84 91 90 87 84 90 89 85 89 88 92 90 91 91 96 97 90 87 86 93 96 92 94 94 96 95 83 96 95 91 97 96 95 90 94 94 87 83 89 82 86 90 91 85 96 95 97 93 85 89 93 93 89 90 83 89 92 86 92 90 85 87 81 92 87 84 86 86 79 88 86 85 79 77 79 88 81 87 80 90 82 86 89 70 86 88 85 64 81 59 66 0 0
81 76 80 78 84 82 93 99 81 85 86 76 89 87 89 86 81 89 89 89 91 91 88 82 80 93 86 83 91 94 88 84 90 89 89 87 88 86 86 89 94 83 87 96 92 90 94 91 96 94 93 88 84 89 87 95 92 94 89 95 91 93 87 96 86 96 87 84 89 90 90 90 95 83 91 83 88 92 93 84 89 87 88 82 91 89 88 88 87 91 90 92 82 87 89 83 88 85 85 87 84 90 81 87 80 90 85 92 87 61 79 96 85 88 86 58 0 0 0 0
77 70 63 61 79 80 84 82 80 76 83 81 81 89 79 77 81 79 78 77 87 75 87 87 77 74 78 86 84 80 91 76 81 84 89 80 82 81 83 82 82 82 79 72 75 85 77 85 85 78 84 84 74 86 81 86 88 86 89 75 83 81 82 78 78 87 75 81 79 81 85 86 82 75 84 79 79 83 88 92 79 83 70 76 75 88 79 74 81 85 83 75 81 77 79 72 85 75 70 81 70 74 83 63 71 72 78 79 70 75 74 78 61 80 74 92 0 0 0 0
66 63 79 81 66 87 87 87 80 76 80 84 74 75 82 88 87 83 76 79 74 81 75 84 82 81 77 71 82 81 80 76 83 86 86 67 79 77 82 83 89 83 88 88 81 90 82 78 84 82 83 72 79 78 82 78 78 86 83 75 81 82 81 84 73 76 80 72 93 75 75 82 85 83 81 85 78 80 83 85 79 82 75 80 72 80 77 78 79 73 72 86 67 72 79 74 89 81 75 77 85 71 80 69 72 74 70 78 80 72 80 55 64 82 69 0 0 0 0 0
