0 0 0 0 0 0 0 0 0 0 0 0 0 0 0 0 0 0 0 0 0 0 0 0 0 0 0 0 0 0 0 0 0 0 0 0 0 0 0 0 0 0 0 0 0 0 0 0 0 0 0 0 0 0 0 0 0 0 0 0 0 0 0 0 0 0 0 0 0 0 0 0 0 0 0 0 0 0 0 0 0 0 0 0 0 0 0 0 0 0 0 0 0 0 0 0 0 0 0 0 0 0 0 0 0 0 0 0 0 0 0 0 0 0 0 0 0 0 0 0
0 0 0 0 0 0 0 0 0 0 0 0 0 0 0 0 0 0 0 0 0 0 0 0 0 0 0 0 0 0 0 0 0 0 0 0 0 0 0 0 0 0 0 0 0 0 0 0 0 0 0 0 0 0 0 0 0 0 0 0 0 0 0 0 0 0 0 0 0 0 0 0 0 0 0 0 0 0 0 0 0 0 0 0 0 0 0 0 0 0 0 0 0 0 0 0 0 0 0 0 0 0 0 0 0 0 0 0 0 0 0 0 0 0 0 0 0 0 0 0
0 0 0 0 0 0 0 0 0 0 0 0 0 0 0 0 1331 1288 0 0 0 0 0 0 0 0 0 0 0 0 0 0 0 0 0 0 0 0 0 0 0 0 0 0 0 0 0 0 0 0 0 0 0 0 0 0 0 0 0 0 0 0 0 0 0 0 0 0 0 0 0 0 0 0 0 0 0 0 0 0 0 0 0 0 0 0 0 0 0 0 0 0 0 0 0 0 0 0 0 0 0 0 0 0 0 0 0 0 0 0 0 0 0 0 0 0 0 0 0 0
0 0 0 0 0 0 0 0 0 0 0 1147 1133 1172 0 0 1275 1289 1325 0 0 1283 1267 0 0 0 0 0 0 0 0 0 0 0 0 0 0 0 0 0 0 0 0 0 0 0 0 0 0 0 0 0 0 0 0 0 0 0 0 0 0 0 0 0 0 0 0 0 0 0 0 0 0 0 0 0 0 0 0 0 0 0 0 0 0 0 0 0 0 0 0 0 0 0 0 0 0 0 0 0 0 0 0 0 0 0 0 0 0 0 0 0 0 0 0 0 0 0 0 0
0 0 0 0 0 0 0 1099 1086 1117 1113 1118 1121 1145 1153 0 1236 1291 1236 1264 1246 1271 1264 0 0 0 0 0 0 0 0 0 0 0 0 0 0 0 0 0 0 0 0 0 0 0 0 0 0 0 0 0 0 0 0 0 0 0 0 0 0 0 0 0 0 0 0 0 0 0 0 0 0 0 0 0 0 0 0 0 0 0 0 0 0 0 0 0 0 0 0 0 0 0 0 0 0 0 0 0 0 0 0 0 0 0 0 0 0 0 0 0 0 0 0 0 0 0 0 0
0 0 0 0 0 0 0 1105 1118 1128 0 0 1175 1195 1146 1190 1266 1244 1292 0 1245 1253 1267 1265 0 0 0 0 0 0 0 0 0 0 0 0 0 0 0 0 0 0 0 0 0 0 0 0 0 0 0 0 0 0 0 0 0 0 0 0 0 0 0 0 0 0 0 0 0 0 0 0 0 0 0 0 0 0 0 0 0 0 0 0 0 0 0 0 0 0 0 0 0 0 0 0 0 0 0 0 0 0 0 0 0 0 0 0 0 0 0 0 0 0 0 0 0 0 0 0
0 0 0 0 0 0 0 0 0 0 0 0 1200 1235 1272 1283 1256 1277 1297 1286 1228 1258 1240 1279 1298 0 0 0 0 0 0 1438 0 0 0 0 0 0 0 0 0 0 0 0 0 0 0 0 0 0 0 0 0 0 0 0 0 0 0 0 0 0 0 0 0 0 0 0 0 0 0 0 0 0 0 0 0 0 0 0 0 0 0 0 0 0 0 0 0 0 0 0 0 0 0 0 0 0 0 0 0 0 0 0 0 0 0 0 0 0 0 0 0 0 0 0 0 0 0 0
0 0 0 0 0 0 0 0 0 0 0 0 1242 1293 1220 1238 1252 1271 1258 1265 1272 1235 1282 1275 0 1304 1309 1362 1372 0 0 1441 0 0 0 0 0 0 0 0 0 0 0 0 0 0 0 0 0 0 0 0 0 0 0 0 0 0 0 0 0 0 0 0 0 0 0 0 0 0 0 0 0 0 0 0 0 0 0 0 0 0 0 0 0 0 0 0 0 0 0 0 0 0 0 0 0 0 0 0 0 0 0 0 0 0 0 0 0 0 0 0 0 0 0 0 0 0 0 0
0 0 0 0 0 0 0 0 0 0 0 0 1288 1325 1274 1273 1310 1291 1281 1322 1282 1284 1285 1295 0 0 1381 1377 1382 1366 1380 1436 0 0 0 0 0 0 0 0 0 0 0 0 0 0 0 0 0 0 0 0 0 0 0 0 0 0 0 0 0 0 0 0 0 0 0 0 0 0 0 0 0 0 0 0 0 0 0 0 0 0 0 0 0 0 0 0 0 0 0 0 0 0 0 0 0 0 0 0 0 0 0 0 0 0 0 0 0 0 0 0 0 0 0 0 0 0 0 0
0 0 0 0 0 0 0 0 0 0 0 0 0 1285 1278 1280 1275 1285 1273 1265 1237 1282 1242 1264 1268 0 0 1335 1347 1356 1346 1395 1397 0 0 0 0 0 0 0 0 0 0 0 0 0 0 0 0 0 0 0 0 0 0 0 0 0 0 0 0 0 0 0 0 0 0 0 0 0 0 0 0 0 0 0 0 0 0 0 0 0 0 0 0 0 0 0 0 0 0 0 0 0 0 0 0 0 0 0 0 0 0 0 0 0 0 0 0 0 0 0 0 0 0 0 0 0 0 0
0 0 0 0 0 0 0 0 0 0 0 0 0 0 0 0 0 0 0 0 0 1284 1270 1250 1274 0 0 1344 1340 1340 1378 1402 1442 0 0 0 0 0 0 0 0 0 0 0 0 0 0 0 0 0 0 0 0 0 0 0 0 0 0 0 0 0 0 0 0 0 0 0 0 0 0 0 0 0 0 0 0 0 0 0 0 0 0 0 0 0 0 0 0 0 0 0 0 0 0 0 0 0 0 0 0 0 0 0 0 0 0 0 0 0 0 0 0 0 0 0 0 0 0 0
0 0 0 0 0 0 0 0 0 0 0 0 0 0 0 0 0 0 0 0 0 0 0 1363 1316 0 0 1320 1321 1334 1348 1399 1414 0 0 0 0 0 0 0 0 0 0 0 0 0 0 0 0 0 0 0 0 0 0 0 0 0 0 0 0 0 0 0 0 0 0 0 0 0 0 0 0 0 0 0 0 0 0 0 0 0 0 0 0 0 0 0 0 0 0 0 0 0 0 0 0 0 0 0 0 0 0 0 0 0 0 1724 0 0 0 0 0 0 0 0 0 0 0 0
0 0 0 0 0 0 0 0 0 0 0 0 0 0 0 0 0 0 0 0 0 0 0 1385 1363 1309 1239 1301 1336 1331 1329 1404 1426 0 0 0 0 0 0 0 0 0 0 0 0 0 0 0 0 0 0 0 0 0 0 0 0 0 0 0 0 0 0 0 0 0 0 0 0 0 0 0 0 0 0 0 0 0 0 0 0 0 0 0 0 0 0 0 0 0 0 0 0 0 0 0 0 0 0 0 0 0 0 0 0 0 1761 0 0 0 0 0 0 0 0 0 0 0 0 0
0 0 0 0 0 0 0 0 0 0 0 0 0 0 0 0 0 0 0 0 0 0 0 1379 1389 1365 1312 1319 1293 1303 1350 1387 1437 0 0 0 0 0 0 0 0 0 0 0 0 0 0 0 0 0 0 0 0 0 0 0 0 0 0 0 0 0 0 0 0 0 0 0 0 0 0 0 0 0 0 0 0 0 0 0 0 0 0 0 0 0 0 0 0 0 0 0 0 0 0 0 0 0 0 0 0 0 0 0 0 1753 1792 0 0 0 0 0 0 0 0 0 0 0 0 0
0 0 0 0 0 0 0 0 0 0 0 0 0 0 0 0 0 0 0 0 0 0 0 1397 1360 1383 1388 1349 1297 1343 1362 1411 1454 0 0 0 0 0 0 0 0 0 0 0 0 0 0 0 0 0 0 0 0 0 0 0 0 0 0 0 0 0 0 0 0 0 0 0 0 0 0 0 0 0 0 0 0 0 0 0 0 0 0 0 0 0 0 0 0 0 0 0 0 0 0 0 0 0 0 0 0 0 0 0 0 1792 0 0 0 0 0 0 1712 0 0 0 0 0 0 0
0 0 0 0 0 0 0 0 0 0 0 0 0 0 0 0 0 0 0 0 0 0 0 1352 1356 1387 1372 1372 1342 1325 1358 1409 1422 0 0 0 0 0 0 0 0 0 0 0 0 0 0 0 0 0 0 0 0 0 0 0 0 0 0 0 0 0 0 0 0 0 0 0 0 0 0 0 0 0 0 0 0 0 0 0 0 0 0 0 0 0 0 0 0 0 0 0 0 0 0 0 0 0 0 0 0 0 0 0 0 1812 1717 1769 1715 0 0 0 0 0 0 0 0 0 0 0
1273 1263 1302 1319 1306 1335 1351 0 0 0 0 0 0 0 0 0 0 0 0 0 0 0 0 0 1362 1374 1370 1397 1392 1401 1376 1443 1458 0 0 0 0 0 0 0 0 0 0 0 0 0 0 0 0 0 0 0 0 0 0 0 0 0 0 0 0 0 0 0 0 0 0 0 0 0 0 0 0 0 0 0 0 0 0 0 0 0 0 0 0 0 0 0 0 0 0 0 0 0 0 0 0 0 0 0 0 0 0 0 1784 1796 1756 1731 1727 1727 1727 1664 0 0 0 0 0 0 0 0
1239 1249 1283 1280 1267 1313 1284 1325 1318 1336 1361 0 0 0 0 0 0 0 0 0 0 0 0 1386 1350 1358 1364 1371 1390 1359 1398 1404 1427 0 0 0 0 0 0 0 0 0 0 0 0 0 0 0 0 0 0 0 0 0 0 0 0 0 0 0 0 0 0 0 0 0 0 0 0 0 0 0 0 0 0 0 0 0 0 0 0 0 0 0 0 0 0 0 0 0 0 0 0 0 0 0 0 0 0 0 0 0 0 1823 0 0 1757 1727 1687 1684 1702 0 0 0 0 0 0 0 0 0
1262 1259 1269 1272 1289 1304 1323 1310 1346 1339 1360 1352 1350 1408 1391 1428 0 0 0 0 0 0 0 0 0 1376 0 0 1358 0 0 1428 1416 0 0 0 0 0 0 0 0 0 0 0 0 0 0 0 0 0 0 0 0 0 0 0 0 0 0 0 0 0 0 0 0 0 0 0 0 0 0 0 0 0 0 0 0 0 0 0 0 0 0 0 0 0 0 0 0 0 0 0 0 0 0 0 0 0 0 0 0 0 0 1819 1792 1777 1724 1750 1716 1738 1678 0 0 0 0 0 0 0 0 0
0 0 0 0 1270 1282 1297 1298 1308 1313 1325 1355 1357 1387 1366 1397 1404 1405 1415 1442 1452 0 0 0 0 0 0 0 0 0 0 1430 1408 1407 0 0 0 0 0 0 0 0 0 0 0 0 0 0 0 0 0 0 0 0 0 0 0 0 0 0 0 0 0 0 0 0 0 0 0 0 0 0 0 0 0 0 0 0 0 0 0 0 0 0 0 0 0 0 0 0 0 0 0 0 0 0 0 0 0 0 0 0 0 1761 1794 1723 1710 1653 1617 1592 1607 0 0 0 0 0 0 0 0 0
0 0 0 0 0 0 0 0 0 1328 1309 1344 1345 1356 1377 1401 1390 1424 1412 1417 1452 1453 0 0 0 0 0 0 0 0 0 1424 1441 1452 0 0 0 0 0 0 0 0 0 0 0 0 0 0 0 0 0 0 0 0 0 0 0 0 0 0 0 0 0 0 0 0 0 0 0 0 0 0 0 0 0 0 0 0 0 0 0 0 0 0 0 0 0 0 0 0 0 0 0 0 0 0 0 0 0 0 0 0 0 1663 1602 1592 1586 1576 1590 1571 1582 1569 1535 1497 0 0 0 0 0 0
0 0 0 0 0 0 0 0 0 0 0 0 0 0 0 1397 1426 1400 1439 1441 1417 1489 0 0 0 0 0 0 0 0 0 0 1497 0 0 0 0 0 0 0 0 0 0 0 0 0 0 0 0 0 0 0 0 0 0 0 0 0 0 0 0 0 0 0 0 0 0 0 0 0 0 0 0 0 0 0 0 0 0 0 0 0 0 0 0 0 0 0 0 0 0 0 0 0 0 0 0 0 0 0 1647 1593 1590 1640 1626 1619 1605 1594 1597 1611 1588 1574 1579 0 0 0 0 0 0 0
0 0 0 0 0 0 0 0 0 0 0 0 0 0 0 0 0 0 0 0 0 1474 0 0 0 0 0 0 0 0 0 0 0 0 0 0 0 0 0 0 0 0 0 0 0 0 0 0 0 0 0 0 0 0 0 0 0 0 0 0 0 0 0 0 0 0 0 0 0 0 0 0 0 0 0 0 0 0 0 0 0 0 0 0 0 0 0 0 0 0 0 0 0 0 0 0 0 0 0 1624 1633 1625 1640 1603 1580 1599 1614 1579 1623 1571 1591 0 0 0 0 0 0 0 0 0
0 0 0 0 0 0 0 0 0 0 0 0 0 0 0 0 0 0 0 0 0 0 0 0 0 0 0 0 0 0 0 0 0 0 0 0 0 0 0 0 0 0 0 0 0 0 0 0 0 0 0 0 0 0 0 0 0 0 0 0 0 0 0 0 0 0 0 0 0 0 0 0 0 0 0 0 0 0 0 0 0 0 0 0 0 0 0 0 0 0 0 0 0 0 0 0 0 0 0 1616 1634 1606 1584 1597 1577 1588 1592 1593 1575 1552 0 0 0 0 0 0 0 0 0 0
0 0 0 0 0 0 0 0 0 0 0 0 0 0 0 0 0 0 0 0 0 0 0 0 0 0 0 0 0 0 0 0 0 0 0 0 0 0 0 0 0 0 0 0 0 0 0 0 0 0 0 0 0 0 0 0 0 0 0 0 0 0 0 0 0 0 0 0 0 0 0 0 0 0 0 0 0 0 0 0 0 0 0 0 0 0 0 0 0 0 0 0 0 0 0 0 0 0 0 0 0 1606 1643 1610 1617 1628 1653 0 0 0 0 0 0 0 0 0 0 0 0 0
0 0 0 0 0 0 0 0 0 0 0 0 0 0 0 0 0 0 0 0 0 0 0 0 0 0 0 0 0 0 0 0 0 0 0 0 0 0 0 0 0 0 0 0 0 0 0 0 0 0 0 0 0 0 0 0 0 0 0 0 0 0 0 0 0 0 0 0 0 0 0 0 0 0 0 0 0 0 0 0 0 0 0 0 0 0 0 0 0 0 0 0 0 0 0 0 0 0 0 0 0 0 0 0 0 0 0 0 0 0 0 0 0 0 0 0 0 0 0 0
576 595 0 0 0 0 0 0 0 0 0 0 0 0 0 0 0 0 0 0 0 0 0 0 0 1831 1845 0 0 0 0 0 0 0 0 0 0 0 0 0 0 0 0 0 0 0 0 2893 2901 2887 2910 2934 2888 2940 2880 2888 2859 2912 2860 2949 2859 2891 2936 2882 2857 2874 0 0 0 0 0 0 0 0 0 0 0 0 0 0 0 0 0 0 0 0 0 0 0 0 0 0 0 0 0 0 0 0 0 0 0 0 0 0 0 0 0 0 0 0 0 0 0 0 0 0 0 0 0 0
570 605 597 589 636 674 0 0 0 0 0 0 0 0 0 0 0 0 0 0 0 0 0 0 0 0 0 1937 1920 0 0 0 0 0 0 0 0 0 0 0 0 0 0 0 0 0 0 2827 2892 2904 2894 2895 2909 2866 2866 2870 2859 2901 2863 2843 2868 2882 2884 2876 2892 2910 0 0 0 0 0 0 0 0 0 0 0 0 0 0 0 0 0 0 0 0 0 0 0 0 0 0 0 0 0 0 0 0 0 0 0 0 0 0 0 0 0 0 0 0 0 0 0 0 0 0 0 0 0 0
553 562 579 593 604 609 649 659 657 0 0 0 0 0 0 0 0 0 0 0 0 0 0 0 0 0 0 0 0 0 0 0 0 0 0 0 0 0 0 0 0 0 0 0 0 0 0 2958 2922 2937 2913 2937 2872 2946 2946 2956 3007 2914 2872 2887 2940 2893 2880 2959 2935 0 0 0 0 0 0 0 0 0 0 0 0 0 0 0 0 0 0 0 0 0 0 0 0 0 0 0 0 0 0 0 0 0 0 0 0 0 0 0 0 0 0 0 0 0 0 0 0 0 0 0 0 0 0 0
568 586 592 600 629 641 627 658 657 669 682 656 0 0 0 0 0 0 0 0 0 0 0 0 0 0 0 0 0 0 0 0 0 0 0 0 0 0 0 0 0 0 0 0 0 0 0 2957 2916 2919 2928 2936 2934 2916 2948 2914 2917 2934 2868 2898 2905 2873 2934 2929 2892 2940 0 0 0 0 0 0 0 0 0 0 0 0 0 0 0 0 0 0 0 0 0 0 0 0 0 0 0 0 0 0 0 0 0 0 0 0 0 0 0 0 0 0 0 0 0 0 0 0 0 0 0 0 0 0
555 577 593 594 642 631 623 643 644 675 679 679 675 697 711 0 0 0 0 0 0 0 0 0 0 0 0 0 0 0 0 0 0 0 0 0 0 0 0 0 0 0 0 0 0 0 0 2959 2916 2920 2913 2931 2908 2921 2933 2933 2936 2866 2910 2888 2919 2942 2953 2972 2934 2946 0 0 0 0 0 0 0 0 0 0 0 0 0 0 0 0 0 0 0 0 0 0 0 0 0 0 0 0 0 0 0 0 0 0 0 0 0 0 0 0 0 0 0 0 0 0 0 0 0 0 0 0 0 0
731 738 760 744 713 640 675 676 674 662 678 691 707 738 714 756 758 767 0 0 0 0 0 0 0 0 0 0 0 0 0 0 0 0 0 0 0 0 0 0 0 0 0 0 0 0 0 2944 2930 2971 2898 2915 2900 2905 2953 2934 2953 2884 2912 2943 2924 2984 2965 2900 2912 2948 0 0 0 0 0 0 0 0 0 0 0 0 0 0 0 0 0 0 0 0 0 0 0 0 0 0 0 0 0 0 0 0 0 0 0 0 0 0 0 0 0 0 0 0 0 0 0 0 0 0 0 0 0 0
778 812 807 850 852 863 855 819 840 806 794 739 743 735 726 755 785 776 802 807 851 0 0 0 0 0 0 0 0 0 0 0 0 0 0 0 0 0 0 0 0 0 0 0 0 0 0 2919 2877 2835 2879 2899 2851 2866 2861 2917 2873 2845 2898 2849 2859 2883 2865 2890 2905 2845 0 0 0 0 0 0 0 0 0 0 0 0 0 0 0 0 0 0 0 0 0 0 0 0 0 0 0 0 0 0 0 0 0 0 0 0 0 0 0 0 0 0 0 0 0 0 0 0 0 0 0 0 0 0
829 821 833 843 841 867 879 898 910 921 935 913 942 923 882 834 816 802 812 840 867 896 898 913 0 0 0 0 0 0 0 0 0 0 0 0 0 0 0 0 0 0 0 0 0 0 0 2885 2852 2873 2876 2871 2877 2854 2882 2852 2896 2839 2866 2891 2827 2854 2841 2821 2864 2858 0 0 0 0 0 0 0 0 0 0 0 0 0 0 0 0 0 0 0 0 0 0 0 0 0 0 0 0 0 0 0 0 0 0 0 0 0 0 0 0 0 0 0 0 0 0 0 0 0 0 0 0 0 0
625 0 853 858 856 868 874 901 905 927 932 950 957 958 957 952 935 921 899 879 852 875 883 886 917 940 0 0 0 0 0 0 0 0 0 0 0 0 0 0 0 0 0 0 0 0 0 2865 2824 2886 2885 2921 2881 2896 2845 2907 2883 2882 2839 2877 2868 2902 2872 2851 2871 2867 0 0 0 0 0 0 0 0 0 0 0 0 0 0 0 0 0 0 0 0 0 0 0 0 0 0 0 0 0 0 0 0 0 0 0 0 0 0 0 0 0 0 0 0 0 0 0 0 0 0 0 0 0 0
677 924 950 934 963 901 900 914 914 925 945 941 958 959 954 953 956 952 950 950 941 928 942 904 915 954 973 987 1027 0 0 0 0 0 0 0 0 0 0 0 0 0 0 0 0 0 0 2924 2901 2951 2889 2882 2881 2880 2868 2890 2867 2931 2871 2842 2868 2874 2853 2891 2849 2896 0 0 0 0 0 0 0 0 0 0 0 0 0 0 0 0 0 0 0 0 0 0 0 0 0 0 0 0 0 0 0 0 0 0 0 0 0 0 0 0 0 0 0 0 0 0 0 0 0 0 0 0 0 0
584 661 0 0 0 0 0 0 0 0 932 978 942 980 957 966 961 954 929 929 945 947 943 948 948 955 974 986 985 1006 0 0 0 0 0 0 0 0 0 0 0 0 0 0 0 0 0 2935 2948 2936 2918 2928 2953 2954 2944 2922 2900 2957 2960 2947 2949 2952 2899 2914 2912 0 0 0 0 0 0 0 0 0 0 0 0 0 0 0 0 0 0 0 0 0 0 0 0 0 0 0 0 0 0 0 0 0 0 0 0 0 0 0 0 0 0 0 0 0 0 0 0 0 0 0 0 0 0 0
567 589 582 0 1140 1126 1153 1166 1159 1157 1151 1166 1158 1159 1164 1149 1122 1042 0 0 1017 1079 1070 973 1018 1011 1134 1115 1118 1114 1093 0 0 0 0 0 0 0 0 0 0 0 0 0 0 0 0 2939 3003 2910 2958 2959 2915 2940 2926 2931 2945 2905 2901 2922 2955 2901 2893 2932 2897 2874 0 0 0 0 0 0 0 0 0 0 0 0 0 0 0 0 0 0 0 0 0 0 0 0 0 0 0 0 0 0 0 0 0 0 0 0 0 0 0 0 0 0 0 0 0 0 0 0 0 0 0 0 0 0
571 582 578 594 0 0 0 0 0 0 0 0 0 0 0 0 1412 1010 965 0 1109 1110 1118 0 0 1117 1143 1150 1142 1135 1129 0 0 0 0 0 0 0 0 0 0 0 0 0 0 0 0 2954 2943 2922 2945 2957 2982 2900 2931 2940 2933 2918 2912 2904 2864 2924 2945 2931 2913 0 0 0 0 0 0 0 0 0 0 0 0 0 0 0 0 0 0 0 0 0 0 0 0 0 0 0 0 0 0 0 0 0 0 0 0 0 0 0 0 0 0 0 0 0 0 0 0 0 0 0 0 0 0 0
583 598 580 595 592 0 0 0 0 0 0 0 0 0 0 0 0 938 973 0 0 0 0 0 0 0 0 0 0 0 0 0 0 0 0 0 0 0 0 0 0 0 0 0 0 0 0 2951 2915 2960 2900 2909 2993 2963 2917 2897 2928 2969 2987 2924 2910 2911 2932 2932 2962 0 0 0 0 0 0 0 0 0 0 0 0 0 0 0 0 0 0 0 0 0 0 0 0 0 0 0 0 0 0 0 0 0 0 0 0 0 0 0 0 0 0 0 0 0 0 0 0 0 0 0 0 0 0 0
596 610 635 615 630 644 0 0 0 0 0 0 0 0 0 0 0 0 0 0 0 0 0 0 0 0 0 0 0 0 0 0 0 0 0 0 0 0 0 0 0 0 0 0 0 0 0 2886 2927 2871 2923 2871 2849 2888 2870 2874 2884 2872 2845 2866 2876 2879 2873 2877 2871 0 0 0 0 0 0 0 0 0 0 0 0 0 0 0 0 0 0 0 0 0 0 0 0 0 0 0 0 0 0 0 0 0 0 0 0 0 0 0 0 0 0 0 0 0 0 0 0 0 0 0 0 0 0 0
607 616 622 607 600 643 0 0 0 0 0 0 0 0 0 0 0 0 0 0 0 0 979 0 0 0 0 0 0 0 0 0 0 0 0 0 0 0 0 0 0 0 0 0 0 0 0 2888 0 2849 2847 2824 2864 2865 2848 2839 2838 2825 2832 2864 2854 2861 2864 2845 2831 2855 0 0 0 0 0 0 0 0 0 0 0 0 0 0 0 0 0 0 0 0 0 0 0 0 0 0 0 0 0 0 0 0 0 0 0 0 0 0 0 0 0 0 0 0 0 0 0 0 0 0 0 0 0 0
590 619 597 620 603 614 625 0 0 0 0 0 0 0 0 0 0 0 0 0 0 0 973 0 0 0 0 0 0 0 0 0 0 0 0 0 0 0 0 0 0 0 0 0 0 0 0 2855 2898 2869 2924 2915 2854 2914 2893 2881 2914 2878 2846 2907 2884 2885 2882 2797 2889 2842 0 0 0 0 0 0 0 0 0 0 0 0 0 0 0 0 0 0 0 0 0 0 0 0 0 0 0 0 0 0 0 0 0 0 0 0 0 0 0 0 0 0 0 0 0 0 0 0 0 0 0 0 0 0
584 588 623 637 612 606 625 0 0 0 0 0 0 0 0 0 0 0 0 0 0 0 0 0 0 0 0 0 0 0 0 0 0 0 0 0 0 0 0 0 0 0 0 0 0 0 0 2866 2922 2857 2894 2932 2896 2887 2892 2899 2878 2883 2887 2879 2858 2889 2870 2871 2872 0 0 0 0 0 0 0 0 0 0 0 0 0 0 0 0 0 0 0 0 0 0 0 0 0 0 0 0 0 0 0 0 0 0 0 0 0 0 0 0 0 0 0 0 0 0 0 0 0 0 0 0 0 0 0
577 578 616 625 629 591 570 0 0 0 0 0 0 0 0 0 2265 0 0 0 0 0 919 946 0 0 0 0 0 0 0 0 0 0 0 0 0 0 0 0 0 0 0 0 0 0 0 2955 2940 2877 2939 2882 2944 2857 2948 2895 2899 2919 2862 2951 2900 2849 2906 2893 2886 2828 0 0 0 0 0 0 0 0 0 0 0 0 0 0 0 0 0 0 0 0 0 0 0 0 0 0 0 0 0 0 0 0 0 0 0 0 0 0 0 0 0 0 0 0 0 0 0 0 0 0 0 0 0 0
566 592 593 571 593 604 573 0 0 0 0 0 0 0 0 0 0 0 0 0 0 0 0 0 0 0 0 0 0 0 0 0 0 0 0 0 0 0 0 0 0 0 0 0 0 0 0 2932 2925 2947 2921 2935 2905 2920 2958 2958 2903 2911 2912 2904 2884 2885 2901 2901 2886 2895 0 0 0 0 0 0 0 0 0 0 0 0 0 0 0 0 0 0 0 0 0 0 0 0 0 0 0 0 0 0 0 0 0 0 0 0 0 0 0 0 0 0 0 0 0 0 0 0 0 0 0 0 0 0
556 581 584 588 592 567 0 0 0 0 0 0 0 0 0 0 0 0 0 0 0 0 0 0 0 0 0 0 0 0 0 0 0 0 0 0 0 0 0 0 0 0 0 0 0 0 0 0 0 0 0 0 0 0 0 0 0 0 0 0 0 0 3058 2917 2921 0 0 0 0 0 0 0 0 0 0 0 0 0 0 0 0 0 0 0 0 0 0 0 0 0 0 0 0 0 0 0 0 0 0 0 0 0 0 0 0 0 0 0 0 0 0 0 0 0 0 0 0 0 0 0
578 615 608 592 600 577 0 0 0 0 0 0 0 0 0 0 0 0 0 0 0 0 0 0 0 0 0 0 0 0 0 0 0 0 0 0 0 0 0 0 0 0 0 0 0 0 0 0 0 0 0 0 0 0 0 0 0 0 0 0 0 0 0 0 0 0 0 0 0 0 0 0 0 0 0 0 0 0 0 0 0 0 0 0 0 0 0 0 0 0 0 0 0 0 0 0 0 0 0 0 0 0 0 0 0 0 0 0 0 0 0 0 0 0 0 0 0 0 0 0
603 620 606 609 619 0 0 0 0 0 0 0 0 0 0 0 0 0 0 0 0 0 0 0 0 0 0 0 0 0 0 0 0 0 0 0 0 0 0 0 0 0 0 0 0 0 0 0 0 0 0 0 0 0 0 0 0 0 0 0 0 0 0 0 0 0 0 0 0 0 0 0 0 0 0 0 0 0 0 0 0 0 0 0 0 0 0 0 0 0 0 0 0 0 0 0 0 0 0 0 0 0 0 0 0 0 0 0 0 0 0 0 0 0 0 0 0 0 0 0
595 599 629 593 663 0 0 0 0 0 0 0 0 0 0 0 0 0 0 0 0 0 0 0 0 0 0 0 0 0 0 0 0 0 0 0 0 0 0 0 0 0 0 0 0 0 0 0 0 0 0 0 0 0 0 0 0 0 0 0 0 0 0 0 0 0 0 0 0 0 0 0 0 0 0 0 0 0 0 0 0 0 0 0 0 0 0 0 0 0 0 0 0 0 0 0 0 0 0 0 0 0 0 0 0 0 0 0 0 0 0 0 0 0 0 0 0 0 0 0
600 621 615 596 0 0 0 0 0 0 0 0 0 0 0 0 0 0 0 0 0 0 0 0 0 0 911 888 905 868 916 913 886 909 906 904 925 932 936 912 952 939 909 0 934 0 0 0 0 0 0 0 0 0 0 0 0 0 0 0 0 0 0 0 0 0 0 0 0 0 0 0 0 0 0 0 0 0 0 0 0 0 0 0 0 0 0 0 0 0 0 0 0 0 0 0 0 0 0 0 0 0 0 0 0 0 0 0 0 0 0 0 0 0 0 0 0 0 0 0
611 593 0 0 0 0 0 707 704 716 696 707 697 730 708 729 744 740 700 786 692 679 742 714 708 729 712 688 740 683 720 782 790 747 730 769 728 729 775 741 734 737 766 756 738 804 767 759 771 797 741 796 781 770 805 790 811 788 770 808 736 830 768 785 779 808 771 806 818 866 828 837 819 0 801 0 0 0 0 0 0 0 0 0 0 0 0 0 0 0 0 0 0 0 0 0 0 0 0 0 0 0 0 0 0 0 0 0 0 0 0 0 0 0 0 0 0 0 0 0
557 527 527 571 573 560 586 582 559 564 576 574 578 562 606 579 579 579 580 598 545 562 577 600 579 570 551 567 577 560 627 609 590 627 607 615 602 583 585 560 581 601 629 596 602 574 606 568 638 582 640 608 612 595 625 619 637 626 636 640 627 634 625 622 591 649 634 622 649 624 632 660 620 625 651 634 670 600 623 687 666 631 660 680 673 649 617 695 633 685 711 684 672 651 663 0 663 682 652 689 711 754 0 0 0 0 0 0 0 0 0 0 0 0 0 0 0 0 0 0
487 477 488 465 485 481 489 481 497 509 492 507 476 507 484 494 475 479 526 502 499 499 500 532 492 503 499 489 490 493 498 513 505 497 534 512 500 531 509 502 510 512 508 523 532 510 539 506 520 516 509 533 519 526 515 525 537 544 533 531 536 529 545 535 552 520 530 526 536 568 565 555 521 538 549 525 551 514 537 522 537 563 529 539 529 575 570 549 544 575 557 599 568 540 593 532 575 570 592 591 553 565 524 534 0 541 0 623 540 546 0 0 0 0 0 0 0 0 0 0
412 419 401 432 430 431 422 430 442 428 421 444 432 433 455 435 430 443 427 435 444 428 443 446 451 446 446 442 457 455 434 469 457 446 447 459 462 464 457 456 471 453 450 459 466 468 452 466 471 470 484 464 483 473 478 482 479 474 479 468 464 487 484 484 473 463 478 472 488 472 476 470 485 487 472 501 475 467 472 486 476 479 493 474 483 481 496 477 451 462 474 480 489 488 509 483 502 478 494 502 479 499 448 517 491 487 515 482 483 480 496 523 0 0 0 0 0 0 0 0
374 377 381 398 394 398 389 387 393 387 394 390 398 406 388 406 407 398 397 390 404 396 400 401 409 400 409 414 397 406 414 409 408 422 419 403 406 424 426 408 409 413 410 403 402 407 408 415 434 411 416 420 420 416 431 420 420 416 418 423 413 433 413 420 424 425 425 410 432 411 426 410 426 406 428 412 423 431 436 414 420 429 426 438 413 430 414 430 432 436 416 433 417 423 437 440 439 413 433 430 440 433 421 429 428 454 420 430 436 442 429 429 415 496 0 0 0 0 0 0
351 364 349 354 352 368 358 375 368 358 359 359 367 364 361 360 368 380 369 371 367 373 375 380 375 369 371 376 368 379 379 391 368 382 377 371 377 385 369 372 380 368 377 377 369 378 383 381 389 392 386 390 391 376 376 375 374 389 370 397 385 398 401 386 390 396 389 387 392 390 385 387 396 400 392 392 413 393 386 402 383 401 407 402 390 383 399 397 393 402 403 403 401 386 396 394 403 408 392 381 390 387 393 396 373 406 394 395 381 397 413 406 416 415 429 420 0 0 0 0
328 315 343 352 327 333 350 347 333 342 350 360 338 340 344 341 336 345 334 337 345 341 347 339 364 361 337 361 333 351 345 355 355 355 347 358 327 342 327 344 342 352 359 343 335 333 355 347 346 356 344 345 351 346 347 343 350 351 344 356 342 350 350 352 362 354 342 345 350 356 353 358 353 351 352 344 344 351 350 344 349 360 351 362 348 356 360 356 354 374 352 355 362 355 367 373 353 361 369 364 359 370 356 379 372 362 372 356 381 365 355 370 367 386 387 376 377 0 0 0
294 302 303 290 296 293 315 312 298 293 307 293 309 297 313 300 314 293 303 299 300 300 306 303 296 306 304 311 302 308 300 302 301 305 303 312 313 312 301 308 315 310 310 309 300 303 306 316 317 305 312 307 311 308 321 310 315 306 324 312 318 314 318 316 315 313 310 329 311 311 317 325 331 313 311 322 320 319 318 322 321 324 328 313 319 345 319 332 323 318 332 328 309 315 322 338 329 332 335 351 326 330 332 329 353 323 329 327 331 355 343 335 346 343 310 320 321 344 341 0
280 274 269 286 284 273 276 289 276 291 276 278 278 296 296 280 289 286 288 282 278 274 276 280 274 271 268 281 287 280 295 284 278 291 280 280 286 286 284 284 288 279 287 285 289 281 285 287 285 292 286 281 288 287 292 291 287 284 289 290 286 290 285 286 303 292 291 288 287 294 288 287 294 288 290 286 298 288 291 295 286 297 281 292 292 293 289 295 294 292 284 297 300 308 302 294 290 297 295 307 295 298 322 286 301 315 297 303 322 286 295 303 305 296 317 306 323 309 277 319
255 250 252 270 246 256 246 259 256 254 246 248 254 259 253 252 259 252 253 256 258 263 262 250 256 255 255 262 253 257 257 257 255 263 257 262 264 262 265 265 268 261 263 257 265 253 255 261 262 257 258 264 267 265 269 255 265 261 261 266 268 264 264 262 266 263 261 263 269 267 261 268 270 273 263 266 269 267 272 260 270 257 255 259 266 267 267 271 264 262 266 267 278 259 264 265 261 271 277 277 273 272 271 258 272 281 265 280 267 275 265 270 269 276 261 266 243 254 291 235
227 230 233 238 239 233 235 226 236 227 233 235 236 243 238 243 234 242 247 234 234 236 243 236 241 230 236 240 236 245 239 242 242 239 244 242 243 243 246 247 251 235 242 237 245 246 242 244 247 247 241 246 241 243 248 243 242 239 245 248 250 247 250 251 241 257 251 248 244 246 243 243 241 250 247 253 246 249 244 241 248 246 243 242 248 254 246 252 248 242 254 244 258 245 251 246 249 247 251 242 241 245 253 252 245 246 245 249 250 257 258 242 236 250 235 246 224 229 237 197
214 215 214 212 219 227 222 215 215 220 217 217 226 226 227 220 222 221 224 225 226 222 231 229 224 228 224 221 224 225 222 229 227 222 233 234 230 233 230 230 237 243 231 233 232 237 232 230 235 231 234 232 228 227 236 228 229 230 237 232 235 231 234 234 239 232 232 232 232 236 230 233 226 233 236 232 230 232 227 239 228 230 228 233 234 227 237 232 235 231 237 234 233 231 233 233 231 237 238 231 235 239 249 241 235 233 230 234 226 244 226 230 240 245 226 218 234 225 227 249
203 200 216 213 218 204 212 208 214 213 211 210 211 216 210 211 217 212 210 220 213 214 216 212 212 215 216 215 216 214 218 218 212 213 212 198 218 221 217 203 216 218 213 212 219 220 218 219 216 220 201 219 219 221 226 216 223 221 221 223 215 208 221 224 223 201 221 217 222 223 219 219 217 201 203 215 223 216 224 218 218 228 220 229 221 218 217 214 217 214 222 215 225 215 215 222 221 218 229 221 224 218 222 228 219 229 219 224 232 237 216 225 225 223 225 233 219 217 243 202
195 197 200 205 206 202 207 200 200 199 184 205 186 196 211 183 189 187 192 206 192 204 195 191 183 185 186 192 189 211 189 192 187 196 214 194 189 187 190 191 188 193 188 191 199 196 197 195 193 198 197 193 200 204 191 202 201 197 194 199 201 197 199 198 194 199 196 196 205 195 192 200 205 197 195 198 196 195 195 196 191 192 215 215 201 214 213 189 215 210 214 192 212 211 208 208 208 208 213 197 212 214 212 211 214 216 208 212 206 213 219 214 217 224 220 177 209 213 219 231
183 183 196 193 195 194 196 185 182 184 182 176 180 184 200 180 187 186 189 177 183 185 184 184 193 183 192 194 190 195 195 186 194 191 197 195 196 189 190 196 194 196 195 194 200 200 198 201 199 199 195 198 195 193 196 200 200 200 201 198 198 200 197 200 198 198 197 197 190 199 190 194 201 200 192 196 197 196 194 197 186 187 190 186 191 188 186 195 190 189 189 193 191 184 192 190 183 185 193 182 204 208 181 204 189 184 184 190 206 205 206 177 205 194 205 197 205 198 216 188
168 174 178 179 176 181 181 181 179 182 183 174 185 185 184 182 181 189 186 189 188 188 187 184 184 185 184 190 189 191 185 185 185 181 191 189 188 185 183 188 192 188 190 191 189 189 189 199 191 190 196 186 187 187 189 189 193 192 191 197 190 191 186 196 188 192 194 190 193 190 190 188 190 191 186 188 190 195 187 187 193 187 190 187 195 196 183 186 186 191 181 189 192 186 185 190 189 190 184 186 182 183 177 183 186 177 190 177 181 179 173 182 186 202 190 178 201 184 209 203
170 167 159 168 166 168 168 175 167 167 170 175 170 175 178 173 171 174 181 181 176 174 172 171 167 173 177 172 175 173 174 178 169 181 171 172 171 173 179 174 177 174 178 178 175 176 180 183 185 186 176 181 180 187 176 187 181 178 183 180 170 176 179 184 178 184 181 191 178 179 178 181 175 183 180 171 179 181 179 180 180 186 174 176 174 172 175 178 178 181 178 180 178 174 175 184 178 180 181 182 179 184 187 180 182 169 173 174 178 175 176 175 173 168 175 172 178 176 175 173
163 163 163 164 163 167 159 161 168 165 170 169 169 166 164 164 165 169 174 168 167 164 170 171 166 165 173 169 171 169 176 166 169 169 166 167 172 171 171 164 165 174 172 171 175 172 165 173 173 170 173 170 171 171 175 171 168 175 176 169 171 173 174 172 173 177 170 170 170 170 173 172 176 167 176 168 174 178 174 168 169 172 171 166 168 181 171 172 172 167 172 170 171 172 167 174 169 171 170 177 173 174 168 171 172 174 178 162 171 162 173 170 171 171 172 168 169 161 169 165
151 156 164 164 160 160 163 155 156 157 161 156 159 162 158 163 163 163 162 168 157 162 164 158 163 161 160 158 162 163 164 167 163 161 158 163 159 160 156 161 161 165 164 164 170 162 162 160 163 162 156 168 165 163 163 167 162 164 163 169 162 162 161 162 164 163 167 165 166 166 165 160 166 168 161 167 171 167 172 167 163 159 168 166 162 164 164 163 164 159 162 159 165 161 165 161 159 159 162 165 165 162 161 165 159 157 165 156 164 152 153 160 153 160 167 150 157 144 131 160
145 147 150 146 153 149 146 149 149 156 148 154 152 146 155 153 148 159 156 157 155 153 149 155 153 157 147 160 157 160 157 154 153 154 153 153 153 154 150 155 154 154 158 157 156 151 151 153 153 157 154 155 161 158 157 154 159 157 158 159 159 157 158 160 159 157 157 157 151 153 156 160 157 163 157 161 160 162 157 152 157 155 157 155 158 157 157 155 157 157 153 155 154 160 161 157 156 152 155 156 157 157 162 156 162 149 155 152 154 160 150 154 145 159 157 143 146 158 164 157
137 141 146 142 143 142 145 146 148 146 149 149 146 142 152 142 145 151 146 149 147 150 155 149 151 147 141 153 153 147 145 147 145 146 144 144 146 152 146 149 152 148 150 152 148 150 148 150 148 149 148 153 145 150 154 151 153 154 152 158 152 152 148 152 144 149 150 154 152 153 150 156 152 157 153 154 158 153 150 149 149 151 146 152 145 153 150 149 154 151 146 154 154 153 157 150 148 146 155 150 153 158 156 153 147 144 142 144 152 144 158 154 157 149 151 141 136 151 143 109
135 137 140 137 135 141 136 142 138 138 147 141 144 144 142 135 145 140 141 147 145 143 144 151 148 142 150 145 143 140 141 132 144 141 130 142 144 149 149 145 145 149 148 146 147 148 144 142 144 144 143 145 144 133 147 145 142 147 151 145 151 144 145 147 150 143 149 147 142 146 145 149 143 146 146 147 149 150 149 146 141 149 145 144 141 144 152 148 152 146 150 150 142 146 147 148 145 145 152 149 145 152 147 144 142 145 138 146 142 142 142 147 141 138 139 153 150 149 141 137
129 133 129 131 134 139 140 137 137 139 140 0 132 137 134 136 140 139 140 139 144 143 140 139 140 147 146 139 138 140 127 137 140 138 130 128 140 131 128 131 131 134 138 130 140 129 142 130 128 130 142 142 133 142 136 145 148 135 142 143 134 142 141 147 143 130 140 145 134 141 132 141 136 143 141 139 143 145 144 143 148 139 126 131 143 144 140 143 139 141 137 139 143 142 143 142 141 144 143 138 143 144 143 139 143 135 129 140 141 136 138 139 136 141 135 140 149 146 142 134
131 131 128 133 135 139 140 130 131 137 134 132 139 137 136 133 128 140 134 133 142 140 136 137 139 136 138 137 138 125 127 137 130 128 129 129 129 130 129 126 141 140 141 129 0 141 128 126 127 125 129 140 140 133 0 142 0 129 141 129 132 126 127 135 130 132 140 128 132 142 133 127 131 127 131 132 135 130 132 125 136 130 138 128 128 138 141 129 139 132 126 140 140 138 125 129 140 138 142 139 136 125 136 143 143 133 136 133 133 130 133 136 137 140 143 132 135 140 145 142
116 106 123 108 128 119 141 123 126 107 116 117 118 121 121 125 121 125 132 122 122 126 126 127 125 137 135 138 0 128 125 120 118 124 122 119 131 125 126 124 130 126 125 129 0 0 129 126 129 120 123 122 131 129 125 129 133 129 128 123 127 124 128 128 128 129 128 132 122 127 126 124 116 119 116 120 119 129 125 125 127 122 128 126 118 138 137 125 126 125 121 127 124 125 122 121 134 139 126 131 130 118 122 121 116 115 114 122 119 129 133 138 148 144 136 143 138 142 140 124
114 120 108 110 107 117 129 117 118 116 117 119 118 116 117 117 115 118 121 122 126 126 127 118 134 121 131 125 137 128 129 0 127 126 116 113 123 120 0 122 126 125 0 0 0 0 123 127 121 121 121 122 122 123 122 125 121 121 121 119 124 122 114 123 123 122 124 122 124 119 125 118 128 114 118 119 118 126 128 119 118 118 120 123 117 121 124 110 120 122 117 118 122 124 121 118 126 122 117 120 120 118 122 117 109 112 124 121 117 118 115 130 121 110 109 127 108 95 123 102
107 99 113 116 113 108 118 117 112 110 123 119 109 109 111 113 117 115 117 119 113 110 108 118 114 109 118 117 118 126 120 0 118 122 115 115 114 0 114 118 122 0 0 120 124 0 119 116 112 117 114 118 120 117 119 117 122 118 114 118 120 122 119 116 114 121 125 120 120 116 116 121 111 110 111 110 110 113 116 120 112 119 114 118 115 113 116 119 114 118 110 115 115 117 104 117 125 118 111 115 113 122 112 111 114 110 126 116 108 119 125 113 119 117 106 120 103 110 94 107
98 103 108 101 99 104 115 112 105 113 114 108 105 112 122 112 112 113 103 102 113 105 110 103 109 111 114 116 116 110 118 112 112 115 115 109 107 115 112 113 114 112 111 111 110 111 114 0 116 0 113 111 116 115 0 0 104 108 119 111 120 117 107 110 107 111 106 107 118 107 110 107 107 103 108 106 104 107 105 110 108 108 105 113 108 105 114 110 102 110 105 104 97 112 103 115 115 115 109 103 104 109 113 109 106 110 109 110 108 112 108 113 100 113 108 108 93 88 100 81
108 102 108 112 103 103 107 106 107 112 105 113 111 110 113 118 104 111 109 103 110 98 98 100 112 112 111 114 103 110 108 111 106 109 114 111 114 0 106 107 108 107 110 101 102 106 103 109 115 0 112 111 111 117 108 111 107 109 112 108 104 102 112 0 116 107 105 110 110 102 105 103 105 113 103 102 102 101 99 110 110 105 105 103 98 104 105 111 100 103 103 108 97 94 97 107 104 110 111 108 99 113 108 110 102 102 102 107 98 106 108 95 109 98 115 100 96 118 107 116
87 97 109 105 98 92 101 99 92 95 104 101 100 103 103 98 97 98 104 102 104 103 98 100 108 103 109 102 100 103 106 103 109 101 106 102 107 106 104 112 105 103 100 102 99 102 107 101 108 101 103 101 101 105 100 109 97 102 104 101 108 107 106 0 106 103 0 111 102 106 105 103 98 106 97 107 99 104 0 100 0 100 100 105 100 103 96 103 104 107 95 104 100 99 96 90 98 99 100 99 95 104 99 98 100 105 94 100 99 92 99 103 93 114 107 92 98 109 86 134
90 89 86 93 94 95 97 91 91 97 96 101 99 96 101 98 99 92 104 100 96 92 86 91 94 96 105 100 101 105 105 107 104 98 100 100 103 100 99 99 101 103 96 96 104 98 105 102 103 106 109 102 99 100 100 98 98 108 104 106 108 101 108 99 111 103 107 104 102 99 101 105 102 102 96 95 105 102 97 97 0 101 95 89 102 100 100 109 97 99 102 104 100 101 92 106 92 96 85 97 101 88 99 91 94 101 92 97 100 98 90 88 113 94 95 101 104 86 90 111
91 98 98 103 94 92 91 86 89 95 94 92 97 90 96 83 91 94 106 106 103 90 81 93 97 87 98 97 89 106 97 100 97 96 97 104 100 93 95 106 92 92 94 91 99 93 100 102 94 102 102 96 86 101 95 109 93 95 98 100 96 98 99 0 96 104 92 91 97 97 96 97 106 102 85 102 96 101 103 105 100 95 92 106 98 98 91 92 98 95 93 94 99 80 84 88 98 88 102 93 92 93 100 94 100 99 93 74 96 90 91 91 87 86 102 87 117 129 91 76
85 88 80 88 80 84 88 94 87 91 84 90 94 91 86 91 86 90 93 92 92 91 91 89 92 86 95 90 90 94 89 87 101 93 89 93 88 92 94 93 88 97 97 86 89 97 90 99 92 96 93 93 98 95 97 98 98 98 96 88 87 90 87 89 94 94 97 90 96 97 88 96 98 88 96 92 91 86 92 98 98 89 92 94 85 94 91 91 94 91 94 96 94 91 90 91 93 92 91 83 92 88 83 80 89 79 91 92 83 88 85 73 83 85 84 89 99 87 74 92
93 79 86 84 84 92 92 98 86 91 91 88 90 90 95 93 93 93 94 94 82 92 91 95 94 89 94 90 91 86 93 90 97 88 99 87 94 93 88 102 87 99 96 92 93 94 94 95 89 91 97 99 95 99 96 98 99 97 89 93 91 99 93 92 92 93 89 90 97 92 89 89 98 95 97 89 91 93 95 91 95 97 99 91 93 92 95 95 96 92 95 95 94 87 95 90 85 83 94 102 92 85 93 97 87 90 87 89 81 84 87 92 90 79 85 87 92 83 0 0
81 88 85 83 84 82 82 90 86 0 80 91 90 86 83 89 81 89 84 92 90 90 92 94 93 93 94 93 94 93 84 96 87 94 90 89 93 90 95 96 85 90 92 87 95 88 92 95 89 98 91 93 87 89 94 96 97 97 95 91 90 92 91 88 88 95 95 90 95 92 89 95 84 95 93 88 88 89 89 83 92 93 94 92 88 92 83 96 102 89 87 92 100 92 87 83 87 90 92 84 93 83 82 90 86 90 90 85 87 81 86 90 81 89 70 79 81 64 93 0
80 85 78 84 87 86 99 90 87 75 82 82 87 83 83 90 79 86 85 91 86 87 92 88 86 82 89 86 92 84 84 84 90 90 88 97 93 86 91 89 90 87 92 95 88 87 94 90 94 88 95 97 89 85 93 95 90 97 94 94 93 88 94 88 87 92 87 86 86 93 92 96 91 93 91 83 90 94 93 89 85 86 92 96 87 92 92 86 90 86 92 92 86 84 79 82 85 87 82 92 77 82 85 78 84 84 90 83 72 83 76 86 87 89 65 84 82 71 0 0
79 77 77 78 84 82 92 90 82 81 82 91 84 84 90 89 79 92 88 87 89 92 89 85 80 82 92 88 84 92 88 84 88 89 88 83 91 86 88 93 92 85 83 95 93 89 94 94 95 94 91 85 82 86 88 90 85 96 88 90 92 92 86 93 90 95 86 84 86 97 88 85 93 91 91 84 87 92 97 81 89 93 85 85 93 89 88 88 93 88 87 89 83 84 80 86 86 91 93 87 85 91 84 86 85 86 82 87 86 70 80 84 87 87 92 112 0 0 0 0
79 68 62 68 76 80 83 86 81 79 83 78 81 76 85 77 81 80 74 78 86 75 82 74 76 75 80 79 86 75 91 75 80 85 88 77 82 83 78 80 87 78 78 73 81 81 82 84 87 84 87 85 76 80 80 89 86 84 82 80 84 76 77 80 80 81 73 78 88 78 86 84 76 79 86 80 78 84 87 85 72 87 74 77 74 86 77 80 79 88 85 69 80 79 78 81 75 89 73 80 70 73 77 63 71 78 74 79 81 80 79 85 82 76 89 82 0 0 0 0
72 72 76 75 73 84 86 89 84 80 78 84 73 81 77 85 85 85 79 82 80 81 75 85 83 89 74 76 80 82 85 83 81 82 83 73 78 78 79 76 90 81 87 91 86 90 83 74 82 83 83 74 80 80 84 84 89 86 80 73 90 82 82 77 74 81 84 79 86 72 78 81 82 84 85 79 76 86 84 82 82 80 84 77 75 79 77 66 86 87 76 79 69 75 81 77 89 78 70 74 90 73 76 76 70 75 74 80 74 82 86 83 79 113 103 0 0 0 0 0
