0 0 0 0 0 0 0 0 0 0 0 0 0 0 0 0 0 0 0 0 0 0 0 0 0 0 0 0 0 0 0 0 0 0 0 0 0 0 0 0 0 0 0 0 0 0 0 0 0 0 0 0 0 0 0 0 0 0 0 0 0 0 0 0 0 0 0 0 0 0 0 0 0 0 0 0 0 0 0 0 0 0 0 0 0 0 0 0 0 0 0 0 0 0 0 0 0 0 0 0 0 0 0 0 0 0 0 0 0 0 0 0 0 0 0 0 0 0 0 0
0 0 0 0 0 0 0 0 0 0 0 0 0 0 0 0 0 0 0 0 0 0 0 0 0 0 0 0 0 0 0 0 0 0 0 0 0 0 0 0 0 0 0 0 0 0 0 0 0 0 0 0 0 0 0 0 0 0 0 0 0 0 0 0 0 0 0 0 0 0 0 0 0 0 0 0 0 0 0 0 0 0 0 0 0 0 0 0 0 0 0 0 0 0 0 0 0 0 0 0 0 0 0 0 0 0 0 0 0 0 0 0 0 0 0 0 0 0 0 0
0 0 0 0 0 0 0 0 0 0 0 0 0 0 0 0 1289 1293 0 0 0 0 1278 1252 0 0 0 0 0 0 0 0 0 0 0 0 0 0 0 0 0 0 0 0 0 0 0 0 0 0 0 0 0 0 0 0 0 0 0 0 0 0 0 0 0 0 0 0 0 0 0 0 0 0 0 0 0 0 0 0 0 0 0 0 0 0 0 0 0 0 0 0 0 0 0 0 0 0 0 0 0 0 0 0 0 0 0 0 0 0 0 0 0 0 0 0 0 0 0 0
0 0 0 0 0 0 0 0 0 0 0 1116 1116 1159 1144 0 1282 1291 0 0 0 1270 1226 0 0 0 0 0 0 0 0 0 0 0 0 0 0 0 0 0 0 0 0 0 0 0 0 0 0 0 0 0 0 0 0 0 0 0 0 0 0 0 0 0 0 0 0 0 0 0 0 0 0 0 0 0 0 0 0 0 0 0 0 0 0 0 0 0 0 0 0 0 0 0 0 0 0 0 0 0 0 0 0 0 0 0 0 0 0 0 0 0 0 0 0 0 0 0 0 0
0 0 0 0 0 0 0 0 1114 1110 1147 1107 1185 1162 1181 0 1289 1338 1283 0 1263 1276 1272 0 0 0 0 0 0 0 0 0 0 0 0 0 0 0 0 0 0 0 0 0 0 0 0 0 0 0 0 0 0 0 0 0 0 0 0 0 0 0 0 0 0 0 0 0 0 0 0 0 0 0 0 0 0 0 0 0 0 0 0 0 0 0 0 0 0 0 0 0 0 0 0 0 0 0 0 0 0 0 0 0 0 0 0 0 0 0 0 0 0 0 0 0 0 0 0 0
0 0 0 0 0 0 0 1112 1116 1142 1144 0 1161 1185 1159 1208 1281 1273 1289 1263 1270 1271 1276 1258 0 0 0 0 0 0 0 0 0 0 0 0 0 0 0 0 0 0 0 0 0 0 0 0 0 0 0 0 0 0 0 0 0 0 0 0 0 0 0 0 0 0 0 0 0 0 0 0 0 0 0 0 0 0 0 0 0 0 0 0 0 0 0 0 0 0 0 0 0 0 0 0 0 0 0 0 0 0 0 0 0 0 0 0 0 0 0 0 0 0 0 0 0 0 0 0
0 0 0 0 0 0 0 0 0 0 0 0 1216 1215 1231 1229 1277 1256 1268 1283 1256 1219 1274 1248 1289 0 0 0 0 0 0 1414 0 0 0 0 0 0 0 0 0 0 0 0 0 0 0 0 0 0 0 0 0 0 0 0 0 0 0 0 0 0 0 0 0 0 0 0 0 0 0 0 0 0 0 0 0 0 0 0 0 0 0 0 0 0 0 0 0 0 0 0 0 0 0 0 0 0 0 0 0 0 0 0 0 0 0 0 0 0 0 0 0 0 0 0 0 0 0 0
0 0 0 0 0 0 0 0 0 0 0 0 1261 1247 1270 1282 1299 1287 1266 1282 1287 1266 1244 1292 1285 1327 1353 1349 1348 1345 0 1416 0 0 0 0 0 0 0 0 0 0 0 0 0 0 0 0 0 0 0 0 0 0 0 0 0 0 0 0 0 0 0 0 0 0 0 0 0 0 0 0 0 0 0 0 0 0 0 0 0 0 0 0 0 0 0 0 0 0 0 0 0 0 0 0 0 0 0 0 0 0 0 0 0 0 0 0 0 0 0 0 0 0 0 0 0 0 0 0
0 0 0 0 0 0 0 0 0 0 0 0 1264 1289 1272 1263 1303 1266 1254 1256 1266 1266 1277 1267 0 0 1352 1327 1364 1380 1375 1371 0 0 0 0 0 0 0 0 0 0 0 0 0 0 0 0 0 0 0 0 0 0 0 0 0 0 0 0 0 0 0 0 0 0 0 0 0 0 0 0 0 0 0 0 0 0 0 0 0 0 0 0 0 0 0 0 0 0 0 0 0 0 0 0 0 0 0 0 0 0 0 0 0 0 0 1763 0 0 0 0 0 0 0 0 0 0 0 0
0 0 0 0 0 0 0 0 0 0 0 0 0 1293 1282 1290 1289 1294 1293 1280 1290 1286 1280 1276 1259 0 0 1351 1354 1338 1345 1384 0 0 0 0 0 0 0 0 0 0 0 0 0 0 0 0 0 0 0 0 0 0 0 0 0 0 0 0 0 0 0 0 0 0 0 0 0 0 0 0 0 0 0 0 0 0 0 0 0 0 0 0 0 0 0 0 0 0 0 0 0 0 0 0 0 0 0 0 0 0 0 0 0 0 0 0 0 0 0 0 0 0 0 0 0 0 0 0
0 0 0 0 0 0 0 0 0 0 0 0 0 0 0 0 0 0 0 0 0 1253 1248 1251 1259 0 0 1348 1362 1342 1354 1419 1422 0 0 0 0 0 0 0 0 0 0 0 0 0 0 0 0 0 0 0 0 0 0 0 0 0 0 0 0 0 0 0 0 0 0 0 0 0 0 0 0 0 0 0 0 0 0 0 0 0 0 0 0 0 0 0 0 0 0 0 0 0 0 0 0 0 0 0 0 0 0 0 0 0 0 0 0 0 0 0 0 0 0 0 0 0 0 0
0 0 0 0 0 0 0 0 0 0 0 0 0 0 0 0 0 0 0 0 0 0 0 1345 1331 0 0 1312 1374 1329 1375 1405 1417 0 0 0 0 0 0 0 0 0 0 0 0 0 0 0 0 0 0 0 0 0 0 0 0 0 0 0 0 0 0 0 0 0 0 0 0 0 0 0 0 0 0 0 0 0 0 0 0 0 0 0 0 0 0 0 0 0 0 0 0 0 0 0 0 0 0 0 0 0 0 0 0 0 0 1744 1721 0 0 0 0 0 0 0 0 0 0 0
0 0 0 0 0 0 0 0 0 0 0 0 0 0 0 0 0 0 0 0 0 0 0 1402 1365 1280 1296 0 1356 1328 1365 1363 1455 0 0 0 0 0 0 0 0 0 0 0 0 0 0 0 0 0 0 0 0 0 0 0 0 0 0 0 0 0 0 0 0 0 0 0 0 0 0 0 0 0 0 0 0 0 0 0 0 0 0 0 0 0 0 0 0 0 0 0 0 0 0 0 0 0 0 0 0 0 0 0 0 0 1784 1686 0 0 0 0 0 0 0 0 0 0 0 0
0 0 0 0 0 0 0 0 0 0 0 0 0 0 0 0 0 0 0 0 0 0 0 1363 1389 1379 1323 1344 1337 1337 1348 1410 1455 0 0 0 0 0 0 0 0 0 0 0 0 0 0 0 0 0 0 0 0 0 0 0 0 0 0 0 0 0 0 0 0 0 0 0 0 0 0 0 0 0 0 0 0 0 0 0 0 0 0 0 0 0 0 0 0 0 0 0 0 0 0 0 0 0 0 0 0 0 0 0 0 0 1761 0 1727 0 0 0 0 0 0 0 0 0 0 0
0 0 0 0 0 0 0 0 0 0 0 0 0 0 0 0 0 0 0 0 0 0 0 1341 1360 1388 1339 1333 1296 1319 1348 1376 1395 0 0 0 0 0 0 0 0 0 0 0 0 0 0 0 0 0 0 0 0 0 0 0 0 0 0 0 0 0 0 0 0 0 0 0 0 0 0 0 0 0 0 0 0 0 0 0 0 0 0 0 0 0 0 0 0 0 0 0 0 0 0 0 0 0 0 0 0 0 0 0 0 0 1756 0 0 0 0 0 0 0 0 0 0 0 0 0
0 0 0 0 0 0 0 0 0 0 0 0 0 0 0 0 0 0 0 0 0 0 0 0 1374 1382 1383 1377 1375 1354 1337 1407 1422 0 0 0 0 0 0 0 0 0 0 0 0 0 0 0 0 0 0 0 0 0 0 0 0 0 0 0 0 0 0 0 0 0 0 0 0 0 0 0 0 0 0 0 0 0 0 0 0 0 0 0 0 0 0 0 0 0 0 0 0 0 0 0 0 0 0 0 0 0 0 0 0 0 0 1735 1767 0 0 0 0 1667 0 0 0 0 0 0
1239 1255 1255 1282 1275 1298 1280 0 0 0 0 0 0 0 0 0 0 0 0 0 0 0 0 0 1352 1352 1369 1373 1373 1358 1379 1416 1410 0 0 0 0 0 0 0 0 0 0 0 0 0 0 0 0 0 0 0 0 0 0 0 0 0 0 0 0 0 0 0 0 0 0 0 0 0 0 0 0 0 0 0 0 0 0 0 0 0 0 0 0 0 0 0 0 0 0 0 0 0 0 0 0 0 0 0 0 0 0 0 0 1715 1742 1726 1655 1700 0 0 0 0 0 0 0 0 0 0
1249 1250 1248 1272 1285 1291 1292 1309 1320 1337 1359 0 0 0 0 0 0 0 0 0 0 0 0 1381 1347 1347 1341 1362 1380 1368 1357 1419 1416 0 0 0 0 0 0 0 0 0 0 0 0 0 0 0 0 0 0 0 0 0 0 0 0 0 0 0 0 0 0 0 0 0 0 0 0 0 0 0 0 0 0 0 0 0 0 0 0 0 0 0 0 0 0 0 0 0 0 0 0 0 0 0 0 0 0 0 0 0 0 0 1753 1732 1785 1713 1670 1717 1618 1710 0 0 0 0 0 0 0 0
1247 1290 1234 1279 1310 1307 1325 1308 1317 1344 1360 1368 1384 1395 1405 1405 0 0 0 0 0 0 0 0 0 1369 0 0 1365 0 0 1424 1438 0 0 0 0 0 0 0 0 0 0 0 0 0 0 0 0 0 0 0 0 0 0 0 0 0 0 0 0 0 0 0 0 0 0 0 0 0 0 0 0 0 0 0 0 0 0 0 0 0 0 0 0 0 0 0 0 0 0 0 0 0 0 0 0 0 0 0 0 0 0 1819 1788 1804 1741 1766 1752 1740 1682 1681 0 0 0 0 0 0 0 0
0 0 0 0 1279 1280 1315 1316 1302 1324 1321 1336 1369 1374 1369 1381 1401 1438 1435 1448 0 0 0 0 0 0 0 0 0 0 0 1445 1444 1428 0 0 0 0 0 0 0 0 0 0 0 0 0 0 0 0 0 0 0 0 0 0 0 0 0 0 0 0 0 0 0 0 0 0 0 0 0 0 0 0 0 0 0 0 0 0 0 0 0 0 0 0 0 0 0 0 0 0 0 0 0 0 0 0 0 0 0 0 0 1814 1736 1732 1699 1717 1670 0 0 0 0 0 0 0 0 0 0 0
0 0 0 0 0 0 0 0 0 1382 1336 1336 1345 1356 1389 1395 1414 1435 1456 1441 1481 1464 0 0 0 0 0 0 0 0 0 1446 1494 1462 0 0 0 0 0 0 0 0 0 0 0 0 0 0 0 0 0 0 0 0 0 0 0 0 0 0 0 0 0 0 0 0 0 0 0 0 0 0 0 0 0 0 0 0 0 0 0 0 0 0 0 0 0 0 0 0 0 0 0 0 0 0 0 0 0 0 0 0 0 1815 1702 1672 1606 1611 1598 1566 1611 1562 1546 1565 1566 0 0 0 0 0
0 0 0 0 0 0 0 0 0 0 0 0 0 0 0 1380 1410 1409 1435 1456 1463 1492 0 0 0 0 0 0 0 0 0 0 1482 0 0 0 0 0 0 0 0 0 0 0 0 0 0 0 0 0 0 0 0 0 0 0 0 0 0 0 0 0 0 0 0 0 0 0 0 0 0 0 0 0 0 0 0 0 0 0 0 0 0 0 0 0 0 0 0 0 0 0 0 0 0 0 0 0 0 0 0 1777 1686 1573 1584 1607 1611 1625 1592 1567 1568 1586 1605 1650 1561 0 0 0 0 0
0 0 0 0 0 0 0 0 0 0 0 0 0 0 0 0 0 0 0 0 0 1446 0 0 0 0 0 0 0 0 0 0 0 0 0 0 0 0 0 0 0 0 0 0 0 0 0 0 0 0 0 0 0 0 0 0 0 0 0 0 0 0 0 0 0 0 0 0 0 0 0 0 0 0 0 0 0 0 0 0 0 0 0 0 0 0 0 0 0 0 0 0 0 0 0 0 0 0 0 0 0 0 1570 1590 1587 1615 1593 1572 1579 1581 1571 1586 1557 1574 0 0 0 0 0 0
0 0 0 0 0 0 0 0 0 0 0 0 0 0 0 0 0 0 0 0 0 0 0 0 0 0 0 0 0 0 0 0 0 0 0 0 0 0 0 0 0 0 0 0 0 0 0 0 0 0 0 0 0 0 0 0 0 0 0 0 0 0 0 0 0 0 0 0 0 0 0 0 0 0 0 0 0 0 0 0 0 0 0 0 0 0 0 0 0 0 0 0 0 0 0 0 0 0 0 0 0 0 0 1597 1602 1572 1577 1571 1631 1591 1586 1579 1623 0 0 0 0 0 0 0
0 0 0 0 0 0 0 0 0 0 0 0 0 0 0 0 0 0 0 0 0 0 0 0 0 0 0 0 0 0 0 0 0 0 0 0 0 0 0 0 0 0 0 0 0 0 0 0 0 0 0 0 0 0 0 0 0 0 0 0 0 0 0 0 0 0 0 0 0 0 0 0 0 0 0 0 0 0 0 0 0 0 0 0 0 0 0 0 0 0 0 0 0 0 0 0 0 0 0 0 0 0 0 0 0 0 0 0 0 0 0 0 0 0 0 0 0 0 0 0
0 0 0 0 0 0 0 0 0 0 0 0 0 0 0 0 0 0 0 0 0 0 0 0 0 0 0 0 0 0 0 0 0 0 0 0 0 0 0 0 0 0 0 0 0 0 0 0 0 0 0 0 0 0 0 0 0 0 0 0 0 0 0 0 0 0 0 0 0 0 0 0 0 0 0 0 0 0 0 0 0 0 0 0 0 0 0 0 0 0 0 0 0 0 0 0 0 1651 0 0 0 0 0 0 0 0 0 0 0 0 0 0 0 0 0 0 0 0 0 0
548 587 0 0 0 0 0 0 0 0 0 0 0 0 0 0 0 0 0 0 0 0 0 0 0 1885 1868 0 0 0 0 0 0 0 0 0 0 0 0 0 0 0 0 0 0 0 0 2944 2895 2938 2909 2961 2893 2909 2923 2962 2899 2890 2917 2876 2941 2928 2910 2904 2900 2909 0 0 0 0 0 0 0 0 0 0 0 0 0 0 0 0 0 0 0 0 0 0 0 0 0 0 0 0 0 1768 0 0 0 0 0 0 0 0 0 0 0 0 0 0 0 0 0 0 0 0 0 0 0 0
593 574 611 598 632 644 0 0 0 0 0 0 0 0 0 0 0 0 0 0 0 0 0 0 0 0 0 1899 1903 0 0 0 0 0 0 0 0 0 0 0 0 0 0 0 0 0 0 2898 2892 2906 2940 2903 2915 2895 2888 2853 2913 2909 2932 2852 2875 2926 2859 2904 2867 2937 0 0 0 0 0 0 0 0 0 0 0 0 0 0 0 0 0 0 0 0 0 0 0 0 0 0 0 0 0 0 0 0 0 0 0 0 0 0 0 0 0 0 0 0 0 0 0 0 0 0 0 0 0 0
583 583 598 597 622 614 647 666 0 0 0 0 0 0 0 0 0 0 0 0 0 0 0 0 0 0 0 0 0 0 0 0 0 0 0 0 0 0 0 0 0 0 0 0 0 0 0 2964 2911 2911 2944 2916 2944 2944 2882 2872 2898 2892 2906 2884 2875 2906 2842 2904 2900 0 0 0 0 0 0 0 0 0 0 0 0 0 0 0 0 0 0 0 0 0 0 0 0 0 0 0 0 0 0 0 0 0 0 0 0 0 0 0 0 0 0 0 0 0 0 0 0 0 0 0 0 0 0 0
556 598 609 594 636 633 634 644 660 678 670 699 0 0 0 0 0 0 0 0 0 0 0 0 0 0 0 0 0 0 0 0 0 0 0 0 0 0 0 0 0 0 0 0 0 0 0 2918 2919 2890 2937 2880 2909 2874 2864 2922 2919 2917 2869 2885 2907 2888 2894 2845 2919 0 0 0 0 0 0 0 0 0 0 0 0 0 0 0 0 0 0 0 0 0 0 0 0 0 0 0 0 0 0 0 0 0 0 0 0 0 0 0 0 0 0 0 0 0 0 0 0 0 0 0 0 0 0 0
615 588 596 585 634 635 627 625 655 666 674 686 705 729 741 0 0 0 0 0 0 0 0 0 0 0 0 0 0 0 0 0 0 0 0 0 0 0 0 0 0 0 0 0 0 0 0 2933 2949 2933 2896 2948 2964 2930 2901 2942 2894 2896 2902 2917 2914 2906 2886 2920 2904 0 0 0 0 0 0 0 0 0 0 0 0 0 0 0 0 0 0 0 0 0 0 0 0 0 0 0 0 0 0 0 0 0 0 0 0 0 0 0 0 0 0 0 0 0 0 0 0 0 0 0 0 0 0 0
722 764 787 727 705 645 639 661 652 672 679 696 710 713 728 756 762 797 0 0 0 0 0 0 0 0 0 0 0 0 0 0 0 0 0 0 0 0 0 0 0 0 0 0 0 0 0 2946 2905 2925 2955 2913 2930 2946 2884 2951 2891 2934 2946 2903 2897 2892 2913 2920 2912 0 0 0 0 0 0 0 0 0 0 0 0 0 0 0 0 0 0 0 0 0 0 0 0 0 0 0 0 0 0 0 0 0 0 0 0 0 0 0 0 0 0 0 0 0 0 0 0 0 0 0 0 0 0 0
774 798 813 832 829 828 845 843 825 764 762 710 712 702 729 749 759 767 805 823 817 0 0 0 0 0 0 0 0 0 0 0 0 0 0 0 0 0 0 0 0 0 0 0 0 0 0 2888 2947 2949 2883 2938 2925 2932 2922 2906 2875 2906 2902 2907 2926 2914 2942 2900 2905 2938 0 0 0 0 0 0 0 0 0 0 0 0 0 0 0 0 0 0 0 0 0 0 0 0 0 0 0 0 0 0 0 0 0 0 0 0 0 0 0 0 0 0 0 0 0 0 0 0 0 0 0 0 0 0
756 804 807 825 856 851 871 878 899 909 901 912 939 892 852 780 779 772 791 799 828 855 848 895 0 0 0 0 0 0 0 0 0 0 0 0 0 0 0 0 0 0 0 0 0 0 0 2892 2882 2939 2935 2894 2921 2911 2939 2897 2910 2882 2907 2966 2902 2937 2872 2900 2893 2922 0 0 0 0 0 0 0 0 0 0 0 0 0 0 0 0 0 0 0 0 0 0 0 0 0 0 0 0 0 0 0 0 0 0 0 0 0 0 0 0 0 0 0 0 0 0 0 0 0 0 0 0 0 0
669 0 854 844 850 873 900 891 919 926 942 939 964 963 951 964 939 940 913 874 847 855 880 888 903 944 0 0 0 0 0 0 0 0 0 0 0 0 0 0 0 0 0 0 0 0 0 2885 2962 2872 2898 2909 2943 2908 2901 2883 2881 2893 2827 2874 2876 2897 2868 2876 2892 2857 0 0 0 0 0 0 0 0 0 0 0 0 0 0 0 0 0 0 0 0 0 0 0 0 0 0 0 0 0 0 0 0 0 0 0 0 0 0 0 0 0 0 0 0 0 0 0 0 0 0 0 0 0 0
660 915 941 958 908 957 904 909 951 949 949 941 952 953 950 945 949 953 962 948 928 931 904 904 903 950 953 1008 1011 0 0 0 0 0 0 0 0 0 0 0 0 0 0 0 0 0 0 2921 2922 2862 2912 2921 2845 2868 2907 2855 2900 2895 2970 2878 2912 2915 2922 2863 2911 2884 0 0 0 0 0 0 0 0 0 0 0 0 0 0 0 0 0 0 0 0 0 0 0 0 0 0 0 0 0 0 0 0 0 0 0 0 0 0 0 0 0 0 0 0 0 0 0 0 0 0 0 0 0 0
572 726 0 0 0 0 0 0 0 0 992 1009 991 983 970 973 967 970 959 945 959 947 939 960 967 964 981 996 1011 1027 0 0 0 0 0 0 0 0 0 0 0 0 0 0 0 0 0 2923 2932 2893 2921 2942 2908 2913 2888 2868 2899 2916 2866 2880 2917 2900 2894 2897 2945 2847 0 0 0 0 0 0 0 0 0 0 0 0 0 0 0 0 0 0 0 0 0 0 0 0 0 0 0 0 0 0 0 0 0 0 0 0 0 0 0 0 0 0 0 0 0 0 0 0 0 0 0 0 0 0
583 612 581 0 1147 1157 1155 1175 1163 1154 1155 1164 1153 1154 1171 1145 1121 1064 0 0 1034 1060 1072 981 1004 1038 1140 1147 1106 1095 1089 0 0 0 0 0 0 0 0 0 0 0 0 0 0 0 0 2935 2913 2934 2903 2857 2963 2922 2960 2869 2916 2893 2899 2922 2922 2876 2890 2867 2854 2894 0 0 0 0 0 0 0 0 0 0 0 0 0 0 0 0 0 0 0 0 0 0 0 0 0 0 0 0 0 0 0 0 0 0 0 0 0 0 0 0 0 0 0 0 0 0 0 0 0 0 0 0 0 0
572 569 552 583 0 0 0 0 0 0 0 0 0 0 0 0 1336 990 941 0 0 1121 1062 0 0 1104 1157 1123 1141 1142 1092 0 0 0 0 0 0 0 0 0 0 0 0 0 0 0 0 2906 2918 2948 2926 2921 2892 2907 2912 2935 2916 2893 2917 2845 2884 2886 2914 2895 2923 0 0 0 0 0 0 0 0 0 0 0 0 0 0 0 0 0 0 0 0 0 0 0 0 0 0 0 0 0 0 0 0 0 0 0 0 0 0 0 0 0 0 0 0 0 0 0 0 0 0 0 0 0 0 0
598 605 599 612 579 0 0 0 0 0 0 0 0 0 0 0 0 950 974 0 0 0 0 0 0 0 0 0 0 0 0 0 0 0 0 0 0 0 0 0 0 0 0 0 0 0 0 2924 2961 2947 2909 2907 2939 2961 2925 2893 2936 2935 2910 2937 2890 2893 2927 2929 2877 2869 0 0 0 0 0 0 0 0 0 0 0 0 0 0 0 0 0 0 0 0 0 0 0 0 0 0 0 0 0 0 0 0 0 0 0 0 0 0 0 0 0 0 0 0 0 0 0 0 0 0 0 0 0 0
597 579 605 608 604 601 0 0 0 0 0 0 0 0 0 0 0 0 0 0 0 0 0 0 0 0 0 0 0 0 0 0 0 0 0 0 0 0 0 0 0 0 0 0 0 0 0 2918 2862 2873 2946 2898 2913 2893 2859 2922 2873 2894 2858 2872 2934 2904 2919 2904 2858 0 0 0 0 0 0 0 0 0 0 0 0 0 0 0 0 0 0 0 0 0 0 0 0 0 0 0 0 0 0 0 0 0 0 0 0 0 0 0 0 0 0 0 0 0 0 0 0 0 0 0 0 0 0 0
596 583 588 619 599 577 0 0 0 0 0 0 0 0 0 0 0 0 0 0 0 0 943 0 0 0 0 0 0 0 0 0 0 0 0 0 0 0 0 0 0 0 0 0 0 0 0 2951 2942 2925 2921 2916 2933 2913 2925 2895 2894 2865 2912 2929 2892 2889 2893 2940 2912 0 0 0 0 0 0 0 0 0 0 0 0 0 0 0 0 0 0 0 0 0 0 0 0 0 0 0 0 0 0 0 0 0 0 0 0 0 0 0 0 0 0 0 0 0 0 0 0 0 0 0 0 0 0 0
583 588 633 620 599 613 652 0 0 0 0 0 0 0 0 0 0 0 0 0 0 0 988 0 0 0 0 0 0 0 0 0 0 0 0 0 0 0 0 0 0 0 0 0 0 0 0 2876 2908 2935 2910 2887 2885 2923 2893 2899 2882 2928 2869 2867 2871 2902 2903 2847 2870 2860 0 0 0 0 0 0 0 0 0 0 0 0 0 0 0 0 0 0 0 0 0 0 0 0 0 0 0 0 0 0 0 0 0 0 0 0 0 0 0 0 0 0 0 0 0 0 0 0 0 0 0 0 0 0
586 603 593 642 621 616 620 0 0 0 0 0 0 0 0 0 0 0 0 0 0 0 0 0 0 0 0 0 0 0 0 0 0 0 0 0 0 0 0 0 0 0 0 0 0 0 0 2909 2911 2907 2901 2897 2871 2877 2882 2886 2895 2904 2881 2897 2885 2920 2853 2888 2890 0 0 0 0 0 0 0 0 0 0 0 0 0 0 0 0 0 0 0 0 0 0 0 0 0 0 0 0 0 0 0 0 0 0 0 0 0 0 0 0 0 0 0 0 0 0 0 0 0 0 0 0 0 0 0
584 641 574 580 602 584 611 0 0 0 0 0 0 0 0 0 2293 0 0 0 0 0 923 964 0 0 0 0 0 0 0 0 0 0 0 0 0 0 0 0 0 0 0 0 0 0 0 2893 2860 2913 2907 2907 2902 2927 2895 2901 2887 2873 2860 2914 2885 2918 2869 2870 2897 2839 0 0 0 0 0 0 0 0 0 0 0 0 0 0 0 0 0 0 0 0 0 0 0 0 0 0 0 0 0 0 0 0 0 0 0 0 0 0 0 0 0 0 0 0 0 0 0 0 0 0 0 0 0 0
578 565 611 608 618 622 591 0 0 0 0 0 0 0 0 0 0 0 0 0 0 0 0 0 0 0 0 0 0 0 0 0 0 0 0 0 0 0 0 0 0 0 0 0 0 0 0 2932 2910 2869 2920 2883 2872 2902 2920 2903 2888 2893 2879 2874 2872 2869 2861 2892 2893 2821 0 0 0 0 0 0 0 0 0 0 0 0 0 0 0 0 0 0 0 0 0 0 0 0 0 0 0 0 0 0 0 0 0 0 0 0 0 0 0 0 0 0 0 0 0 0 0 0 0 0 0 0 0 0
584 613 566 622 589 533 0 0 0 0 0 0 0 0 0 0 0 0 0 0 0 0 0 0 0 0 0 0 0 0 0 0 0 0 0 0 0 0 0 0 0 0 0 0 0 0 0 0 0 0 0 0 0 0 0 0 0 0 0 0 0 0 3036 2919 2941 0 0 0 0 0 0 0 0 0 0 0 0 0 0 0 0 0 0 0 0 0 0 0 0 0 0 0 0 0 0 0 0 0 0 0 0 0 0 0 0 0 0 0 0 0 0 0 0 0 0 0 0 0 0 0
588 583 576 603 592 621 0 0 0 0 0 0 0 0 0 0 0 0 0 0 0 0 0 0 0 0 0 0 0 0 0 0 0 0 0 0 0 0 0 0 0 0 0 0 0 0 0 0 0 0 0 0 0 0 0 0 0 0 0 0 0 0 0 0 0 0 0 0 0 0 0 0 0 0 0 0 0 0 0 0 0 0 0 0 0 0 0 0 0 0 0 0 0 0 0 0 0 0 0 0 0 0 0 0 0 0 0 0 0 0 0 0 0 0 0 0 0 0 0 0
604 608 604 600 607 583 0 0 0 0 0 0 0 0 0 0 0 0 0 0 0 0 0 0 0 0 0 0 0 0 0 0 0 0 0 0 0 0 0 0 0 0 0 0 0 0 0 0 0 0 0 0 0 0 0 0 0 0 0 0 0 0 0 0 0 0 0 0 0 0 0 0 0 0 0 0 0 0 0 0 0 0 0 0 0 0 0 0 0 0 0 0 0 0 0 0 0 0 0 0 0 0 0 0 0 0 0 0 0 0 0 0 0 0 0 0 0 0 0 0
573 570 610 623 550 0 0 0 0 0 0 0 0 0 0 0 0 0 0 0 0 0 0 0 0 0 0 0 0 0 0 0 0 0 0 0 0 0 0 0 0 0 0 0 0 0 0 0 0 0 0 0 0 0 0 0 0 0 0 0 0 0 0 0 0 0 0 0 0 0 0 0 0 0 0 0 0 0 0 0 0 0 0 0 0 0 0 0 0 0 0 0 0 0 0 0 0 0 0 0 0 0 0 0 0 0 0 0 0 0 0 0 0 0 0 0 0 0 0 0
612 628 632 644 0 0 0 0 0 0 0 0 0 0 0 0 0 0 0 0 0 0 0 0 0 0 899 0 913 891 947 899 924 920 0 920 0 860 928 905 0 0 0 0 0 0 0 0 0 0 0 0 0 0 0 0 0 0 0 0 0 0 0 0 0 0 0 0 0 0 0 0 0 0 0 0 0 0 0 0 0 0 0 0 0 0 0 0 0 0 0 0 0 0 0 0 0 0 0 0 0 0 0 0 0 0 0 0 0 0 0 0 0 0 0 0 0 0 0 0
580 578 614 0 0 0 711 664 655 669 686 686 709 700 702 715 716 679 731 734 669 736 691 679 667 680 739 675 695 707 719 737 744 740 746 769 729 707 705 747 725 772 750 749 723 802 785 759 732 726 755 755 797 770 737 767 774 806 806 820 768 835 760 759 789 783 797 789 786 803 788 768 804 0 792 0 0 0 0 0 0 0 0 0 0 0 0 0 0 0 0 0 0 0 0 0 0 0 0 0 0 0 0 0 0 0 0 0 0 0 0 0 0 0 0 0 0 0 0 0
535 594 560 550 566 586 551 563 581 579 578 582 572 568 570 579 597 592 583 648 570 592 589 609 581 599 571 589 620 591 568 620 566 597 619 599 618 588 612 618 630 645 601 626 630 603 605 608 645 647 616 636 613 631 609 620 639 610 671 630 578 658 654 666 660 606 637 650 661 679 707 643 654 680 686 619 685 664 676 667 676 639 692 670 676 698 701 643 725 699 702 653 755 706 701 0 0 674 735 682 753 685 0 0 0 0 0 0 0 0 0 0 0 0 0 0 0 0 0 0
535 510 514 502 493 501 480 499 513 493 522 498 517 508 515 508 518 514 531 489 510 520 519 508 531 499 529 524 516 521 521 543 513 535 533 529 524 506 533 532 510 530 538 518 523 553 548 522 555 514 544 522 502 538 535 539 548 524 528 548 510 562 527 542 580 559 553 552 537 571 577 571 576 538 542 559 522 564 571 532 571 544 589 536 590 595 591 591 587 558 602 576 584 571 585 590 577 576 592 592 600 581 586 576 0 0 0 588 635 618 0 0 0 0 0 0 0 0 0 0
415 402 426 425 436 409 417 414 424 418 433 448 452 438 441 428 426 452 446 438 457 460 443 436 445 453 445 449 439 451 463 448 468 444 467 453 447 455 456 446 466 457 458 462 471 465 458 461 475 474 475 464 466 459 467 467 454 462 472 468 489 476 482 481 474 483 476 492 479 482 471 478 483 471 474 475 465 471 476 480 476 473 478 480 479 471 475 477 487 494 484 496 476 480 513 492 485 483 482 465 506 506 463 454 490 484 467 470 514 458 492 500 471 0 0 0 0 0 0 0
392 400 397 406 400 393 389 412 398 393 400 383 393 414 407 416 399 392 404 403 391 404 409 408 417 405 413 404 401 412 407 411 417 415 418 415 427 422 412 416 408 404 416 411 410 409 424 434 421 424 426 419 429 418 438 424 417 429 435 428 417 430 426 431 420 429 421 432 445 435 431 437 437 419 428 426 430 453 427 434 432 424 432 446 425 442 446 437 432 444 444 442 446 443 431 442 434 428 428 459 442 428 448 449 420 430 434 443 430 442 431 439 448 445 0 0 0 0 0 0
366 358 364 359 354 370 369 355 349 349 374 361 351 370 357 358 374 363 368 365 367 363 361 376 370 363 364 356 359 367 383 380 363 359 369 377 379 380 371 373 370 371 369 363 368 358 380 378 380 388 394 379 380 378 373 384 378 384 378 387 390 396 393 372 390 397 397 393 383 388 382 397 402 386 390 385 389 397 387 396 396 400 398 409 400 391 389 374 386 386 389 408 401 381 404 388 379 401 394 400 390 401 415 396 395 394 388 399 401 406 380 406 383 424 403 393 0 0 0 0
301 317 315 323 334 330 343 330 341 333 311 357 332 352 330 337 345 354 338 338 335 343 341 337 334 354 329 352 322 353 344 353 343 349 339 338 349 328 336 333 340 359 337 330 328 340 344 344 345 345 342 351 344 346 335 339 332 335 343 342 348 347 339 350 352 343 355 336 350 349 342 354 345 345 338 357 345 342 336 348 349 355 348 343 343 357 330 350 330 366 354 361 363 360 350 342 346 357 358 357 362 355 350 373 363 355 356 370 366 367 358 382 369 364 357 355 336 0 0 0
290 293 303 291 297 286 290 295 297 302 295 301 296 281 303 293 307 289 301 311 294 304 310 306 289 311 304 307 284 313 300 304 301 308 306 306 310 302 308 310 312 310 303 310 310 301 317 310 317 306 310 305 300 302 303 310 313 304 316 326 313 302 294 306 315 315 319 312 315 302 308 320 318 320 307 312 321 315 310 310 318 324 318 311 323 324 330 316 322 318 317 327 319 313 317 324 319 322 338 337 301 321 321 332 315 340 327 307 324 321 339 329 325 349 332 313 333 335 341 0
273 279 280 272 288 284 283 280 281 301 279 287 273 289 288 283 287 278 277 287 285 279 274 288 275 271 271 278 285 276 288 286 285 285 285 278 283 284 283 281 291 279 281 286 293 287 286 287 281 286 292 281 286 282 278 291 281 288 284 284 287 292 283 291 298 288 290 289 297 294 290 293 287 283 282 288 291 283 289 291 286 297 288 300 303 289 296 293 297 297 290 303 293 286 291 304 280 293 310 286 302 300 292 290 306 312 291 311 274 275 302 306 280 281 276 324 317 302 321 304
251 247 249 249 254 242 246 252 256 260 251 253 253 264 261 253 255 262 256 250 267 266 267 250 254 258 263 249 245 250 253 266 261 257 256 259 255 269 265 264 265 262 262 262 259 265 264 258 263 265 258 255 267 259 273 259 261 262 268 270 264 263 265 265 270 265 266 262 271 264 260 267 270 267 267 265 270 266 269 264 264 262 263 263 272 269 273 260 265 268 274 262 267 262 260 272 275 265 278 279 281 259 279 274 271 281 275 276 269 265 260 278 253 269 283 282 266 241 282 288
233 231 234 235 249 237 237 232 236 232 234 238 246 252 238 249 242 237 250 244 233 235 240 243 239 238 238 245 245 236 235 243 244 245 240 251 239 248 249 247 239 243 247 246 248 251 251 246 250 255 242 251 242 239 251 239 244 242 245 253 245 250 247 254 247 251 252 246 254 245 250 247 249 248 248 246 250 252 249 252 249 251 252 247 253 256 249 254 249 250 252 251 247 248 254 257 247 250 254 250 248 245 252 258 258 257 254 248 249 250 245 238 246 262 258 257 263 252 233 243
214 216 214 217 220 228 222 218 227 215 226 225 219 223 221 218 221 226 237 224 228 225 224 228 227 233 226 221 228 226 227 230 230 224 236 233 229 230 233 225 238 232 231 226 228 227 224 227 229 234 235 228 231 235 225 231 230 229 227 234 235 234 231 230 236 230 232 234 231 234 237 241 231 235 233 230 239 230 231 232 228 236 232 232 231 237 232 234 237 228 236 230 237 230 235 241 233 235 239 232 232 227 249 226 239 232 234 239 243 237 228 247 238 245 235 235 235 224 241 228
204 205 213 212 215 200 207 209 211 212 209 211 206 220 205 210 215 212 213 217 212 208 199 208 192 213 212 201 210 217 214 217 213 191 213 199 221 217 200 201 203 226 212 214 224 200 199 220 217 217 219 204 204 205 209 216 223 201 219 219 218 219 222 221 223 218 223 204 222 220 222 218 223 216 203 219 219 222 218 223 222 223 223 232 220 221 222 212 213 215 219 222 229 217 226 216 222 210 223 220 215 212 215 230 223 220 217 221 220 218 223 213 228 221 222 223 216 208 218 240
190 183 196 198 211 201 201 201 186 199 185 185 199 196 203 185 207 189 193 191 193 192 193 207 185 186 188 185 188 213 184 188 194 188 196 197 187 197 197 186 187 192 199 191 194 195 191 190 196 194 194 199 195 193 197 195 201 201 197 192 194 195 198 200 194 204 192 198 197 196 201 200 196 195 193 191 198 192 189 190 189 195 196 199 199 199 197 188 187 215 196 195 194 189 190 192 208 190 197 198 207 209 204 197 211 205 212 211 205 206 210 205 211 220 207 214 208 201 196 210
179 178 193 194 193 181 178 183 183 180 185 174 184 177 183 181 188 186 187 185 190 188 187 184 182 182 188 192 183 193 191 188 191 192 194 195 196 188 192 194 192 197 195 199 195 197 188 196 195 195 195 196 195 191 194 197 197 198 197 195 194 197 199 201 191 196 194 192 200 194 197 192 200 191 192 198 196 192 196 191 196 195 196 197 184 185 187 187 195 184 181 186 190 189 192 180 190 182 189 184 185 179 180 180 191 180 183 181 202 205 204 199 183 181 184 182 177 193 175 170
175 173 168 169 179 173 173 180 181 180 178 175 177 186 186 183 183 187 185 188 188 184 189 192 186 186 185 182 186 188 188 182 185 183 182 187 185 180 188 178 185 178 189 191 185 190 186 188 187 191 189 184 195 187 193 190 188 193 186 192 183 188 190 192 188 189 189 193 185 190 187 190 188 190 186 188 190 189 194 186 189 190 189 184 191 189 185 188 185 194 186 193 189 193 189 190 189 186 185 180 184 176 186 182 179 182 192 185 182 176 175 173 205 178 170 171 192 178 179 198
174 165 164 168 170 170 167 173 170 169 167 173 166 176 178 172 172 176 176 182 176 173 174 171 171 171 171 176 174 180 171 184 177 177 180 173 178 174 175 178 178 179 181 178 181 179 180 180 181 183 178 179 173 182 180 183 176 175 178 180 177 176 184 179 183 183 180 185 178 181 176 179 175 181 179 177 181 183 180 176 181 182 178 176 175 179 178 177 183 180 172 179 179 174 180 178 172 178 183 180 179 183 177 178 175 173 167 171 174 173 172 173 174 173 170 160 162 164 174 164
163 162 166 167 158 167 161 157 167 166 167 165 163 171 165 168 164 167 172 166 170 167 170 168 172 164 171 167 174 174 172 172 167 169 165 167 172 169 172 171 163 173 173 169 172 173 165 166 176 172 174 174 175 172 171 174 168 176 172 166 173 173 172 173 175 174 171 170 173 169 176 172 171 174 174 176 175 178 171 168 168 172 173 169 163 175 175 167 176 173 164 167 167 169 164 173 174 167 168 175 173 177 174 165 172 172 174 167 158 163 176 165 170 173 174 178 173 177 173 174
155 162 165 162 161 161 161 158 152 160 163 159 159 160 159 167 153 168 166 168 159 168 169 163 162 164 164 159 158 166 161 166 160 160 159 165 158 160 162 159 165 168 161 162 167 165 164 163 164 162 163 162 164 166 165 168 160 168 160 169 163 161 164 166 162 164 157 161 160 165 160 161 166 167 164 167 170 166 165 165 166 162 169 163 161 159 165 165 165 162 161 161 164 162 164 163 161 158 171 163 167 163 164 172 156 162 169 162 160 161 161 171 169 162 166 151 164 158 162 167
144 140 153 148 151 149 150 147 150 160 150 147 146 155 155 149 150 160 153 158 159 157 157 157 152 154 151 159 159 159 155 154 154 158 152 157 157 153 153 155 160 158 157 159 155 157 159 155 155 157 159 158 157 163 163 155 154 158 157 161 162 162 160 158 162 159 160 158 157 155 155 158 157 157 158 162 163 158 158 150 154 155 162 154 153 155 156 162 158 155 154 154 157 158 158 156 152 153 150 159 155 158 154 157 159 151 158 151 156 154 149 165 154 160 161 152 159 157 159 161
135 142 141 143 146 146 146 148 144 147 148 149 147 145 149 154 147 147 138 147 156 150 154 148 149 146 146 153 148 148 147 148 150 145 143 152 146 152 148 152 151 153 150 150 147 155 149 149 151 148 149 156 146 152 155 151 153 150 153 155 155 148 153 152 148 148 146 149 154 155 152 150 148 152 155 152 155 156 152 154 151 154 154 146 149 150 153 151 153 152 152 153 155 148 158 147 148 150 150 151 151 154 158 157 147 144 147 152 145 150 144 142 156 145 158 152 141 160 150 126
133 135 141 138 135 141 134 141 141 138 141 143 143 144 141 143 144 140 143 146 140 149 141 145 138 145 148 144 143 140 141 142 144 143 141 145 144 149 145 143 148 145 148 148 146 145 149 141 145 151 144 146 144 145 147 147 149 148 144 148 147 131 142 143 146 146 149 146 150 151 147 146 146 146 147 149 150 151 147 149 143 141 146 144 141 142 147 143 149 145 145 146 148 150 148 148 143 148 149 150 144 144 150 142 141 146 142 142 143 145 135 128 141 137 140 141 144 146 142 125
128 133 132 129 134 139 137 140 133 141 139 0 132 137 134 138 140 140 137 140 143 141 141 138 136 140 144 139 137 138 136 138 132 126 138 129 132 125 138 139 133 134 143 141 140 128 130 139 126 129 128 142 135 141 144 143 141 134 143 128 128 129 141 146 143 141 146 144 144 129 132 131 123 140 139 143 144 146 139 143 147 129 142 128 146 145 142 142 141 141 137 142 146 147 144 139 146 141 138 146 142 138 141 143 143 138 132 144 140 134 139 138 129 140 136 137 129 139 105 127
130 130 126 134 136 136 141 134 135 133 136 133 136 137 136 132 127 138 135 134 140 141 142 139 140 137 140 137 137 125 126 126 128 126 127 128 129 128 127 127 141 128 130 139 0 139 130 132 127 128 127 128 133 133 0 142 0 130 132 130 132 127 134 141 129 130 140 125 140 140 128 118 130 129 130 127 133 140 139 131 128 139 138 128 139 137 129 129 139 137 135 143 138 135 128 127 136 141 140 140 127 122 136 139 139 122 137 134 132 132 133 134 136 140 141 140 126 144 153 138
119 107 125 106 126 115 137 120 115 110 123 117 120 126 124 119 124 122 123 121 118 126 125 134 126 138 128 137 0 129 129 122 118 129 118 116 126 125 124 119 128 130 125 129 0 0 126 125 128 117 123 121 125 128 124 127 131 129 132 123 124 122 125 125 128 128 127 129 126 131 128 125 124 128 117 118 120 132 124 126 125 128 125 128 118 128 117 127 121 126 125 125 135 121 118 121 124 136 124 125 122 115 117 124 116 118 114 118 120 128 117 131 139 131 128 110 106 146 112 85
111 114 122 108 108 117 119 115 127 116 118 119 116 121 118 114 112 124 124 119 125 122 125 121 124 119 131 130 126 125 123 0 121 118 119 110 116 121 0 122 127 121 0 0 0 0 123 122 119 120 123 120 126 119 123 128 122 121 121 121 125 123 117 123 124 126 125 125 123 121 124 115 121 114 118 118 124 129 124 123 118 112 125 123 121 119 127 124 124 124 119 119 119 123 121 118 125 124 120 123 121 122 122 118 111 120 122 117 119 129 126 133 122 122 111 130 115 105 114 139
107 95 110 116 110 113 113 120 112 107 121 114 114 110 113 106 118 112 115 122 115 109 112 114 115 111 118 116 112 125 123 0 120 122 114 110 112 0 114 116 120 0 0 120 123 0 121 117 113 114 114 115 120 117 121 118 119 117 114 121 120 122 120 120 117 123 117 116 117 115 117 120 107 115 120 113 118 115 117 119 115 117 115 119 115 112 121 118 115 122 118 120 123 114 107 118 124 118 110 120 114 115 117 106 114 107 116 119 125 117 124 125 119 110 139 137 109 107 85 133
94 100 106 102 98 106 116 113 102 112 111 103 108 112 120 117 112 110 102 103 115 107 109 108 108 110 112 116 120 115 119 114 115 115 116 111 108 110 0 114 112 116 115 108 114 113 116 0 114 0 112 107 117 112 0 0 108 110 116 111 124 113 103 109 106 113 109 111 112 109 111 104 108 104 107 107 109 108 106 113 105 104 105 110 115 103 112 102 101 108 108 102 97 109 112 113 105 111 102 107 103 106 114 102 107 110 109 108 110 115 104 116 103 113 104 107 98 83 111 120
107 102 110 110 105 104 109 104 110 109 101 111 105 107 118 119 110 111 114 102 106 88 99 106 113 108 110 112 104 114 109 108 108 104 110 109 112 0 108 108 107 106 110 101 101 105 105 109 112 0 109 110 109 115 109 110 103 110 111 111 106 110 115 0 114 109 107 109 110 111 109 104 106 109 101 105 104 102 101 110 107 104 109 107 97 106 99 110 103 106 104 107 101 98 99 100 105 109 110 104 105 112 101 111 113 102 97 111 103 108 102 103 107 107 126 94 109 94 112 110
84 97 107 105 96 97 100 93 93 95 100 103 100 97 105 104 102 96 106 104 97 103 90 98 103 102 104 98 96 104 106 100 102 96 104 97 104 107 106 103 102 103 96 96 100 100 104 99 104 101 103 106 105 103 100 103 96 102 102 101 104 108 101 0 109 104 0 109 101 109 101 99 101 106 101 107 101 104 0 101 0 103 96 104 96 105 99 101 100 106 99 106 97 99 92 93 99 97 95 96 99 97 96 99 102 101 101 91 93 101 95 96 79 105 107 89 103 94 84 95
87 89 86 91 92 91 99 93 94 100 101 97 106 98 100 97 95 93 104 99 96 90 93 95 99 92 104 102 99 98 104 101 102 104 100 103 101 99 97 101 102 101 95 100 95 97 97 101 102 102 107 103 95 104 97 101 96 105 99 100 102 101 105 99 111 104 105 108 106 98 99 102 102 104 95 101 102 98 100 98 0 100 95 88 97 99 98 108 92 98 102 102 103 101 96 103 91 95 84 106 96 87 98 92 93 101 92 91 101 102 91 96 113 87 85 106 122 87 83 104
87 100 89 99 89 92 95 85 90 91 93 93 96 86 89 83 92 90 105 103 107 95 82 87 94 93 98 92 94 97 98 98 104 96 96 103 100 91 94 105 97 89 86 90 101 95 100 99 93 99 102 92 100 91 99 102 89 97 96 93 92 97 99 0 99 101 97 98 95 96 100 99 101 100 84 106 98 98 97 107 94 94 87 106 99 94 89 89 95 91 94 94 97 81 88 86 96 87 101 88 93 98 96 95 97 99 94 91 85 93 95 86 86 82 91 83 104 97 107 89
84 88 78 89 86 87 87 92 82 79 83 92 95 91 84 93 85 84 94 93 92 90 88 87 95 88 95 88 91 94 86 87 99 93 94 93 89 89 89 90 90 96 88 96 89 85 89 88 92 99 98 91 96 94 95 90 98 90 96 94 89 95 95 89 91 89 91 87 92 97 98 96 99 88 99 95 90 88 88 95 88 88 93 88 88 85 94 94 95 89 94 95 92 92 91 94 93 91 89 86 87 87 83 93 89 82 87 86 84 89 85 76 86 88 84 92 81 71 77 104
91 81 84 82 93 86 98 98 87 87 85 86 89 91 87 87 89 83 92 94 81 89 92 87 90 88 93 89 88 85 92 86 97 91 94 83 94 85 87 99 88 94 93 93 94 96 90 92 87 97 99 89 97 98 99 96 97 90 88 94 93 98 95 92 92 91 97 95 89 95 90 99 96 93 94 92 92 96 85 97 99 86 96 93 96 86 91 95 96 94 96 95 96 90 95 92 90 82 89 97 89 87 84 92 86 96 87 91 88 87 85 82 87 84 86 92 83 100 0 0
82 88 85 86 88 88 82 88 87 0 81 91 85 86 82 80 88 92 85 88 89 94 90 92 89 93 94 93 89 92 86 93 94 94 91 89 88 92 96 96 98 89 93 84 98 87 92 97 87 98 88 94 94 87 92 96 96 95 96 98 92 92 92 93 96 98 96 94 91 97 97 95 96 91 91 90 85 93 97 95 96 85 89 93 92 96 96 93 94 93 86 100 104 86 87 91 92 93 92 85 82 88 90 91 89 91 92 86 93 85 84 85 89 83 81 85 91 111 115 0
77 82 78 85 86 86 98 87 84 79 84 84 88 90 86 88 83 86 81 91 90 84 90 83 93 84 82 90 91 89 85 89 91 89 89 96 90 87 87 89 91 91 89 90 88 89 94 94 93 91 91 94 93 89 94 97 92 92 91 94 88 88 95 87 89 96 87 82 91 91 87 89 90 92 86 89 88 92 94 89 90 85 90 94 88 90 92 91 86 94 92 87 88 85 86 84 85 84 85 89 73 82 91 89 89 83 87 86 79 80 72 89 91 84 75 70 94 81 0 0
80 76 78 80 83 83 90 93 90 89 81 78 89 86 82 88 81 92 86 89 89 93 92 86 83 94 86 85 90 92 86 88 94 94 87 86 86 87 85 93 91 83 89 94 94 88 91 91 89 94 88 89 86 85 78 90 93 94 90 97 90 86 83 95 89 95 86 85 90 93 86 86 91 85 96 88 92 94 96 91 93 88 90 84 96 92 86 87 93 93 91 93 85 87 90 88 87 91 92 84 83 92 82 89 83 86 91 93 86 82 88 86 88 93 87 99 0 0 68 0
78 70 62 61 81 80 89 84 80 76 81 72 80 86 82 81 78 82 78 72 86 74 77 73 76 76 76 77 76 77 88 71 82 87 88 78 82 80 82 79 80 85 83 70 78 83 82 85 82 80 82 73 73 86 84 76 85 83 89 77 85 77 83 81 78 84 76 82 77 75 85 82 77 79 85 82 76 83 85 84 74 79 74 72 75 83 80 72 75 77 83 67 82 73 77 78 72 86 72 83 70 79 76 62 71 69 82 71 65 90 73 77 78 57 74 67 0 0 0 0
72 72 75 71 70 80 87 85 83 79 82 87 73 74 76 77 81 80 76 78 78 83 74 81 87 80 75 68 76 83 88 81 82 87 81 72 78 83 77 79 93 82 86 85 78 90 76 80 84 82 80 76 78 76 79 80 85 77 81 74 83 79 79 83 73 82 82 78 86 68 81 80 85 83 86 87 84 83 86 82 83 79 83 87 73 78 80 69 83 88 63 83 69 79 84 76 85 73 71 81 88 77 74 66 76 69 68 82 72 70 88 63 78 63 78 0 0 0 0 0
