0 0 0 0 0 0 0 0 0 0 0 0 0 0 0 0 0 0 0 0 0 0 0 0 0 0 0 0 0 0 0 0 0 0 0 0 0 0 0 0 0 0 0 0 0 0 0 0 0 0 0 0 0 0 0 0 0 0 0 0 0 0 0 0 0 0 0 0 0 0 0 0 0 0 0 0 0 0 0 0 0 0 0 0 0 0 0 0 0 0 0 0 0 0 0 0 0 0 0 0 0 0 0 0 0 0 0 0 0 0 0 0 0 0 0 0 0 0 0 0
0 0 0 0 0 0 0 0 0 0 0 0 0 0 0 0 0 0 0 0 0 0 0 0 0 0 0 0 0 0 0 0 0 0 0 0 0 0 0 0 0 0 0 0 0 0 0 0 0 0 0 0 0 0 0 0 0 0 0 0 0 0 0 0 0 0 0 0 0 0 0 0 0 0 0 0 0 0 0 0 0 0 0 0 0 0 0 0 0 0 0 0 0 0 0 0 0 0 0 0 0 0 0 0 0 0 0 0 0 0 0 0 0 0 0 0 0 0 0 0
0 0 0 0 0 0 0 0 0 0 0 1147 0 0 0 0 1257 1272 0 0 0 0 0 0 0 0 0 0 0 0 0 0 0 0 0 0 0 0 0 0 0 0 0 0 0 0 0 0 0 0 0 0 0 0 0 0 0 0 0 0 0 0 0 0 0 0 0 0 0 0 0 0 0 0 0 0 0 0 0 0 0 0 0 0 0 0 0 0 0 0 0 0 0 0 0 0 0 0 0 0 0 0 0 0 0 0 0 0 0 0 0 0 0 0 0 0 0 0 0 0
0 0 0 0 0 0 0 0 0 0 0 1162 1145 1109 1167 0 1299 1275 1286 0 0 1274 1286 0 0 0 0 0 0 0 0 0 0 0 0 0 0 0 0 0 0 0 0 0 0 0 0 0 0 0 0 0 0 0 0 0 0 0 0 0 0 0 0 0 0 0 0 0 0 0 0 0 0 0 0 0 0 0 0 0 0 0 0 0 0 0 0 0 0 0 0 0 0 0 0 0 0 0 0 0 0 0 0 0 0 0 0 0 0 0 0 0 0 0 0 0 0 0 0 0
0 0 0 0 0 0 0 0 1098 1126 1108 1136 1130 1117 1138 0 1221 1269 1246 0 1254 1247 1256 0 0 0 0 0 0 0 0 0 0 0 0 0 0 0 0 0 0 0 0 0 0 0 0 0 0 0 0 0 0 0 0 0 0 0 0 0 0 0 0 0 0 0 0 0 0 0 0 0 0 0 0 0 0 0 0 0 0 0 0 0 0 0 0 0 0 0 0 0 0 0 0 0 0 0 0 0 0 0 0 0 0 0 0 0 0 0 0 0 0 0 0 0 0 0 0 0
0 0 0 0 0 0 0 1113 1123 1122 0 0 1138 1123 1165 1200 1280 1265 1252 1261 1255 1251 1247 1261 0 0 0 0 0 0 0 0 0 0 0 0 0 0 0 0 0 0 0 0 0 0 0 0 0 0 0 0 0 0 0 0 0 0 0 0 0 0 0 0 0 0 0 0 0 0 0 0 0 0 0 0 0 0 0 0 0 0 0 0 0 0 0 0 0 0 0 0 0 0 0 0 0 0 0 0 0 0 0 0 0 0 0 0 0 0 0 0 0 0 0 0 0 0 0 0
0 0 0 0 0 0 0 0 0 0 0 0 1186 1224 1256 1269 1274 1299 1258 1275 1259 1260 1255 1312 1295 0 0 0 0 0 0 1418 0 0 0 0 0 0 0 0 0 0 0 0 0 0 0 0 0 0 0 0 0 0 0 0 0 0 0 0 0 0 0 0 0 0 0 0 0 0 0 0 0 0 0 0 0 0 0 0 0 0 0 0 0 0 0 0 0 0 0 0 0 0 0 0 0 0 0 0 0 0 0 0 0 0 0 0 0 0 0 0 0 0 0 0 0 0 0 0
0 0 0 0 0 0 0 0 0 0 0 0 1208 1261 1238 1256 1282 1280 1251 1239 1246 1229 1253 1229 0 1321 1334 1328 1346 1350 0 1385 0 0 0 0 0 0 0 0 0 0 0 0 0 0 0 0 0 0 0 0 0 0 0 0 0 0 0 0 0 0 0 0 0 0 0 0 0 0 0 0 0 0 0 0 0 0 0 0 0 0 0 0 0 0 0 0 0 0 0 0 0 0 0 0 0 0 0 0 0 0 0 0 0 0 0 0 0 0 0 0 0 0 0 0 0 0 0 0
0 0 0 0 0 0 0 0 0 0 0 0 1285 1281 1276 1288 1299 1288 1305 1286 1247 1262 1271 1288 0 0 1390 1362 1347 1363 1387 1453 0 0 0 0 0 0 0 0 0 0 0 0 0 0 0 0 0 0 0 0 0 0 0 0 0 0 0 0 0 0 0 0 0 0 0 0 0 0 0 0 0 0 0 0 0 0 0 0 0 0 0 0 0 0 0 0 0 0 0 0 0 0 0 0 0 0 0 0 0 0 0 0 0 0 0 0 0 0 0 0 0 0 0 0 0 0 0 0
0 0 0 0 0 0 0 0 0 0 0 0 0 1300 1313 1314 1285 1293 1276 1274 1263 1266 1282 1267 1272 0 0 1340 1336 1365 1357 1441 0 0 0 0 0 0 0 0 0 0 0 0 0 0 0 0 0 0 0 0 0 0 0 0 0 0 0 0 0 0 0 0 0 0 0 0 0 0 0 0 0 0 0 0 0 0 0 0 0 0 0 0 0 0 0 0 0 0 0 0 0 0 0 0 0 0 0 0 0 0 0 0 0 0 0 0 0 0 0 0 0 0 0 0 0 0 0 0
0 0 0 0 0 0 0 0 0 0 0 0 0 0 0 0 0 0 0 0 0 1285 1274 1283 1291 0 0 1330 1327 1383 1359 1427 1439 0 0 0 0 0 0 0 0 0 0 0 0 0 0 0 0 0 0 0 0 0 0 0 0 0 0 0 0 0 0 0 0 0 0 0 0 0 0 0 0 0 0 0 0 0 0 0 0 0 0 0 0 0 0 0 0 0 0 0 0 0 0 0 0 0 0 0 0 0 0 0 0 0 0 0 0 0 0 0 0 0 0 0 0 0 0 0
0 0 0 0 0 0 0 0 0 0 0 0 0 0 0 0 0 0 0 0 0 0 0 1386 1325 0 0 0 1368 1360 1335 1426 1426 0 0 0 0 0 0 0 0 0 0 0 0 0 0 0 0 0 0 0 0 0 0 0 0 0 0 0 0 0 0 0 0 0 0 0 0 0 0 0 0 0 0 0 0 0 0 0 0 0 0 0 0 0 0 0 0 0 0 0 0 0 0 0 0 0 0 0 0 0 0 0 0 0 0 1732 1756 0 0 0 0 0 0 0 0 0 0 0
0 0 0 0 0 0 0 0 0 0 0 0 0 0 0 0 0 0 0 0 0 0 0 1365 1362 1302 1303 1338 1330 1341 1360 1355 1388 0 0 0 0 0 0 0 0 0 0 0 0 0 0 0 0 0 0 0 0 0 0 0 0 0 0 0 0 0 0 0 0 0 0 0 0 0 0 0 0 0 0 0 0 0 0 0 0 0 0 0 0 0 0 0 0 0 0 0 0 0 0 0 0 0 0 0 0 0 0 0 0 0 1760 0 0 0 0 0 0 0 0 0 0 0 0 0
0 0 0 0 0 0 0 0 0 0 0 0 0 0 0 0 0 0 0 0 0 0 0 1360 1374 1373 1326 1293 1343 1331 1335 1402 1423 0 0 0 0 0 0 0 0 0 0 0 0 0 0 0 0 0 0 0 0 0 0 0 0 0 0 0 0 0 0 0 0 0 0 0 0 0 0 0 0 0 0 0 0 0 0 0 0 0 0 0 0 0 0 0 0 0 0 0 0 0 0 0 0 0 0 0 0 0 0 0 0 1745 1740 0 1648 0 0 0 0 0 0 0 0 0 0 0
0 0 0 0 0 0 0 0 0 0 0 0 0 0 0 0 0 0 0 0 0 0 0 1362 1357 1366 1355 1362 1337 1319 1307 1409 1405 0 0 0 0 0 0 0 0 0 0 0 0 0 0 0 0 0 0 0 0 0 0 0 0 0 0 0 0 0 0 0 0 0 0 0 0 0 0 0 0 0 0 0 0 0 0 0 0 0 0 0 0 0 0 0 0 0 0 0 0 0 0 0 0 0 0 0 0 0 0 0 0 1743 1736 0 0 0 0 0 0 0 0 0 0 0 0 0
0 0 0 0 0 0 0 0 0 0 0 0 0 0 0 0 0 0 0 0 0 0 0 1343 1355 1370 1376 1369 1361 1347 1358 1395 1426 0 0 0 0 0 0 0 0 0 0 0 0 0 0 0 0 0 0 0 0 0 0 0 0 0 0 0 0 0 0 0 0 0 0 0 0 0 0 0 0 0 0 0 0 0 0 0 0 0 0 0 0 0 0 0 0 0 0 0 0 0 0 0 0 0 0 0 0 0 0 0 0 0 0 1675 1733 0 0 0 0 0 0 0 0 0 0 0
1257 1266 1251 1274 1287 1311 1306 0 0 0 0 0 0 0 0 0 0 0 0 0 0 0 0 0 1363 1375 1382 1364 1370 1379 1358 1413 1428 0 0 0 0 0 0 0 0 0 0 0 0 0 0 0 0 0 0 0 0 0 0 0 0 0 0 0 0 0 0 0 0 0 0 0 0 0 0 0 0 0 0 0 0 0 0 0 0 0 0 0 0 0 0 0 0 0 0 0 0 0 0 0 0 0 0 0 0 0 0 0 1738 1722 1694 1685 1730 1722 0 1718 1676 0 0 0 0 0 0 0
1263 1282 1278 1302 1280 1319 1289 1311 1311 1331 1365 0 0 0 0 0 0 0 0 0 0 0 0 1403 1358 1364 1384 1390 1384 1386 1407 1411 1417 0 0 0 0 0 0 0 0 0 0 0 0 0 0 0 0 0 0 0 0 0 0 0 0 0 0 0 0 0 0 0 0 0 0 0 0 0 0 0 0 0 0 0 0 0 0 0 0 0 0 0 0 0 0 0 0 0 0 0 0 0 0 0 0 0 0 0 0 0 0 1815 1741 1812 1718 1722 1684 1702 1664 1688 1656 0 0 0 0 0 0 0
1270 1253 1283 1273 1269 1298 1301 1305 1321 1341 1347 1353 1387 1374 1402 1427 0 0 0 0 0 0 0 0 1405 1395 0 0 1381 0 0 1424 1405 0 0 0 0 0 0 0 0 0 0 0 0 0 0 0 0 0 0 0 0 0 0 0 0 0 0 0 0 0 0 0 0 0 0 0 0 0 0 0 0 0 0 0 0 0 0 0 0 0 0 0 0 0 0 0 0 0 0 0 0 0 0 0 0 0 0 0 0 0 1807 1757 1785 1745 1760 1730 1700 1666 1643 1716 0 0 0 0 0 0 0 0
0 0 0 0 1290 1300 1294 1321 1315 1326 1336 1329 1366 1390 1395 1403 1407 1435 1481 1447 0 0 0 0 0 0 0 0 0 0 0 1422 1450 1411 0 0 0 0 0 0 0 0 0 0 0 0 0 0 0 0 0 0 0 0 0 0 0 0 0 0 0 0 0 0 0 0 0 0 0 0 0 0 0 0 0 0 0 0 0 0 0 0 0 0 0 0 0 0 0 0 0 0 0 0 0 0 0 0 0 0 0 0 1828 1769 1762 1762 1736 1720 1709 1589 0 0 0 0 0 0 0 0 0 0
0 0 0 0 0 0 0 0 0 1335 1331 1357 1364 1355 1392 1398 1381 1419 1420 1436 1471 1493 0 0 0 0 0 0 0 0 0 1419 1480 1441 0 0 0 0 0 0 0 0 0 0 0 0 0 0 0 0 0 0 0 0 0 0 0 0 0 0 0 0 0 0 0 0 0 0 0 0 0 0 0 0 0 0 0 0 0 0 0 0 0 0 0 0 0 0 0 0 0 0 0 0 0 0 0 0 0 0 0 0 0 1795 1704 1679 1620 1575 1606 1580 1610 1581 1584 1598 0 0 0 0 0 0
0 0 0 0 0 0 0 0 0 0 0 0 0 0 0 1371 1417 1416 1422 1436 1469 1451 0 0 0 0 0 0 0 0 0 0 1467 0 0 0 0 0 0 0 0 0 0 0 0 0 0 0 0 0 0 0 0 0 0 0 0 0 0 0 0 0 0 0 0 0 0 0 0 0 0 0 0 0 0 0 0 0 0 0 0 0 0 0 0 0 0 0 0 0 0 0 0 0 0 0 0 0 0 0 0 1745 1639 1585 1573 1616 1615 1582 1590 1562 1585 1580 1598 1608 1564 0 0 0 0 0
0 0 0 0 0 0 0 0 0 0 0 0 0 0 0 0 0 0 0 0 0 1422 0 0 0 0 0 0 0 0 0 0 0 0 0 0 0 0 0 0 0 0 0 0 0 0 0 0 0 0 0 0 0 0 0 0 0 0 0 0 0 0 0 0 0 0 0 0 0 0 0 0 0 0 0 0 0 0 0 0 0 0 0 0 0 0 0 0 0 0 0 0 0 0 0 0 0 0 0 0 0 1614 1611 1627 1594 1615 1599 1597 1607 1578 1588 1582 1605 1563 0 0 0 0 0 0
0 0 0 0 0 0 0 0 0 0 0 0 0 0 0 0 0 0 0 0 0 0 0 0 0 0 0 0 0 0 0 0 0 0 0 0 0 0 0 0 0 0 0 0 0 0 0 0 0 0 0 0 0 0 0 0 0 0 0 0 0 0 0 0 0 0 0 0 0 0 0 0 0 0 0 0 0 0 0 0 0 0 0 0 0 0 0 0 0 0 0 0 0 0 0 0 0 0 0 0 0 0 1589 1585 1565 1606 1567 1617 1586 1591 1570 1592 0 0 0 0 0 0 0 0
0 0 0 0 0 0 0 0 0 0 0 0 0 0 0 0 0 0 0 0 0 0 0 0 0 0 0 0 0 0 0 0 0 0 0 0 0 0 0 0 0 0 0 0 0 0 0 0 0 0 0 0 0 0 0 0 0 0 0 0 0 0 0 0 0 0 0 0 0 0 0 0 0 0 0 0 0 0 0 0 0 0 0 0 0 0 0 0 0 0 0 0 0 0 0 0 0 0 0 0 0 0 0 0 0 0 1538 1582 1591 0 0 0 0 0 0 0 0 0 0 0
0 0 0 0 0 0 0 0 0 0 0 0 0 0 0 0 0 0 0 0 0 0 0 0 0 0 0 0 0 0 0 0 0 0 0 0 0 0 0 0 0 0 0 0 0 0 0 0 0 0 0 0 0 0 0 0 0 0 0 0 0 0 0 0 0 0 0 0 0 0 0 0 0 0 0 0 0 0 0 0 0 0 0 0 0 0 0 0 0 0 0 0 0 0 0 0 0 0 0 0 0 0 0 0 0 0 0 0 0 0 0 0 0 0 0 0 0 0 0 0
575 558 0 0 0 0 0 0 0 0 0 0 0 0 0 0 0 0 0 0 0 0 0 0 0 1844 1894 0 0 0 0 0 0 0 0 0 0 0 0 0 0 0 0 0 0 0 0 2908 2890 2936 2879 2906 2881 2894 2948 2884 2867 2906 2884 2942 2891 2903 2858 2850 2899 2899 0 0 0 0 0 0 0 0 0 0 0 0 0 0 0 0 0 0 0 0 0 0 0 0 0 0 0 0 0 1771 1718 0 0 0 0 0 0 0 0 0 0 0 0 0 0 0 0 0 0 0 0 0 0 0
588 586 591 599 612 689 0 0 0 0 0 0 0 0 0 0 0 0 0 0 0 0 0 0 0 0 1919 1937 1920 0 0 0 0 0 0 0 0 0 0 0 0 0 0 0 0 0 0 2939 2925 2900 2919 2975 2860 2909 2880 2857 2921 2904 2871 2876 2862 2921 2877 2863 2888 2840 0 0 0 0 0 0 0 0 0 0 0 0 0 0 0 0 0 0 0 0 0 0 0 0 0 0 0 0 0 0 0 0 0 0 0 0 0 0 0 0 0 0 0 0 0 0 0 0 0 0 0 0 0 0
574 582 585 600 599 617 632 618 663 0 0 0 0 0 0 0 0 0 0 0 0 0 0 0 0 0 0 0 0 0 0 0 0 0 0 0 0 0 0 0 0 0 0 0 0 0 0 2945 2918 2913 2935 2859 2918 2913 2957 2944 2872 2887 2905 2948 2886 2910 2882 2940 2912 0 0 0 0 0 0 0 0 0 0 0 0 0 0 0 0 0 0 0 0 0 0 0 0 0 0 0 0 0 0 0 0 0 0 0 0 0 0 0 0 0 0 0 0 0 0 0 0 0 0 0 0 0 0 0
581 580 603 602 606 618 639 625 671 675 666 720 0 0 0 0 0 0 0 0 0 0 0 0 0 0 0 0 0 0 0 0 0 0 0 0 0 0 0 0 0 0 0 0 0 0 0 2935 2939 2975 2932 2895 2938 2920 2896 2924 2916 2899 2888 2919 2911 2900 2935 2900 2911 2915 0 0 0 0 0 0 0 0 0 0 0 0 0 0 0 0 0 0 0 0 0 0 0 0 0 0 0 0 0 0 0 0 0 0 0 0 0 0 0 0 0 0 0 0 0 0 0 0 0 0 0 0 0 0
584 583 564 591 613 626 628 652 626 672 672 693 658 739 751 0 0 0 0 0 0 0 0 0 0 0 0 0 0 0 0 0 0 0 0 0 0 0 0 0 0 0 0 0 0 0 0 2972 2912 2957 2891 2927 2926 2910 2935 2956 2930 2955 2934 2891 2898 2926 2919 2978 2894 2892 0 0 0 0 0 0 0 0 0 0 0 0 0 0 0 0 0 0 0 0 0 0 0 0 0 0 0 0 0 0 0 0 0 0 0 0 0 0 0 0 0 0 0 0 0 0 0 0 0 0 0 0 0 0
757 738 769 743 694 663 647 675 642 668 678 690 693 723 727 741 763 772 0 0 0 0 0 0 0 0 0 0 0 0 0 0 0 0 0 0 0 0 0 0 0 0 0 0 0 0 0 3005 2872 2986 2973 2899 2976 2938 2882 2951 2951 2929 2903 2908 2869 2910 2917 2909 2889 0 0 0 0 0 0 0 0 0 0 0 0 0 0 0 0 0 0 0 0 0 0 0 0 0 0 0 0 0 0 0 0 0 0 0 0 0 0 0 0 0 0 0 0 0 0 0 0 0 0 0 0 0 0 0
779 794 803 805 834 864 848 876 843 805 776 737 715 751 738 754 786 789 803 819 903 0 0 0 0 0 0 0 0 0 0 0 0 0 0 0 0 0 0 0 0 0 0 0 0 0 0 2864 2875 2846 2863 2873 2904 2865 2876 2900 2903 2890 2849 2892 2861 2848 2853 2851 2835 2840 0 0 0 0 0 0 0 0 0 0 0 0 0 0 0 0 0 0 0 0 0 0 0 0 0 0 0 0 0 0 0 0 0 0 0 0 0 0 0 0 0 0 0 0 0 0 0 0 0 0 0 0 0 0
758 826 824 838 859 875 883 906 897 921 914 925 920 922 864 817 801 781 793 829 850 856 885 892 0 0 0 0 0 0 0 0 0 0 0 0 0 0 0 0 0 0 0 0 0 0 0 2881 2913 2884 2913 2883 2892 2905 2900 2876 2927 2878 2899 2890 2893 2903 2880 2902 2889 2850 0 0 0 0 0 0 0 0 0 0 0 0 0 0 0 0 0 0 0 0 0 0 0 0 0 0 0 0 0 0 0 0 0 0 0 0 0 0 0 0 0 0 0 0 0 0 0 0 0 0 0 0 0 0
624 0 861 829 846 869 880 913 887 923 925 953 949 953 959 953 948 921 905 867 858 848 854 882 904 945 0 0 0 0 0 0 0 0 0 0 0 0 0 0 0 0 0 0 0 0 0 2879 2894 2908 2915 2890 2921 2891 2895 2927 2888 2889 2835 2882 2892 2938 2913 2882 2896 2855 0 0 0 0 0 0 0 0 0 0 0 0 0 0 0 0 0 0 0 0 0 0 0 0 0 0 0 0 0 0 0 0 0 0 0 0 0 0 0 0 0 0 0 0 0 0 0 0 0 0 0 0 0 0
648 940 944 947 945 964 911 947 915 927 924 944 958 954 950 941 951 953 963 959 937 927 918 904 941 943 952 1004 1028 0 0 0 0 0 0 0 0 0 0 0 0 0 0 0 0 0 0 2885 2868 2910 2934 2912 2876 2905 2901 2915 2879 2876 2854 2915 2909 2888 2876 2900 2918 2861 0 0 0 0 0 0 0 0 0 0 0 0 0 0 0 0 0 0 0 0 0 0 0 0 0 0 0 0 0 0 0 0 0 0 0 0 0 0 0 0 0 0 0 0 0 0 0 0 0 0 0 0 0 0
593 718 0 0 0 0 0 0 0 0 934 969 984 954 940 941 970 955 961 964 946 948 950 951 931 963 937 995 996 1081 1070 0 0 0 0 0 0 0 0 0 0 0 0 0 0 0 0 2939 2925 2921 2953 2901 2947 2917 2942 2918 2909 2884 2946 2886 2953 2939 2936 2888 2891 2849 0 0 0 0 0 0 0 0 0 0 0 0 0 0 0 0 0 0 0 0 0 0 0 0 0 0 0 0 0 0 0 0 0 0 0 0 0 0 0 0 0 0 0 0 0 0 0 0 0 0 0 0 0 0
579 618 602 0 1123 1148 1133 1148 1160 1146 1164 1138 1162 1149 1158 1148 1140 1039 0 0 1034 1071 1069 982 1000 1035 1128 1143 1108 1088 1077 0 0 0 0 0 0 0 0 0 0 0 0 0 0 0 0 2911 2965 2914 2929 2965 2976 2944 2955 2897 2932 2898 2920 2943 2916 2920 2929 2952 2912 2849 0 0 0 0 0 0 0 0 0 0 0 0 0 0 0 0 0 0 0 0 0 0 0 0 0 0 0 0 0 0 0 0 0 0 0 0 0 0 0 0 0 0 0 0 0 0 0 0 0 0 0 0 0 0
569 550 568 587 0 0 0 0 0 0 0 0 0 0 0 0 1383 1001 977 0 0 1144 1111 0 0 1120 1148 1170 1124 1119 1123 0 0 0 0 0 0 0 0 0 0 0 0 0 0 0 0 2897 2949 2943 2929 2957 2899 2937 2943 2947 2956 2900 2880 2915 2922 2960 2948 2913 2915 0 0 0 0 0 0 0 0 0 0 0 0 0 0 0 0 0 0 0 0 0 0 0 0 0 0 0 0 0 0 0 0 0 0 0 0 0 0 0 0 0 0 0 0 0 0 0 0 0 0 0 0 0 0 0
584 570 580 596 587 0 0 0 0 0 0 0 0 0 0 0 0 975 962 0 0 0 0 0 0 0 0 0 0 0 0 0 0 0 0 0 0 0 0 0 0 0 0 0 0 0 0 2902 2937 2938 2946 2935 2908 2942 2867 2952 2918 2918 2919 2924 2888 2888 2916 2893 2945 0 0 0 0 0 0 0 0 0 0 0 0 0 0 0 0 0 0 0 0 0 0 0 0 0 0 0 0 0 0 0 0 0 0 0 0 0 0 0 0 0 0 0 0 0 0 0 0 0 0 0 0 0 0 0
588 617 636 602 658 709 0 0 0 0 0 0 0 0 0 0 0 0 0 0 0 0 0 0 0 0 0 0 0 0 0 0 0 0 0 0 0 0 0 0 0 0 0 0 0 0 0 2865 2891 2869 2864 2883 2908 2836 2859 2895 2892 2884 2878 2868 2877 2863 2864 2892 2840 0 0 0 0 0 0 0 0 0 0 0 0 0 0 0 0 0 0 0 0 0 0 0 0 0 0 0 0 0 0 0 0 0 0 0 0 0 0 0 0 0 0 0 0 0 0 0 0 0 0 0 0 0 0 0
616 602 619 641 607 645 0 0 0 0 0 0 0 0 0 0 0 0 0 0 0 0 0 0 0 0 0 0 0 0 0 0 0 0 0 0 0 0 0 0 0 0 0 0 0 0 0 2902 2882 2899 2932 2921 2875 2902 2886 2848 2898 2889 2883 2912 2881 2872 2861 2892 2895 2843 0 0 0 0 0 0 0 0 0 0 0 0 0 0 0 0 0 0 0 0 0 0 0 0 0 0 0 0 0 0 0 0 0 0 0 0 0 0 0 0 0 0 0 0 0 0 0 0 0 0 0 0 0 0
593 590 631 619 647 574 0 0 0 0 0 0 0 0 0 0 0 0 0 0 0 0 963 0 0 0 0 0 0 0 0 0 0 0 0 0 0 0 0 0 0 0 0 0 0 0 0 2895 2928 2917 2886 2889 2873 2911 2855 2898 2863 2861 2900 2890 2839 2861 2885 2857 2858 0 0 0 0 0 0 0 0 0 0 0 0 0 0 0 0 0 0 0 0 0 0 0 0 0 0 0 0 0 0 0 0 0 0 0 0 0 0 0 0 0 0 0 0 0 0 0 0 0 0 0 0 0 0 0
571 604 610 605 600 646 658 0 0 0 0 0 0 0 0 0 0 0 0 0 0 0 0 0 0 0 0 0 0 0 0 0 0 0 0 0 0 0 0 0 0 0 0 0 0 0 0 2879 2828 2902 2876 2895 2888 2867 2918 2929 2861 2876 2899 2825 2879 2846 2890 2891 2839 0 0 0 0 0 0 0 0 0 0 0 0 0 0 0 0 0 0 0 0 0 0 0 0 0 0 0 0 0 0 0 0 0 0 0 0 0 0 0 0 0 0 0 0 0 0 0 0 0 0 0 0 0 0 0
570 571 584 580 591 594 599 0 0 0 0 0 0 0 0 0 2278 0 0 0 0 0 923 975 0 0 0 0 0 0 0 0 0 0 0 0 0 0 0 0 0 0 0 0 0 0 0 2914 2918 2893 2935 2932 2908 2931 2976 2907 2927 2936 2890 2894 2962 2902 2916 2934 2928 2899 0 0 0 0 0 0 0 0 0 0 0 0 0 0 0 0 0 0 0 0 0 0 0 0 0 0 0 0 0 0 0 0 0 0 0 0 0 0 0 0 0 0 0 0 0 0 0 0 0 0 0 0 0 0
561 578 600 557 614 620 521 0 0 0 0 0 0 0 0 0 0 0 0 0 0 0 0 0 0 0 0 0 0 0 0 0 0 0 0 0 0 0 0 0 0 0 0 0 0 0 0 2942 2929 2987 2932 2915 2929 2914 2970 2888 2907 2916 2912 2952 2889 2917 2928 2897 2902 2898 0 0 0 0 0 0 0 0 0 0 0 0 0 0 0 0 0 0 0 0 0 0 0 0 0 0 0 0 0 0 0 0 0 0 0 0 0 0 0 0 0 0 0 0 0 0 0 0 0 0 0 0 0 0
579 582 599 603 590 613 0 0 0 0 0 0 0 0 0 0 0 0 0 0 0 0 0 0 0 0 0 0 0 0 0 0 0 0 0 0 0 0 0 0 0 0 0 0 0 0 0 0 0 0 0 0 0 0 0 0 0 0 0 0 0 2998 2993 2900 2891 0 0 0 0 0 0 0 0 0 0 0 0 0 0 0 0 0 0 0 0 0 0 0 0 0 0 0 0 0 0 0 0 0 0 0 0 0 0 0 0 0 0 0 0 0 0 0 0 0 0 0 0 0 0 0
586 572 590 571 575 575 0 0 0 0 0 0 0 0 0 0 0 0 0 0 0 0 0 0 0 0 0 0 0 0 0 0 0 0 0 0 0 0 0 0 0 0 0 0 0 0 0 0 0 0 0 0 0 0 0 0 0 0 0 0 0 0 0 0 0 0 0 0 0 0 0 0 0 0 0 0 0 0 0 0 0 0 0 0 0 0 0 0 0 0 0 0 0 0 0 0 0 0 0 0 0 0 0 0 0 0 0 0 0 0 0 0 0 0 0 0 0 0 0 0
624 634 618 612 657 0 0 0 0 0 0 0 0 0 0 0 0 0 0 0 0 0 0 0 0 0 0 0 0 0 0 0 0 0 0 0 0 0 0 0 0 0 0 0 0 0 0 0 0 0 0 0 0 0 0 0 0 0 0 0 0 0 0 0 0 0 0 0 0 0 0 0 0 0 0 0 0 0 0 0 0 0 0 0 0 0 0 0 0 0 0 0 0 0 0 0 0 0 0 0 0 0 0 0 0 0 0 0 0 0 0 0 0 0 0 0 0 0 0 0
603 616 628 641 562 0 0 0 0 0 0 0 0 0 0 0 0 0 0 0 0 0 0 0 0 0 0 0 0 0 0 0 0 0 0 0 0 0 0 0 0 0 0 0 0 0 0 0 0 0 0 0 0 0 0 0 0 0 0 0 0 0 0 0 0 0 0 0 0 0 0 0 0 0 0 0 0 0 0 0 0 0 0 0 0 0 0 0 0 0 0 0 0 0 0 0 0 0 0 0 0 0 0 0 0 0 0 0 0 0 0 0 0 0 0 0 0 0 0 0
622 625 598 639 0 0 0 0 0 0 0 0 0 0 0 0 0 0 0 0 0 0 0 0 0 0 911 916 870 912 900 905 907 954 886 893 936 901 930 933 915 949 0 0 0 0 0 0 0 0 0 0 0 0 0 0 0 0 0 0 0 0 0 0 0 0 0 0 0 0 0 0 0 0 0 0 0 0 0 0 0 0 0 0 0 0 0 0 0 0 0 0 0 0 0 0 0 0 0 0 0 0 0 0 0 0 0 0 0 0 0 0 0 0 0 0 0 0 0 0
611 599 0 0 0 0 742 693 696 728 721 706 696 736 730 703 667 720 677 717 690 742 719 704 715 721 732 733 707 691 705 743 744 731 738 723 758 735 738 763 746 756 790 756 751 778 750 742 786 796 763 754 780 754 775 804 804 825 830 788 827 806 808 802 761 800 854 770 760 775 821 828 779 0 0 0 0 0 0 0 0 0 0 0 0 0 0 0 0 0 0 0 0 0 0 0 0 0 0 0 0 0 0 0 0 0 0 0 0 0 0 0 0 0 0 0 0 0 0 0
508 530 583 538 518 568 570 541 543 573 584 553 563 542 569 573 567 542 566 565 553 609 593 581 564 591 562 583 571 587 568 601 558 553 566 578 590 595 586 623 595 538 586 580 572 599 620 608 580 598 609 618 597 648 639 608 645 611 656 631 661 601 599 626 646 613 631 631 637 621 626 637 650 635 667 618 660 656 649 633 636 660 665 655 652 645 639 699 637 654 662 689 700 663 664 0 696 690 659 0 694 640 0 0 0 0 0 0 0 0 0 0 0 0 0 0 0 0 0 0
435 488 520 476 459 483 482 492 472 466 488 467 513 475 497 491 495 479 512 499 495 492 519 516 531 476 475 522 503 498 500 504 503 499 507 488 512 510 486 498 498 501 505 522 514 508 519 530 526 537 517 536 513 530 515 515 524 493 528 525 515 544 538 537 535 499 498 521 520 548 510 528 523 522 504 509 552 557 557 536 516 534 569 563 566 546 561 535 558 551 553 553 576 555 554 563 561 570 603 563 581 544 555 564 596 531 0 545 555 602 0 0 0 0 0 0 0 0 0 0
392 424 395 449 393 415 411 395 434 435 421 415 427 437 435 441 444 437 443 444 459 448 444 440 446 440 435 434 446 450 453 448 460 461 451 454 472 451 468 451 462 454 449 455 470 471 454 456 462 464 461 454 480 462 468 457 467 461 462 462 481 454 466 477 456 466 479 491 479 471 467 473 488 460 481 483 475 472 463 495 476 492 497 475 478 485 472 481 464 482 511 478 469 472 469 458 476 467 489 515 492 517 459 503 474 488 496 478 510 449 472 466 0 0 0 0 0 0 0 0
381 388 401 377 379 380 393 395 397 375 406 384 387 403 397 400 405 384 399 399 383 425 409 402 403 415 408 413 404 407 405 418 403 424 417 398 404 407 404 411 405 401 425 416 404 418 410 424 420 418 414 424 407 406 416 416 419 430 423 418 421 433 415 424 426 430 408 431 424 432 424 433 421 439 421 407 427 429 422 422 428 428 432 447 451 427 423 404 426 434 433 440 445 419 430 430 433 431 427 425 432 422 438 423 429 435 438 436 424 435 438 422 428 422 0 0 0 0 0 0
367 356 351 341 365 372 354 380 363 377 367 366 366 368 360 377 380 369 366 366 360 367 372 368 366 369 367 371 369 367 389 381 376 389 376 377 378 373 372 375 364 376 367 380 374 379 386 382 375 380 371 375 377 385 379 379 388 380 374 398 398 397 391 394 395 383 394 385 386 395 395 402 395 394 391 384 391 398 393 391 410 406 408 391 395 386 410 389 408 404 408 406 395 377 395 398 403 377 404 403 404 394 412 406 386 391 401 413 394 405 392 433 391 432 421 436 0 0 0 0
312 325 334 330 329 306 341 334 346 345 340 331 323 339 347 338 349 334 336 316 332 335 335 339 349 323 341 341 336 340 322 339 339 350 340 336 341 338 326 344 335 342 335 339 340 344 341 347 337 340 346 336 342 337 344 337 346 339 343 352 349 358 350 346 340 343 333 350 342 351 358 356 341 342 357 336 352 351 354 342 348 361 347 341 344 357 348 348 354 367 348 358 368 352 346 346 338 359 364 363 366 340 339 367 346 366 374 353 371 345 367 361 368 356 346 365 366 0 0 0
297 300 306 286 296 288 304 295 297 304 307 288 303 292 307 293 313 305 298 302 309 306 305 316 293 303 294 305 295 308 307 303 300 305 304 308 293 315 312 319 309 307 307 305 314 310 322 313 320 304 309 308 314 315 320 314 321 316 304 310 317 307 311 314 301 317 322 323 315 316 318 311 319 318 309 311 313 313 313 313 315 319 311 314 312 323 326 314 322 322 308 322 322 322 323 328 320 334 311 330 326 316 327 309 318 322 316 318 334 337 323 336 330 317 344 309 306 325 363 0
280 275 263 277 275 285 288 281 279 302 280 284 294 291 289 290 277 279 288 284 288 273 281 276 283 274 282 282 289 282 281 284 281 288 293 289 282 285 279 286 290 285 290 289 287 289 296 292 275 288 293 285 292 284 283 296 281 294 286 286 283 292 284 293 297 293 289 295 300 291 291 286 293 290 292 287 286 291 289 289 286 288 292 300 294 291 291 292 295 308 293 300 299 299 288 300 293 295 295 303 286 305 314 327 316 306 311 296 302 328 307 314 286 311 293 299 337 293 349 304
253 255 260 257 257 247 244 248 264 256 250 249 254 255 263 250 255 248 246 250 252 259 255 251 256 255 260 259 251 252 258 257 255 265 263 262 266 265 265 265 264 255 261 263 266 259 258 259 268 265 262 271 269 259 265 260 268 263 263 265 266 261 270 263 273 265 266 267 268 268 266 261 264 272 268 265 267 271 261 259 259 262 260 267 266 267 264 267 268 265 269 268 266 255 255 266 273 273 269 278 276 264 267 274 273 271 281 285 270 278 265 270 287 257 269 253 239 253 243 268
233 232 232 235 238 238 236 231 238 231 237 238 235 242 238 242 232 235 247 243 237 243 235 242 247 234 241 241 245 240 244 238 241 241 238 242 238 244 252 243 255 239 238 242 237 248 251 247 243 255 252 244 251 246 244 242 245 242 250 243 247 250 252 253 254 249 252 257 248 254 253 249 246 245 247 252 247 253 250 246 247 245 244 243 251 251 252 250 248 243 246 257 254 253 257 248 248 248 251 252 256 251 248 249 251 246 253 246 246 244 259 247 239 248 237 236 242 258 249 219
213 219 214 213 218 223 226 215 221 210 221 220 221 221 227 222 223 223 230 224 226 221 223 231 229 224 224 226 229 223 224 228 231 233 224 227 227 223 230 235 230 227 235 221 234 234 223 232 235 227 232 234 228 231 231 230 233 232 233 229 235 241 233 232 235 242 229 234 235 232 231 228 232 233 228 232 235 228 232 233 232 227 237 226 231 226 241 233 230 225 237 228 233 226 226 230 230 234 239 237 235 230 239 234 227 232 228 235 237 225 224 250 233 233 219 218 229 201 199 218
207 205 225 215 215 203 204 208 211 217 210 211 214 219 209 212 215 209 205 218 212 211 212 209 207 209 212 216 215 200 212 220 212 215 211 216 217 195 213 215 201 219 217 218 220 201 215 217 214 220 216 204 220 200 227 220 219 219 221 226 219 207 224 221 221 215 223 203 218 218 219 219 226 218 204 217 218 220 222 221 220 223 220 227 218 224 224 223 215 212 221 218 216 223 214 215 223 223 225 227 217 217 223 219 208 225 225 233 226 221 224 220 225 219 211 224 220 203 223 246
193 197 202 206 207 200 200 200 186 198 204 185 202 194 207 203 205 191 191 205 193 192 198 206 188 186 188 191 187 191 190 211 190 191 196 193 185 197 187 195 196 195 195 189 201 199 198 194 195 204 193 194 195 196 191 193 199 199 190 215 200 195 198 198 197 197 200 193 200 193 199 197 201 197 194 186 195 192 191 192 195 191 199 212 212 212 214 185 191 217 207 209 211 210 194 192 194 194 206 209 213 212 210 192 215 215 211 207 205 212 207 207 218 210 208 203 209 212 205 229
176 181 191 197 191 181 183 182 181 184 184 180 177 181 176 183 187 184 178 189 178 189 183 184 178 182 188 182 187 188 190 188 192 194 192 184 190 188 194 192 189 186 195 196 199 194 192 197 200 198 194 197 195 196 193 197 199 200 196 200 196 200 198 201 199 195 200 198 189 197 200 194 197 197 195 198 196 191 198 195 197 194 189 186 185 190 191 189 186 185 183 182 188 188 187 189 181 187 192 179 204 204 187 204 182 184 201 206 181 187 186 201 201 180 203 185 195 190 183 188
167 177 176 177 173 174 177 201 178 180 176 184 181 180 185 186 184 185 184 176 187 184 186 186 180 188 185 187 186 185 188 188 186 186 186 185 191 183 186 190 186 184 185 187 184 188 189 193 185 186 192 189 189 184 190 186 189 196 195 195 184 189 188 193 192 193 191 191 188 187 193 189 189 191 192 192 196 189 187 186 193 194 189 189 190 187 187 190 190 191 186 185 183 189 182 183 185 189 186 178 189 183 175 174 186 181 181 174 184 176 175 178 198 177 176 176 176 176 173 187
171 168 157 172 169 168 167 174 170 167 174 170 172 173 174 174 171 177 179 180 175 171 173 178 168 168 178 175 170 174 175 178 172 173 175 173 183 174 176 180 176 173 178 177 177 181 179 179 179 182 181 181 173 180 178 178 176 181 176 179 179 175 181 178 181 180 182 180 177 180 177 182 174 178 183 178 184 180 182 181 180 182 171 177 173 176 175 178 179 181 177 178 174 177 179 179 173 182 178 184 179 182 179 174 176 182 176 172 174 176 176 170 175 178 179 171 174 163 162 158
165 166 163 165 161 164 156 159 165 163 168 170 167 164 165 170 166 170 170 169 171 164 172 171 163 165 168 169 172 173 176 174 171 166 165 170 170 165 169 167 167 172 170 172 173 172 171 174 169 171 171 170 171 172 171 170 170 175 176 174 172 170 170 168 172 175 170 177 166 170 171 171 169 171 168 177 173 170 174 172 169 177 173 175 168 174 174 176 175 171 170 174 166 168 166 176 171 174 168 173 168 173 170 178 178 174 179 167 166 165 166 166 168 176 175 175 172 180 147 162
156 160 165 157 161 162 158 156 151 162 161 157 158 160 159 167 161 164 166 164 158 165 163 161 161 165 160 156 163 163 164 168 163 165 159 160 160 161 155 161 161 163 163 160 164 168 162 163 163 161 159 168 164 162 164 165 165 166 160 167 162 163 164 167 161 164 161 162 160 162 161 160 164 159 160 165 165 169 159 162 158 158 167 169 159 164 167 158 166 157 162 159 164 162 161 161 159 162 168 167 168 168 155 164 155 163 164 153 157 160 163 169 150 168 170 157 149 152 155 163
149 150 149 146 147 153 149 151 155 158 146 150 149 154 150 146 145 154 153 156 157 154 156 151 153 155 152 159 156 157 160 155 159 147 153 154 148 153 153 156 153 154 153 155 157 152 159 153 155 157 153 150 163 158 154 150 156 152 158 160 158 155 157 158 161 159 157 155 157 154 155 156 155 160 156 163 158 163 158 157 159 158 153 154 150 158 159 155 157 155 152 157 157 157 155 156 155 155 151 157 157 156 156 161 157 153 155 146 152 155 152 155 148 148 150 145 144 147 150 145
136 146 147 141 148 147 139 146 143 143 148 147 147 148 147 144 146 148 140 153 152 150 155 148 150 152 144 151 153 148 149 152 147 142 147 143 146 151 146 153 153 153 148 147 147 152 151 143 153 153 153 151 149 149 156 149 149 153 152 156 152 150 153 151 150 151 151 157 150 149 147 150 150 155 153 150 161 158 156 151 152 154 156 146 150 151 149 150 154 149 150 149 152 153 154 146 150 152 148 152 156 154 154 154 149 148 148 149 150 148 146 148 151 149 159 154 159 151 163 106
136 138 135 138 138 145 139 139 141 136 142 143 140 144 139 142 141 139 142 147 143 143 142 147 146 142 147 145 143 144 145 145 144 146 140 146 146 143 148 150 150 143 149 143 144 147 140 127 147 141 131 145 144 147 143 143 149 147 146 146 149 142 143 143 143 142 150 148 151 147 147 146 148 147 146 146 149 153 150 146 142 144 145 142 141 143 148 146 153 146 147 150 149 147 149 150 145 141 150 147 146 146 151 139 141 145 143 140 140 142 138 148 148 145 144 147 147 150 143 137
131 137 132 132 135 140 139 141 139 138 138 0 133 137 130 138 139 137 138 140 143 143 140 137 137 148 0 139 138 139 138 128 131 137 137 141 139 131 140 140 142 147 141 141 140 139 139 131 127 125 130 144 140 143 144 145 141 147 142 140 131 134 141 147 146 129 139 144 144 137 139 143 131 146 141 143 143 140 141 145 147 140 138 126 147 139 138 143 143 140 137 144 146 148 140 138 139 141 142 142 139 152 140 143 141 137 135 136 145 134 134 133 136 137 135 135 135 128 152 156
129 127 130 131 136 137 137 130 130 140 133 132 140 139 136 132 127 136 137 135 139 141 139 137 141 136 133 135 137 125 125 124 139 128 129 126 126 127 123 125 142 139 139 140 0 142 128 129 127 127 128 126 130 131 0 142 0 130 130 131 134 130 141 133 131 130 143 128 142 139 124 125 140 141 129 139 133 138 141 126 124 141 137 128 137 138 137 128 141 144 125 139 140 140 135 127 139 138 141 140 125 135 139 137 136 124 129 133 131 131 130 133 140 136 134 140 135 151 150 127
117 104 125 108 124 118 136 121 113 114 130 116 114 124 123 123 118 124 130 118 122 125 128 127 136 139 135 137 0 130 129 122 118 122 123 124 127 128 126 118 127 123 128 126 0 0 124 124 127 122 120 124 127 130 126 127 131 129 129 120 126 119 128 127 125 124 130 130 122 129 120 121 122 125 120 125 120 131 123 128 127 124 121 123 115 137 117 126 125 127 128 125 126 123 125 118 125 139 126 129 129 121 120 122 131 124 119 121 115 127 128 136 128 138 113 129 125 133 115 118
105 113 106 110 112 127 121 117 114 112 122 117 118 125 113 118 108 119 119 121 126 123 126 122 126 116 136 131 124 126 128 0 125 122 116 111 121 123 0 119 127 123 0 0 0 0 124 125 118 122 123 124 126 126 122 125 121 121 122 120 124 123 112 120 123 126 123 121 125 123 123 119 122 124 118 122 115 128 125 121 120 117 123 121 119 116 122 120 127 125 116 118 118 125 116 120 125 134 117 118 124 118 121 117 114 119 117 110 121 134 109 120 130 133 123 106 110 111 110 111
108 99 117 114 113 108 110 116 111 114 120 119 111 113 110 108 115 115 112 119 112 108 113 122 114 111 120 115 116 123 124 0 119 119 114 113 113 0 114 117 120 0 0 120 123 0 118 119 111 111 118 118 120 120 119 122 121 118 113 119 122 121 119 118 120 121 117 120 115 120 117 120 114 114 115 115 113 116 117 119 109 110 113 118 115 117 118 119 114 119 116 112 122 112 109 123 121 116 114 114 118 121 114 108 113 113 117 122 123 117 124 129 119 112 131 111 116 111 91 102
92 99 108 103 94 101 115 111 102 110 110 103 112 112 120 116 110 110 109 107 113 109 111 109 110 110 112 117 112 115 119 114 113 116 115 111 109 111 0 113 116 114 108 108 108 117 114 0 113 0 114 112 120 114 0 0 108 107 116 113 123 114 107 108 106 112 107 106 116 107 115 99 111 100 107 108 106 108 109 112 109 104 107 108 109 101 107 114 110 115 106 111 99 113 109 118 113 115 102 104 106 106 113 106 112 108 111 115 112 120 103 109 100 100 98 106 101 99 91 86
104 96 106 108 108 106 117 111 107 108 106 113 112 107 112 114 108 113 114 103 110 103 105 109 113 109 106 107 106 113 110 109 103 107 113 110 113 0 108 106 107 106 113 100 103 106 108 112 116 0 108 109 107 112 111 115 107 108 109 105 106 112 116 0 118 106 106 108 108 111 99 105 105 112 99 104 102 102 103 108 106 104 106 107 102 101 104 111 102 105 111 109 103 104 99 108 106 109 109 103 107 111 110 114 107 100 107 113 94 105 100 109 120 113 103 97 103 95 111 95
87 97 107 102 102 94 99 91 96 95 102 99 98 97 104 104 99 101 107 97 99 98 93 99 103 104 104 101 100 104 106 103 101 100 104 101 105 102 105 105 105 104 101 101 98 100 108 97 103 100 106 104 102 103 101 107 96 104 104 102 103 110 103 0 108 105 0 111 105 106 103 104 96 108 103 108 97 104 0 102 0 106 97 94 102 100 97 96 104 102 100 105 96 92 95 92 102 98 98 91 101 104 101 101 108 104 94 97 105 94 103 102 85 100 105 91 94 113 89 127
93 91 89 92 89 96 97 94 98 98 97 93 98 101 102 95 94 97 109 99 96 93 97 90 99 97 101 98 101 97 106 105 104 100 100 102 102 103 103 96 101 102 100 92 98 102 103 106 106 102 108 100 97 101 97 108 103 108 102 101 104 100 108 100 109 104 105 112 106 103 101 105 102 104 94 94 98 97 98 97 0 100 94 91 93 99 96 109 99 99 100 103 99 105 95 103 94 95 89 101 99 94 97 88 98 104 103 96 100 98 89 92 105 94 87 119 122 97 94 119
89 100 91 99 93 90 94 83 85 96 95 91 92 92 95 82 89 92 102 106 103 95 82 86 94 89 99 94 92 104 96 97 102 95 98 98 100 92 98 107 96 95 92 90 101 98 105 103 90 99 101 96 84 97 96 100 91 97 95 99 99 95 96 0 97 102 94 97 103 97 100 99 102 102 85 107 96 96 104 106 100 99 92 104 97 95 92 88 93 95 96 92 97 82 89 91 98 89 101 92 92 102 102 95 100 96 97 74 89 83 94 89 89 89 87 78 140 110 90 113
83 79 82 81 76 83 81 87 84 78 81 91 92 88 86 91 83 92 83 93 89 90 93 93 92 90 95 89 88 97 89 87 97 95 92 89 86 92 90 92 87 84 97 98 91 93 91 98 97 97 92 92 93 98 92 90 95 98 94 92 88 96 92 91 91 91 92 94 93 98 87 92 96 90 84 95 94 95 87 95 89 87 87 92 95 83 92 91 91 92 89 93 89 90 91 94 90 92 91 84 90 79 83 80 91 80 91 91 84 88 87 73 85 89 83 78 71 83 76 86
90 79 83 88 83 86 88 98 89 89 90 88 90 92 91 87 94 85 93 93 81 88 89 94 93 88 94 88 89 83 93 95 96 92 102 85 94 95 86 98 89 93 90 92 96 92 92 89 93 95 96 87 98 88 91 90 96 89 98 98 88 86 95 92 91 97 90 90 89 94 87 87 98 96 93 89 94 95 88 94 94 86 95 92 88 89 91 93 93 92 98 96 95 90 94 90 93 92 88 95 92 84 88 93 87 92 87 90 81 82 89 91 79 83 92 81 79 101 0 0
78 85 85 83 88 88 86 88 84 0 82 83 89 84 90 90 88 87 89 85 90 84 89 94 87 91 91 93 87 95 86 92 94 93 89 92 91 93 91 92 83 94 96 87 96 89 90 97 97 97 90 94 92 89 94 98 91 96 96 91 96 83 96 87 87 98 94 94 97 92 86 92 94 91 91 90 85 91 97 96 93 92 90 86 95 87 95 92 95 95 85 93 99 85 91 84 93 89 93 84 91 86 88 91 86 87 88 86 86 75 80 82 80 77 88 78 89 76 55 0
77 82 79 82 86 81 93 82 84 78 84 84 86 89 81 89 81 87 86 89 86 91 91 85 82 84 83 86 93 84 86 88 91 86 85 89 91 88 94 90 90 87 93 96 87 84 92 93 91 87 91 95 87 85 94 95 95 95 91 93 90 98 92 87 82 94 84 83 84 95 89 97 88 93 90 82 89 95 94 87 92 82 92 87 86 89 88 88 86 83 94 90 88 86 86 80 87 82 88 87 78 81 89 78 80 85 85 82 69 88 76 85 88 88 76 74 67 32 0 0
79 75 74 80 85 82 87 91 81 86 79 76 84 84 89 88 82 88 87 91 89 92 87 82 77 83 86 87 88 92 85 87 95 87 92 86 92 88 86 94 91 85 86 95 94 86 93 89 87 95 91 84 89 87 84 85 89 93 85 91 94 88 87 94 89 80 82 85 89 94 92 87 89 85 88 87 90 92 95 86 86 93 86 78 91 94 88 85 89 91 90 92 79 84 86 87 87 85 92 84 86 89 82 73 87 90 83 86 77 75 81 85 87 87 79 86 0 0 0 0
76 65 67 67 78 80 82 83 84 76 82 79 80 87 84 79 78 83 78 74 81 75 86 78 73 69 75 80 84 79 91 73 82 82 87 79 79 84 85 78 84 79 79 73 79 81 83 90 86 80 87 74 75 83 84 81 86 88 85 76 82 82 84 79 80 80 79 81 82 75 84 83 84 80 87 81 81 82 91 85 81 78 69 80 74 86 82 78 81 79 79 72 81 77 80 78 76 86 73 81 72 75 80 59 68 63 76 78 75 87 83 81 81 85 94 72 0 0 0 0
67 68 79 79 71 82 88 87 84 80 80 86 73 75 77 84 83 86 76 78 79 85 75 84 93 84 79 72 82 83 86 85 84 83 79 73 78 76 82 81 95 80 87 85 82 83 82 80 86 83 83 78 77 79 79 86 79 82 89 74 86 81 78 81 80 83 81 82 90 77 76 84 88 81 90 87 83 86 86 87 87 87 81 79 70 83 83 70 86 88 70 83 70 75 82 76 83 78 71 79 82 72 71 76 69 79 72 88 78 95 86 86 91 84 87 0 0 0 0 0
