0 0 0 0 0 0 0 0 0 0 0 0 0 0 0 0 0 0 0 0 0 0 0 0 0 0 0 0 0 0 0 0 0 0 0 0 0 0 0 0 0 0 0 0 0 0 0 0 0 0 0 0 0 0 0 0 0 0 0 0 0 0 0 0 0 0 0 0 0 0 0 0 0 0 0 0 0 0 0 0 0 0 0 0 0 0 0 0 0 0 0 0 0 0 0 0 0 0 0 0 0 0 0 0 0 0 0 0 0 0 0 0 0 0 0 0 0 0 0 0
0 0 0 0 0 0 0 0 0 0 0 0 0 0 0 0 0 0 0 0 0 0 0 0 0 0 0 0 0 0 0 0 0 0 0 0 0 0 0 0 0 0 0 0 0 0 0 0 0 0 0 0 0 0 0 0 0 0 0 0 0 0 0 0 0 0 0 0 0 0 0 0 0 0 0 0 0 0 0 0 0 0 0 0 0 0 0 0 0 0 0 0 0 0 0 0 0 0 0 0 0 0 0 0 0 0 0 0 0 0 0 0 0 0 0 0 0 0 0 0
0 0 0 0 0 0 0 0 0 0 0 0 0 0 0 0 0 1255 0 0 0 0 1276 0 0 0 0 0 0 0 0 0 0 0 0 0 0 0 0 0 0 0 0 0 0 0 0 0 0 0 0 0 0 0 0 0 0 0 0 0 0 0 0 0 0 0 0 0 0 0 0 0 0 0 0 0 0 0 0 0 0 0 0 0 0 0 0 0 0 0 0 0 0 0 0 0 0 0 0 0 0 0 0 0 0 0 0 0 0 0 0 0 0 0 0 0 0 0 0 0
0 0 0 0 0 0 0 0 0 0 0 1150 1138 1130 0 0 1306 1289 0 0 0 0 1230 0 0 0 0 0 0 0 0 0 0 0 0 0 0 0 0 0 0 0 0 0 0 0 0 0 0 0 0 0 0 0 0 0 0 0 0 0 0 0 0 0 0 0 0 0 0 0 0 0 0 0 0 0 0 0 0 0 0 0 0 0 0 0 0 0 0 0 0 0 0 0 0 0 0 0 0 0 0 0 0 0 0 0 0 0 0 0 0 0 0 0 0 0 0 0 0 0
0 0 0 0 0 0 0 1101 1085 1145 1150 1136 1124 1171 1133 1156 1278 1275 1249 1275 1260 1240 1242 0 0 0 0 0 0 0 0 0 0 0 0 0 0 0 0 0 0 0 0 0 0 0 0 0 0 0 0 0 0 0 0 0 0 0 0 0 0 0 0 0 0 0 0 0 0 0 0 0 0 0 0 0 0 0 0 0 0 0 0 0 0 0 0 0 0 0 0 0 0 0 0 0 0 0 0 0 0 0 0 0 0 0 0 0 0 0 0 0 0 0 0 0 0 0 0 0
0 0 0 0 0 0 0 1079 1136 1132 1128 0 1129 1151 1206 1214 1252 1254 1296 1258 1248 1270 1252 1259 0 0 0 0 0 0 0 0 0 0 0 0 0 0 0 0 0 0 0 0 0 0 0 0 0 0 0 0 0 0 0 0 0 0 0 0 0 0 0 0 0 0 0 0 0 0 0 0 0 0 0 0 0 0 0 0 0 0 0 0 0 0 0 0 0 0 0 0 0 0 0 0 0 0 0 0 0 0 0 0 0 0 0 0 0 0 0 0 0 0 0 0 0 0 0 0
0 0 0 0 0 0 0 0 0 0 0 0 1240 1273 1277 1263 1289 1294 1334 1293 1272 1273 1269 1298 1305 0 1351 0 0 0 0 1467 0 0 0 0 0 0 0 0 0 0 0 0 0 0 0 0 0 0 0 0 0 0 0 0 0 0 0 0 0 0 0 0 0 0 0 0 0 0 0 0 0 0 0 0 0 0 0 0 0 0 0 0 0 0 0 0 0 0 0 0 0 0 0 0 0 0 0 0 0 0 0 0 0 0 0 0 0 0 0 0 0 0 0 0 0 0 0 0
0 0 0 0 0 0 0 0 0 0 0 0 1257 1278 1291 1290 1320 1300 1280 1253 1285 1270 1292 1339 0 1353 1380 1383 1388 0 0 1429 0 0 0 0 0 0 0 0 0 0 0 0 0 0 0 0 0 0 0 0 0 0 0 0 0 0 0 0 0 0 0 0 0 0 0 0 0 0 0 0 0 0 0 0 0 0 0 0 0 0 0 0 0 0 0 0 0 0 0 0 0 0 0 0 0 0 0 0 0 0 0 0 0 0 0 0 0 0 0 0 0 0 0 0 0 0 0 0
0 0 0 0 0 0 0 0 0 0 0 0 1271 1273 1269 1294 1284 1307 1305 1273 1278 1265 1283 1305 0 0 1328 1355 1367 1376 1332 1410 0 0 0 0 0 0 0 0 0 0 0 0 0 0 0 0 0 0 0 0 0 0 0 0 0 0 0 0 0 0 0 0 0 0 0 0 0 0 0 0 0 0 0 0 0 0 0 0 0 0 0 0 0 0 0 0 0 0 0 0 0 0 0 0 0 0 0 0 0 0 0 0 0 0 0 0 0 0 0 0 0 0 0 0 0 0 0 0
0 0 0 0 0 0 0 0 0 0 0 0 0 1333 1281 1291 1285 1301 1286 1253 1265 1307 1268 1271 1270 0 0 1386 1344 1366 1387 1396 1476 0 0 0 0 0 0 0 0 0 0 0 0 0 0 0 0 0 0 0 0 0 0 0 0 0 0 0 0 0 0 0 0 0 0 0 0 0 0 0 0 0 0 0 0 0 0 0 0 0 0 0 0 0 0 0 0 0 0 0 0 0 0 0 0 0 0 0 0 0 0 0 0 0 0 0 0 0 0 0 0 0 0 0 0 0 0 0
0 0 0 0 0 0 0 0 0 0 0 0 0 0 0 0 0 0 0 0 0 1236 1246 1232 1216 0 0 1302 1347 1317 1337 1386 1414 0 0 0 0 0 0 0 0 0 0 0 0 0 0 0 0 0 0 0 0 0 0 0 0 0 0 0 0 0 0 0 0 0 0 0 0 0 0 0 0 0 0 0 0 0 0 0 0 0 0 0 0 0 0 0 0 0 0 0 0 0 0 0 0 0 0 0 0 0 0 0 0 0 0 0 0 0 0 0 0 0 0 0 0 0 0 0
0 0 0 0 0 0 0 0 0 0 0 0 0 0 0 0 0 0 0 0 0 0 0 1344 1301 0 0 1305 1320 1340 1350 1418 1408 0 0 0 0 0 0 0 0 0 0 0 0 0 0 0 0 0 0 0 0 0 0 0 0 0 0 0 0 0 0 0 0 0 0 0 0 0 0 0 0 0 0 0 0 0 0 0 0 0 0 0 0 0 0 0 0 0 0 0 0 0 0 0 0 0 0 0 0 0 0 0 0 0 0 1727 0 0 0 0 0 0 0 0 0 0 0 0
0 0 0 0 0 0 0 0 0 0 0 0 0 0 0 0 0 0 0 0 0 0 0 1332 1374 1290 1268 0 1318 1347 1334 1379 1412 0 0 0 0 0 0 0 0 0 0 0 0 0 0 0 0 0 0 0 0 0 0 0 0 0 0 0 0 0 0 0 0 0 0 0 0 0 0 0 0 0 0 0 0 0 0 0 0 0 0 0 0 0 0 0 0 0 0 0 0 0 0 0 0 0 0 0 0 0 0 0 0 0 1741 1743 0 0 0 0 0 0 0 0 0 0 0 0
0 0 0 0 0 0 0 0 0 0 0 0 0 0 0 0 0 0 0 0 0 0 0 1310 1358 1357 1320 1249 1304 1329 1313 1375 1370 0 0 0 0 0 0 0 0 0 0 0 0 0 0 0 0 0 0 0 0 0 0 0 0 0 0 0 0 0 0 0 0 0 0 0 0 0 0 0 0 0 0 0 0 0 0 0 0 0 0 0 0 0 0 0 0 0 0 0 0 0 0 0 0 0 0 0 0 0 0 0 0 1706 1709 0 1619 0 0 0 0 0 0 0 0 0 0 0
0 0 0 0 0 0 0 0 0 0 0 0 0 0 0 0 0 0 0 0 0 0 0 1363 1391 1381 1367 1351 1342 1342 1315 1428 1439 0 0 0 0 0 0 0 0 0 0 0 0 0 0 0 0 0 0 0 0 0 0 0 0 0 0 0 0 0 0 0 0 0 0 0 0 0 0 0 0 0 0 0 0 0 0 0 0 0 0 0 0 0 0 0 0 0 0 0 0 0 0 0 0 0 0 0 0 0 0 0 0 0 1755 0 1721 0 0 0 0 0 0 0 0 0 0 0
0 0 0 0 0 0 0 0 0 0 0 0 0 0 0 0 0 0 0 0 0 0 0 1393 1386 1366 1360 1372 1374 1364 1385 1423 1434 0 0 0 0 0 0 0 0 0 0 0 0 0 0 0 0 0 0 0 0 0 0 0 0 0 0 0 0 0 0 0 0 0 0 0 0 0 0 0 0 0 0 0 0 0 0 0 0 0 0 0 0 0 0 0 0 0 0 0 0 0 0 0 0 0 0 0 0 0 0 0 0 1778 0 1762 1721 1697 0 0 0 1738 0 0 0 0 0 0
1255 1263 1299 1284 1293 1312 1353 0 0 0 0 0 0 0 0 0 0 0 0 0 0 0 0 0 1368 1377 1378 1388 1380 1379 1366 1412 1439 0 0 0 0 0 0 0 0 0 0 0 0 0 0 0 0 0 0 0 0 0 0 0 0 0 0 0 0 0 0 0 0 0 0 0 0 0 0 0 0 0 0 0 0 0 0 0 0 0 0 0 0 0 0 0 0 0 0 0 0 0 0 0 0 0 0 0 0 0 0 0 1745 1777 1763 1753 1762 1720 0 0 0 0 0 0 0 0 0 0
1244 1273 1255 1279 1297 1306 1317 1329 1326 1348 1375 0 0 0 0 0 0 0 0 0 0 0 0 1377 1371 1361 1375 1378 1367 1372 1384 1436 1436 0 0 0 0 0 0 0 0 0 0 0 0 0 0 0 0 0 0 0 0 0 0 0 0 0 0 0 0 0 0 0 0 0 0 0 0 0 0 0 0 0 0 0 0 0 0 0 0 0 0 0 0 0 0 0 0 0 0 0 0 0 0 0 0 0 0 0 0 0 0 1772 1783 1782 1737 1695 1753 1714 1664 1691 0 0 0 0 0 0 0 0
1226 1231 1227 1266 1291 1297 1300 1302 1328 1311 1341 1333 1346 1352 1421 1397 0 0 0 0 0 0 0 0 0 1351 0 0 1338 0 0 1424 1392 0 0 0 0 0 0 0 0 0 0 0 0 0 0 0 0 0 0 0 0 0 0 0 0 0 0 0 0 0 0 0 0 0 0 0 0 0 0 0 0 0 0 0 0 0 0 0 0 0 0 0 0 0 0 0 0 0 0 0 0 0 0 0 0 0 0 0 0 0 0 1790 1738 1725 1745 1650 1651 1638 1635 1673 0 0 0 0 0 0 0 0
0 0 0 0 1282 1290 1277 1294 1306 1325 1323 1326 1362 1344 1368 1396 1397 1375 1415 1421 1413 0 0 0 0 0 0 0 0 0 0 1425 1409 1410 0 0 0 0 0 0 0 0 0 0 0 0 0 0 0 0 0 0 0 0 0 0 0 0 0 0 0 0 0 0 0 0 0 0 0 0 0 0 0 0 0 0 0 0 0 0 0 0 0 0 0 0 0 0 0 0 0 0 0 0 0 0 0 0 0 0 0 0 1802 1785 1740 1707 1693 1674 1603 1658 0 0 0 0 0 0 0 0 0 0
0 0 0 0 0 0 0 0 0 1323 1333 1331 1378 1357 1389 1399 1408 1436 1431 1427 1447 1463 0 0 0 0 0 0 0 0 0 1425 1460 1455 0 0 0 0 0 0 0 0 0 0 0 0 0 0 0 0 0 0 0 0 0 0 0 0 0 0 0 0 0 0 0 0 0 0 0 0 0 0 0 0 0 0 0 0 0 0 0 0 0 0 0 0 0 0 0 0 0 0 0 0 0 0 0 0 0 0 0 0 0 1702 1685 1622 1590 1600 1566 1553 1589 1544 1624 1537 0 0 0 0 0 0
0 0 0 0 0 0 0 0 0 0 0 0 0 0 0 1400 1385 1391 1431 1429 1435 1476 0 0 0 0 0 0 0 0 0 0 1469 0 0 0 0 0 0 0 0 0 0 0 0 0 0 0 0 0 0 0 0 0 0 0 0 0 0 0 0 0 0 0 0 0 0 0 0 0 0 0 0 0 0 0 0 0 0 0 0 0 0 0 0 0 0 0 0 0 0 0 0 0 0 0 0 0 0 0 0 1752 1629 1548 1583 1612 1608 1593 1593 1609 1602 1600 1595 1607 1577 0 0 0 0 0
0 0 0 0 0 0 0 0 0 0 0 0 0 0 0 0 0 0 0 0 0 1528 0 0 0 0 0 0 0 0 0 0 0 0 0 0 0 0 0 0 0 0 0 0 0 0 0 0 0 0 0 0 0 0 0 0 0 0 0 0 0 0 0 0 0 0 0 0 0 0 0 0 0 0 0 0 0 0 0 0 0 0 0 0 0 0 0 0 0 0 0 0 0 0 0 0 0 0 0 0 0 1616 1624 1610 1600 1618 1614 1615 1598 1616 1635 1607 1601 1613 0 0 0 0 0 0
0 0 0 0 0 0 0 0 0 0 0 0 0 0 0 0 0 0 0 0 0 0 0 0 0 0 0 0 0 0 0 0 0 0 0 0 0 0 0 0 0 0 0 0 0 0 0 0 0 0 0 0 0 0 0 0 0 0 0 0 0 0 0 0 0 0 0 0 0 0 0 0 0 0 0 0 0 0 0 0 0 0 0 0 0 0 0 0 0 0 0 0 0 0 0 0 0 0 0 0 0 0 1634 1599 1565 1582 1585 1589 1600 1589 1613 1561 0 0 0 0 0 0 0 0
0 0 0 0 0 0 0 0 0 0 0 0 0 0 0 0 0 0 0 0 0 0 0 0 0 0 0 0 0 0 0 0 0 0 0 0 0 0 0 0 0 0 0 0 0 0 0 0 0 0 0 0 0 0 0 0 0 0 0 0 0 0 0 0 0 0 0 0 0 0 0 0 0 0 0 0 0 0 0 0 0 0 0 0 0 0 0 0 0 0 0 0 0 0 0 0 0 0 0 0 0 0 0 0 0 0 1665 1591 1622 0 0 0 0 0 0 0 0 0 0 0
0 0 0 0 0 0 0 0 0 0 0 0 0 0 0 0 0 0 0 0 0 0 0 0 0 0 0 0 0 0 0 0 0 0 0 0 0 0 0 0 0 0 0 0 0 0 0 0 0 0 0 0 0 0 0 0 0 0 0 0 0 0 0 0 0 0 0 0 0 0 0 0 0 0 0 0 0 0 0 0 0 0 0 0 0 0 0 0 0 0 0 0 0 0 0 0 0 0 0 0 0 0 0 0 0 0 0 0 0 0 0 0 0 0 0 0 0 0 0 0
559 563 0 0 0 0 0 0 0 0 0 0 0 0 0 0 0 0 0 0 0 0 0 0 0 1772 1808 0 0 0 0 0 0 0 0 0 0 0 0 0 0 0 0 0 0 0 0 2965 2870 2929 2902 2904 2915 2931 2914 2939 2933 2932 2880 2929 2927 2914 2922 2890 2850 2944 0 0 0 0 0 0 0 0 0 0 0 0 0 0 0 0 0 0 0 0 0 0 0 0 0 0 0 0 0 0 1658 0 0 0 0 0 0 0 0 0 0 0 0 0 0 0 0 0 0 0 0 0 0 0
587 582 601 594 593 673 0 0 0 0 0 0 0 0 0 0 0 0 0 0 0 0 0 0 0 0 0 1872 1936 0 0 0 0 0 0 0 0 0 0 0 0 0 0 0 0 0 0 2889 2927 2877 2927 2894 2895 2924 2905 2903 2878 2895 2938 2924 2888 2898 2917 2899 2885 2866 0 0 0 0 0 0 0 0 0 0 0 0 0 0 0 0 0 0 0 0 0 0 0 0 0 0 0 0 0 0 0 0 0 0 0 0 0 0 0 0 0 0 0 0 0 0 0 0 0 0 0 0 0 0
588 576 581 618 592 619 633 638 679 0 0 0 0 0 0 0 0 0 0 0 0 0 0 0 0 0 0 0 0 0 0 0 0 0 0 0 0 0 0 0 0 0 0 0 0 0 0 2949 2964 2878 2884 2938 2916 2923 2860 2934 2942 2889 2861 2907 2886 2927 2861 2925 2926 0 0 0 0 0 0 0 0 0 0 0 0 0 0 0 0 0 0 0 0 0 0 0 0 0 0 0 0 0 0 0 0 0 0 0 0 0 0 0 0 0 0 0 0 0 0 0 0 0 0 0 0 0 0 0
577 571 578 593 613 644 630 640 665 655 684 664 0 0 0 0 0 0 0 0 0 0 0 0 0 0 0 0 0 0 0 0 0 0 0 0 0 0 0 0 0 0 0 0 0 0 0 2925 2948 2911 2874 2909 2887 2905 2879 2937 2916 2906 2879 2896 2906 2859 2901 2904 2876 2906 0 0 0 0 0 0 0 0 0 0 0 0 0 0 0 0 0 0 0 0 0 0 0 0 0 0 0 0 0 0 0 0 0 0 0 0 0 0 0 0 0 0 0 0 0 0 0 0 0 0 0 0 0 0
608 594 592 614 628 639 622 642 665 677 662 684 688 705 758 0 0 0 0 0 0 0 0 0 0 0 0 0 0 0 0 0 0 0 0 0 0 0 0 0 0 0 0 0 0 0 0 2965 2939 2916 2944 2895 2893 2870 2861 2932 2893 2939 2925 2931 2926 2919 2930 2971 2938 2919 0 0 0 0 0 0 0 0 0 0 0 0 0 0 0 0 0 0 0 0 0 0 0 0 0 0 0 0 0 0 0 0 0 0 0 0 0 0 0 0 0 0 0 0 0 0 0 0 0 0 0 0 0 0
761 760 765 775 736 683 660 652 642 673 689 690 677 724 720 773 761 759 0 0 0 0 0 0 0 0 0 0 0 0 0 0 0 0 0 0 0 0 0 0 0 0 0 0 0 0 0 2875 2878 2939 2932 2914 2928 2892 2880 2889 2877 2872 2940 2935 2878 2895 2900 2916 2878 0 0 0 0 0 0 0 0 0 0 0 0 0 0 0 0 0 0 0 0 0 0 0 0 0 0 0 0 0 0 0 0 0 0 0 0 0 0 0 0 0 0 0 0 0 0 0 0 0 0 0 0 0 0 0
791 802 831 832 845 852 865 870 810 800 757 746 728 750 739 778 768 779 805 830 835 0 0 0 0 0 0 0 0 0 0 0 0 0 0 0 0 0 0 0 0 0 0 0 0 0 0 2855 2933 2900 2917 2915 2893 2927 2923 2865 2921 2905 2917 2906 2913 2832 2850 2863 2899 2885 0 0 0 0 0 0 0 0 0 0 0 0 0 0 0 0 0 0 0 0 0 0 0 0 0 0 0 0 0 0 0 0 0 0 0 0 0 0 0 0 0 0 0 0 0 0 0 0 0 0 0 0 0 0
767 810 823 821 827 857 852 878 888 918 916 916 933 896 853 787 771 790 792 834 852 863 879 878 0 0 0 0 0 0 0 0 0 0 0 0 0 0 0 0 0 0 0 0 0 0 0 2935 2902 2893 2858 2866 2933 2897 2909 2888 2864 2924 2849 2940 2893 2880 2916 2891 2915 2911 0 0 0 0 0 0 0 0 0 0 0 0 0 0 0 0 0 0 0 0 0 0 0 0 0 0 0 0 0 0 0 0 0 0 0 0 0 0 0 0 0 0 0 0 0 0 0 0 0 0 0 0 0 0
639 0 832 843 819 838 872 899 910 910 936 945 962 939 941 960 943 920 898 844 821 835 865 869 920 930 962 0 0 0 0 0 0 0 0 0 0 0 0 0 0 0 0 0 0 0 0 2874 2929 2932 2901 2893 2883 2897 2921 2924 2916 2873 2904 2868 2914 2928 2896 2849 2885 0 0 0 0 0 0 0 0 0 0 0 0 0 0 0 0 0 0 0 0 0 0 0 0 0 0 0 0 0 0 0 0 0 0 0 0 0 0 0 0 0 0 0 0 0 0 0 0 0 0 0 0 0 0 0
635 934 935 929 893 900 906 921 895 919 909 950 944 950 941 940 950 951 959 949 936 932 911 903 888 935 957 969 1014 0 0 0 0 0 0 0 0 0 0 0 0 0 0 0 0 0 0 2902 2863 2915 2888 2890 2881 2925 2912 2884 0 2922 2892 2876 2893 2909 2871 2902 2891 2885 0 0 0 0 0 0 0 0 0 0 0 0 0 0 0 0 0 0 0 0 0 0 0 0 0 0 0 0 0 0 0 0 0 0 0 0 0 0 0 0 0 0 0 0 0 0 0 0 0 0 0 0 0 0
602 659 0 0 0 0 0 0 0 0 980 984 1016 972 956 972 969 959 957 960 945 941 938 956 972 934 1004 983 1046 1052 1044 0 0 0 0 0 0 0 0 0 0 0 0 0 0 0 0 2895 2948 2896 2851 2895 2885 2891 2915 2921 2881 2873 2866 2880 2903 2883 2849 2876 2861 0 0 0 0 0 0 0 0 0 0 0 0 0 0 0 0 0 0 0 0 0 0 0 0 0 0 0 0 0 0 0 0 0 0 0 0 0 0 0 0 0 0 0 0 0 0 0 0 0 0 0 0 0 0 0
568 587 595 0 1119 1137 1129 1143 1152 1118 1147 1128 1134 1138 1129 1136 1121 1033 0 0 1016 1063 1053 983 1011 1031 1113 1112 1083 1078 1085 0 0 0 0 0 0 0 0 0 0 0 0 0 0 0 0 2911 2961 2916 2926 2882 2930 2932 2947 2900 2897 2902 2888 2879 2916 2906 2969 2865 2930 0 0 0 0 0 0 0 0 0 0 0 0 0 0 0 0 0 0 0 0 0 0 0 0 0 0 0 0 0 0 0 0 0 0 0 0 0 0 0 0 0 0 0 0 0 0 0 0 0 0 0 0 0 0 0
583 597 552 644 0 0 0 0 0 0 0 0 0 0 0 0 1438 1031 991 0 0 1168 1118 0 0 1120 1170 1152 1163 1162 1137 0 0 0 0 0 0 0 0 0 0 0 0 0 0 0 0 2943 2945 2902 2870 2884 2925 2939 2895 2946 2905 2892 2900 2891 2953 2950 2896 2878 2913 2891 0 0 0 0 0 0 0 0 0 0 0 0 0 0 0 0 0 0 0 0 0 0 0 0 0 0 0 0 0 0 0 0 0 0 0 0 0 0 0 0 0 0 0 0 0 0 0 0 0 0 0 0 0 0
592 584 601 611 623 0 0 0 0 0 0 0 0 0 0 0 0 996 989 0 0 0 0 0 0 0 0 0 0 0 0 0 0 0 0 0 0 0 0 0 0 0 0 0 0 0 0 2895 2926 2926 2878 2871 2914 2925 2905 2897 2899 2891 2889 2887 2924 2878 2885 2892 2876 2858 0 0 0 0 0 0 0 0 0 0 0 0 0 0 0 0 0 0 0 0 0 0 0 0 0 0 0 0 0 0 0 0 0 0 0 0 0 0 0 0 0 0 0 0 0 0 0 0 0 0 0 0 0 0
574 594 607 612 626 642 0 0 0 0 0 0 0 0 0 0 0 0 0 0 0 0 0 0 0 0 0 0 0 0 0 0 0 0 0 0 0 0 0 0 0 0 0 0 0 0 0 2935 2904 2905 2882 2902 2883 2949 2915 2900 2914 2937 2895 2875 2906 2869 2886 2900 2877 0 0 0 0 0 0 0 0 0 0 0 0 0 0 0 0 0 0 0 0 0 0 0 0 0 0 0 0 0 0 0 0 0 0 0 0 0 0 0 0 0 0 0 0 0 0 0 0 0 0 0 0 0 0 0
586 582 607 611 618 611 0 0 0 0 0 0 0 0 0 0 0 0 0 0 0 0 0 0 0 0 0 0 0 0 0 0 0 0 0 0 0 0 0 0 0 0 0 0 0 0 0 2881 2924 2904 2916 2902 2908 2900 2890 2935 2918 2883 2917 2912 2915 2908 2868 2919 2894 2916 0 0 0 0 0 0 0 0 0 0 0 0 0 0 0 0 0 0 0 0 0 0 0 0 0 0 0 0 0 0 0 0 0 0 0 0 0 0 0 0 0 0 0 0 0 0 0 0 0 0 0 0 0 0
596 599 603 588 625 611 563 0 0 0 0 0 0 0 0 0 0 0 0 0 0 0 944 0 0 0 0 0 0 0 0 0 0 0 0 0 0 0 0 0 0 0 0 0 0 0 0 2942 2941 2911 2857 2903 2890 2916 2873 2919 2944 2865 2895 2926 2895 2860 2911 2906 2882 0 0 0 0 0 0 0 0 0 0 0 0 0 0 0 0 0 0 0 0 0 0 0 0 0 0 0 0 0 0 0 0 0 0 0 0 0 0 0 0 0 0 0 0 0 0 0 0 0 0 0 0 0 0 0
558 579 606 602 609 584 571 0 0 0 0 0 0 0 0 0 0 0 0 0 0 0 0 0 0 0 0 0 0 0 0 0 0 0 0 0 0 0 0 0 0 0 0 0 0 0 0 2925 2898 2920 2932 2933 2896 2842 2904 2936 2852 2905 2933 2897 2917 2906 2853 2903 2891 0 0 0 0 0 0 0 0 0 0 0 0 0 0 0 0 0 0 0 0 0 0 0 0 0 0 0 0 0 0 0 0 0 0 0 0 0 0 0 0 0 0 0 0 0 0 0 0 0 0 0 0 0 0 0
579 581 554 595 601 602 584 0 0 0 0 0 0 0 0 0 2268 0 0 0 0 0 930 970 0 0 0 0 0 0 0 0 0 0 0 0 0 0 0 0 0 0 0 0 0 0 0 2931 2886 2901 2932 2911 2872 2928 2887 2880 2899 2930 2903 2906 2872 2873 2900 2863 2899 2807 0 0 0 0 0 0 0 0 0 0 0 0 0 0 0 0 0 0 0 0 0 0 0 0 0 0 0 0 0 0 0 0 0 0 0 0 0 0 0 0 0 0 0 0 0 0 0 0 0 0 0 0 0 0
588 559 607 587 592 613 523 0 0 0 0 0 0 0 0 0 0 0 0 0 0 0 0 0 0 0 0 0 0 0 0 0 0 0 0 0 0 0 0 0 0 0 0 0 0 0 0 2944 2904 2922 2885 2907 2928 2899 2870 2913 2942 2900 2906 2941 2892 2927 2881 2887 2891 2909 0 0 0 0 0 0 0 0 0 0 0 0 0 0 0 0 0 0 0 0 0 0 0 0 0 0 0 0 0 0 0 0 0 0 0 0 0 0 0 0 0 0 0 0 0 0 0 0 0 0 0 0 0 0
599 611 589 603 623 615 0 0 0 0 0 0 0 0 0 0 0 0 0 0 0 0 0 0 0 0 0 0 0 0 0 0 0 0 0 0 0 0 0 0 0 0 0 0 0 0 0 0 0 0 0 0 0 0 0 0 0 0 0 0 0 2976 2940 2906 2904 0 0 0 0 0 0 0 0 0 0 0 0 0 0 0 0 0 0 0 0 0 0 0 0 0 0 0 0 0 0 0 0 0 0 0 0 0 0 0 0 0 0 0 0 0 0 0 0 0 0 0 0 0 0 0
595 593 585 596 600 612 0 0 0 0 0 0 0 0 0 0 0 0 0 0 0 0 0 0 0 0 0 0 0 0 0 0 0 0 0 0 0 0 0 0 0 0 0 0 0 0 0 0 0 0 0 0 0 0 0 0 0 0 0 0 0 0 0 0 0 0 0 0 0 0 0 0 0 0 0 0 0 0 0 0 0 0 0 0 0 0 0 0 0 0 0 0 0 0 0 0 0 0 0 0 0 0 0 0 0 0 0 0 0 0 0 0 0 0 0 0 0 0 0 0
588 597 600 597 615 0 0 0 0 0 0 0 0 0 0 0 0 0 0 0 0 0 0 0 0 0 0 0 0 0 0 0 0 0 0 0 0 0 0 0 0 0 0 0 0 0 0 0 0 0 0 0 0 0 0 0 0 0 0 0 0 0 0 0 0 0 0 0 0 0 0 0 0 0 0 0 0 0 0 0 0 0 0 0 0 0 0 0 0 0 0 0 0 0 0 0 0 0 0 0 0 0 0 0 0 0 0 0 0 0 0 0 0 0 0 0 0 0 0 0
583 586 593 566 586 0 0 0 0 0 0 0 0 0 0 0 0 0 0 0 0 0 0 0 0 0 0 0 0 0 0 0 0 0 0 0 0 0 0 0 0 0 0 0 0 0 0 0 0 0 0 0 0 0 0 0 0 0 0 0 0 0 0 0 0 0 0 0 0 0 0 0 0 0 0 0 0 0 0 0 0 0 0 0 0 0 0 0 0 0 0 0 0 0 0 0 0 0 0 0 0 0 0 0 0 0 0 0 0 0 0 0 0 0 0 0 0 0 0 0
573 604 595 559 0 0 0 0 0 0 0 0 0 0 0 0 0 0 0 802 0 0 0 0 0 0 846 819 878 883 856 872 892 862 870 826 0 869 901 896 903 867 889 0 0 0 949 0 0 0 0 0 0 0 0 0 0 0 0 0 0 0 0 0 0 0 0 0 0 0 0 0 0 0 0 0 0 0 0 0 0 0 0 0 0 0 0 0 0 0 0 0 0 0 0 0 0 0 0 0 0 0 0 0 0 0 0 0 0 0 0 0 0 0 0 0 0 0 0 0
551 589 0 0 0 0 692 677 689 674 702 705 683 667 707 690 688 678 662 661 706 721 719 729 729 742 745 665 677 707 727 743 727 678 722 746 721 708 786 723 785 740 734 740 688 726 774 750 730 764 770 768 787 785 737 734 745 764 799 760 796 802 784 799 795 739 795 812 743 748 730 767 829 0 0 0 0 0 0 0 0 0 0 0 0 0 0 0 0 0 0 0 0 0 0 0 0 0 0 0 0 0 0 0 0 0 0 0 0 0 0 0 0 0 0 0 0 0 0 0
566 561 542 553 598 567 558 573 571 568 588 559 583 543 597 582 574 573 582 600 592 604 585 608 628 609 586 584 587 572 582 614 590 608 597 615 623 637 588 590 623 584 634 625 577 634 604 617 600 602 609 656 629 667 607 638 626 623 641 620 648 625 656 638 665 663 680 614 638 633 652 694 641 644 680 627 639 647 659 653 687 678 653 676 665 703 651 696 663 672 632 697 730 673 682 693 765 697 670 682 710 727 0 0 0 0 0 0 0 0 0 0 0 0 0 0 0 0 0 0
504 498 469 476 477 506 519 482 489 496 468 480 487 470 480 492 464 487 493 504 517 509 499 493 505 507 500 496 505 515 514 534 522 506 516 516 530 514 521 511 520 510 512 514 510 527 536 515 517 523 525 528 546 550 512 527 536 510 536 527 546 552 541 536 513 551 540 560 532 560 543 550 541 542 541 548 555 542 550 548 544 526 560 556 575 580 561 547 556 518 544 551 554 610 549 562 582 587 561 568 541 621 572 583 0 523 0 555 572 585 564 0 0 0 0 0 0 0 0 0
456 415 408 454 440 421 430 428 441 439 446 447 455 452 440 443 459 463 446 442 470 461 432 451 448 454 456 439 446 465 459 465 459 465 457 466 467 460 468 469 458 466 468 454 483 467 464 459 474 487 480 474 482 465 470 457 489 471 471 471 469 490 475 494 485 484 484 471 475 486 471 471 525 476 464 488 499 473 491 481 494 488 488 487 482 475 513 487 500 489 490 500 483 509 492 487 480 514 473 476 495 524 512 540 496 520 532 493 504 514 505 462 0 0 0 0 0 0 0 0
388 396 389 385 403 393 399 418 401 384 391 389 404 406 400 398 405 402 411 400 397 403 416 407 418 405 421 411 409 418 413 417 412 419 421 419 416 407 422 428 408 419 431 415 432 411 420 408 421 422 419 431 411 418 426 414 420 427 423 416 424 420 426 417 431 438 410 426 448 434 441 435 442 431 430 424 434 436 438 439 443 430 445 434 450 449 436 437 444 425 434 440 436 429 426 442 431 450 452 434 432 458 447 450 439 443 456 458 424 444 478 446 500 471 0 0 0 0 0 0
359 362 344 353 352 369 360 350 357 356 349 362 363 351 376 371 363 377 362 364 374 362 355 380 376 360 359 371 382 360 370 359 373 381 363 364 381 387 356 371 373 382 369 379 373 376 400 367 378 383 381 391 367 378 372 376 366 383 376 376 386 379 395 386 386 376 391 384 392 385 382 394 382 395 389 399 404 397 402 387 402 394 394 386 386 393 389 413 394 385 405 403 389 385 389 407 400 397 389 400 402 394 394 370 396 398 382 402 397 384 398 402 388 382 380 414 0 0 0 0
309 311 330 323 330 313 348 338 340 329 321 317 337 346 322 355 344 340 334 351 338 340 339 338 346 356 321 349 327 357 332 343 330 361 340 341 356 342 330 335 342 336 337 345 340 334 349 348 346 347 362 345 342 346 341 335 348 340 335 348 346 353 353 357 345 349 337 347 345 351 349 346 345 342 354 359 340 348 338 354 351 340 354 340 350 352 346 350 351 343 353 360 368 360 348 347 358 354 368 356 356 364 349 369 370 345 373 362 368 357 350 368 363 368 364 319 347 0 0 0
302 306 314 288 297 307 300 306 283 313 311 296 299 306 299 304 302 303 305 306 291 326 301 320 291 310 294 315 292 322 293 319 300 310 308 313 310 308 309 303 313 311 306 310 310 309 309 324 323 305 318 316 311 305 316 313 310 313 313 318 321 302 311 329 311 312 323 323 325 318 326 320 312 314 304 319 324 322 318 312 323 316 324 329 320 332 313 318 330 323 334 319 314 326 319 330 337 328 328 339 321 332 341 332 329 337 333 336 325 344 348 338 349 342 342 320 319 359 317 0
280 267 278 281 268 269 267 271 277 275 278 274 280 275 287 288 277 268 281 274 274 268 273 283 284 282 276 264 295 273 278 284 284 278 283 279 276 278 281 284 285 276 284 287 291 285 274 287 284 287 287 280 287 282 279 288 277 293 277 292 286 283 279 289 288 288 285 293 294 288 283 292 284 283 293 284 295 288 291 294 283 287 279 280 284 287 292 294 298 293 298 291 302 306 300 303 285 294 303 292 295 290 293 319 301 295 297 305 302 283 284 310 295 302 288 271 287 306 256 316
257 255 256 251 247 255 255 260 257 261 254 250 256 255 261 251 259 260 263 262 255 259 259 250 264 259 258 257 252 257 254 262 253 262 264 258 267 263 267 265 260 260 267 269 263 264 269 265 273 269 267 263 266 260 267 264 263 259 260 272 266 262 270 259 273 267 261 268 272 268 268 259 270 274 272 268 268 263 267 263 261 260 266 273 266 273 277 266 263 269 266 267 272 269 266 275 268 268 280 293 265 259 292 290 271 275 282 280 269 275 263 271 277 270 263 269 266 269 288 306
223 230 234 235 236 232 237 229 228 233 235 242 242 240 244 244 234 246 249 239 235 244 239 241 240 239 242 238 243 245 237 241 244 243 247 249 240 248 247 247 244 240 248 244 243 256 250 248 247 245 243 251 241 248 248 245 245 249 249 248 251 253 252 254 248 253 247 250 251 257 253 246 243 246 248 257 249 246 251 248 242 250 242 245 254 254 247 248 249 238 244 248 253 254 248 252 247 248 251 254 249 251 247 249 259 258 247 259 249 253 252 234 265 249 250 250 260 253 236 234
213 215 216 214 220 221 221 215 217 217 222 220 217 223 222 223 224 217 227 221 226 223 232 224 229 225 225 231 223 226 224 227 233 232 230 234 237 226 226 228 228 232 230 219 234 232 234 232 232 234 233 228 232 229 234 237 231 229 233 238 235 233 234 233 240 229 235 235 235 232 232 232 238 239 225 231 235 228 231 233 228 229 239 228 239 234 234 241 234 234 231 240 229 227 238 237 232 235 237 243 240 239 239 231 231 234 229 236 241 235 232 243 241 244 232 233 217 233 201 239
202 206 221 215 207 202 206 201 206 212 210 211 206 223 213 218 208 210 212 215 214 210 212 212 208 209 214 214 214 213 213 210 209 215 211 216 213 217 217 220 219 217 225 213 221 221 221 217 216 220 216 217 204 225 222 224 221 218 223 223 221 228 224 218 219 220 220 222 203 221 219 225 221 220 220 222 224 219 213 224 217 230 224 228 221 226 220 220 215 215 226 220 223 226 215 219 229 222 230 232 215 215 224 223 218 226 223 226 228 233 226 227 226 231 230 218 228 206 216 235
192 193 195 200 200 201 197 200 186 200 185 199 187 208 202 184 188 185 188 190 186 189 194 188 187 191 188 188 185 212 196 191 190 186 198 193 185 196 187 191 197 191 198 189 196 195 197 192 200 198 196 200 193 201 188 195 195 195 200 197 201 199 217 193 193 199 192 194 198 197 198 195 198 188 197 194 195 195 196 186 191 197 191 196 195 200 194 183 197 211 210 196 209 205 211 189 192 189 214 208 213 213 208 196 217 212 209 211 208 210 207 201 209 213 179 198 197 199 197 180
172 177 176 177 193 179 180 181 183 185 183 175 176 177 184 178 187 186 187 187 182 184 183 186 190 192 187 188 186 183 184 186 193 189 184 195 194 190 190 193 193 195 196 188 199 188 194 199 190 198 192 197 193 195 194 198 199 195 198 199 197 198 201 188 200 198 200 197 189 196 199 193 198 198 197 195 198 196 198 186 194 195 197 188 195 194 192 192 192 186 185 187 191 177 179 185 181 181 187 178 185 180 188 191 180 182 186 190 202 200 203 196 185 199 184 179 201 173 180 176
172 177 174 177 179 174 176 181 173 173 179 172 184 179 185 184 178 185 182 184 185 184 185 183 179 184 187 187 183 191 186 183 189 185 182 188 181 181 184 179 184 187 185 186 184 189 191 186 190 184 191 188 188 187 191 192 186 193 191 190 182 190 181 191 190 192 190 191 190 186 185 189 190 183 191 184 187 186 191 192 191 193 191 187 185 193 187 184 188 188 185 191 187 185 187 190 188 181 188 183 181 187 174 178 184 181 181 181 178 174 181 186 202 185 176 167 174 183 204 178
171 165 158 167 167 169 168 173 164 171 172 167 171 172 179 176 178 174 177 183 176 170 174 170 173 169 176 175 173 176 175 184 176 175 171 175 182 171 176 179 171 175 176 178 181 181 179 176 178 181 178 182 177 180 178 183 178 181 177 184 178 180 184 176 175 178 182 181 178 177 177 178 181 182 181 179 180 185 183 181 180 185 181 179 171 180 177 182 181 178 177 186 174 177 172 181 175 176 186 178 182 183 182 181 178 178 173 170 182 174 172 172 180 174 172 170 169 164 173 173
160 164 162 165 163 165 157 156 168 165 166 167 163 168 165 174 167 170 172 171 173 165 165 167 163 161 165 169 169 170 173 174 166 164 166 165 172 165 173 169 165 165 173 169 178 171 172 173 173 168 171 174 175 170 175 170 175 169 174 166 172 171 171 173 177 168 174 170 173 164 167 174 172 171 168 170 173 176 171 172 166 168 171 169 172 172 183 174 174 168 163 176 170 166 164 171 171 165 169 174 166 176 180 169 172 172 170 173 167 161 170 170 170 176 174 191 169 161 151 171
155 158 166 167 163 163 161 154 158 156 168 159 160 159 162 161 159 164 166 165 162 158 163 161 159 162 164 155 162 163 159 165 160 163 159 161 158 158 161 160 158 164 164 162 167 164 163 163 163 162 165 168 166 160 168 165 166 168 162 171 166 164 164 160 165 171 166 160 173 161 164 162 162 165 163 164 167 166 164 170 166 156 169 162 162 163 166 163 162 165 165 165 161 160 164 168 162 155 167 170 172 168 160 168 163 169 163 163 168 161 163 164 164 168 156 154 163 171 174 204
144 148 151 145 149 147 145 144 147 157 150 146 146 147 150 150 143 159 158 150 157 154 152 153 152 150 152 160 153 158 154 153 155 152 151 161 151 151 149 157 154 153 157 155 157 158 154 155 156 155 153 153 158 159 158 156 158 156 159 155 162 155 157 159 157 160 156 152 158 157 155 155 155 152 160 160 162 161 156 156 161 154 155 149 156 153 157 156 157 156 156 155 153 161 159 154 158 151 157 158 159 155 153 152 153 152 151 145 152 159 145 165 151 162 157 156 154 143 159 120
141 142 145 142 149 145 144 148 147 146 151 148 145 144 151 146 152 146 143 151 156 148 154 151 155 155 148 154 149 148 152 152 143 147 151 143 149 153 148 151 149 150 147 148 150 155 146 144 146 151 150 152 146 146 158 151 155 153 157 157 153 147 155 153 147 146 154 155 153 153 146 153 149 159 154 150 157 161 154 151 152 151 150 145 148 156 152 157 156 151 153 151 161 151 155 146 153 152 153 158 148 156 159 150 154 151 144 147 155 153 148 153 151 156 155 143 151 156 154 146
134 134 136 136 137 136 138 139 139 136 143 139 140 138 137 138 144 137 143 144 144 139 140 149 139 142 147 142 143 142 142 139 140 146 140 140 130 142 143 144 146 145 140 145 143 144 145 140 143 141 141 147 142 142 143 142 142 150 144 145 148 129 144 142 148 140 147 149 142 144 144 142 146 146 146 144 146 154 147 147 140 142 145 138 140 143 146 146 150 142 147 147 145 144 142 147 138 142 148 151 141 145 151 141 139 143 139 138 139 144 135 132 130 146 132 138 143 130 145 136
132 133 130 130 133 139 137 137 135 136 138 0 129 134 130 137 141 136 139 140 141 141 143 140 138 142 147 138 129 136 135 129 131 137 129 129 132 128 137 139 131 140 141 138 140 129 130 138 136 122 139 139 141 142 143 145 143 141 144 143 130 141 140 144 143 139 142 143 142 127 129 132 126 141 139 139 139 144 140 142 145 137 137 129 139 143 143 139 137 139 127 144 144 143 140 139 142 142 138 137 137 134 140 140 137 135 134 137 140 136 132 134 132 134 131 138 127 111 129 132
130 133 125 129 137 137 140 131 129 133 131 136 141 138 134 132 133 135 136 125 139 140 139 138 140 134 140 136 134 125 126 123 128 125 126 135 137 126 128 127 140 138 141 139 0 131 125 127 129 126 125 125 140 133 0 143 0 130 130 123 129 128 132 142 128 131 139 139 142 129 124 130 129 141 128 131 133 128 139 131 141 138 124 126 129 124 139 127 131 145 121 141 135 132 135 136 139 143 141 139 127 137 133 136 125 130 133 131 137 133 137 140 132 138 137 141 129 150 128 142
115 107 115 106 124 119 138 132 110 114 129 117 119 123 124 132 122 132 119 122 120 126 128 122 123 138 137 136 0 129 126 120 119 122 114 121 125 126 125 120 128 125 126 129 0 0 129 122 128 118 120 120 127 125 126 127 130 129 125 121 121 128 124 131 125 131 128 127 121 128 124 126 121 120 112 121 120 132 122 126 126 124 127 121 117 127 125 124 124 123 124 125 133 135 132 114 133 139 126 137 129 130 120 122 122 119 118 121 129 120 125 130 138 134 121 124 124 126 134 79
110 115 120 112 114 120 128 114 127 110 114 120 117 121 114 113 110 123 122 117 119 122 126 116 133 123 124 126 122 125 129 0 125 117 115 110 117 120 0 122 130 122 0 0 0 0 120 125 120 119 122 121 124 119 124 126 123 124 120 121 124 122 109 121 129 127 129 123 123 122 121 119 124 115 118 118 120 124 123 121 116 118 122 122 119 118 117 118 127 123 118 117 118 120 123 113 133 135 119 118 120 113 122 119 103 119 115 113 114 130 112 132 121 130 107 119 114 104 101 139
108 97 116 115 109 107 125 118 112 110 119 115 113 109 105 110 113 115 110 123 115 108 113 115 116 113 117 117 112 124 119 0 118 120 115 109 113 0 114 117 123 0 0 122 122 0 117 118 111 115 114 115 121 119 117 120 119 114 113 116 120 123 122 118 122 117 119 118 117 116 115 112 112 111 116 115 114 117 112 117 113 115 113 117 115 112 118 116 115 116 116 120 117 117 106 116 124 124 113 118 120 117 113 112 115 114 116 117 103 122 135 129 131 140 132 117 112 113 98 143
92 101 106 102 99 99 110 105 101 107 108 110 110 111 118 119 116 113 105 104 114 104 110 104 109 113 116 112 116 114 117 111 112 114 115 110 106 113 0 112 115 111 109 108 110 117 115 0 112 0 113 111 120 114 0 0 107 105 116 114 124 117 109 111 107 108 103 110 113 115 109 104 111 99 107 105 104 107 104 110 114 107 103 105 108 105 109 102 106 115 110 114 99 122 104 113 115 114 107 109 106 111 112 108 105 109 97 108 108 115 108 112 96 114 99 114 110 87 94 84
103 96 110 108 103 102 107 106 109 105 106 109 112 110 116 113 111 110 106 99 109 99 103 105 113 108 108 111 108 116 105 108 110 108 112 112 114 0 105 106 110 106 112 101 103 109 108 108 116 0 109 110 108 113 105 111 103 105 110 107 109 112 113 0 114 109 105 111 108 112 107 99 105 113 99 105 101 103 105 110 108 105 109 110 100 104 100 105 103 103 101 108 102 99 96 105 108 111 111 109 103 111 109 113 107 102 105 100 93 116 110 108 114 122 118 104 89 94 114 85
96 92 108 108 98 92 96 95 92 93 102 101 99 101 101 103 97 107 107 103 103 102 95 103 106 102 104 101 98 101 106 100 103 101 103 98 102 103 104 106 102 104 102 95 97 101 105 98 103 101 106 107 102 106 101 104 99 106 104 99 101 103 104 0 107 105 0 109 101 106 98 103 96 109 103 104 96 99 0 101 0 104 95 100 97 100 95 99 98 97 101 100 98 96 94 94 100 102 102 93 95 100 96 104 100 101 88 98 76 95 93 96 88 113 102 88 79 105 86 118
90 91 84 90 94 91 91 89 96 96 98 96 100 97 99 100 92 100 103 96 98 94 90 95 95 97 103 99 103 101 105 100 104 100 100 102 97 103 97 97 103 103 96 91 94 98 103 104 103 102 106 100 99 100 97 100 101 104 101 104 107 100 108 101 107 103 102 111 103 98 103 104 99 99 98 98 99 98 94 98 0 99 95 91 99 93 96 106 92 97 103 100 99 96 87 103 91 93 83 103 100 87 99 89 91 101 97 98 98 101 81 99 112 88 86 122 98 86 78 110
93 97 89 96 93 93 97 87 86 91 90 89 94 87 91 83 93 99 106 108 101 99 80 92 95 88 95 91 91 99 99 98 101 94 95 100 98 91 96 100 96 95 90 94 98 93 102 98 91 98 99 93 85 89 96 98 90 96 99 98 95 97 102 0 96 101 95 96 100 95 98 100 104 100 87 104 99 102 98 105 91 94 90 101 99 98 86 92 92 94 89 94 98 80 93 88 91 91 102 92 90 99 100 95 94 93 100 77 89 87 100 88 105 85 90 73 115 111 100 76
85 78 87 87 85 82 78 87 82 79 85 87 90 89 85 91 89 91 92 82 92 89 90 87 94 85 97 88 91 97 86 89 97 91 87 93 86 88 93 93 88 95 85 97 91 83 91 97 89 95 90 94 97 96 97 98 98 90 96 89 88 92 85 93 92 91 98 85 97 98 97 92 97 90 85 97 96 91 93 86 88 90 94 92 86 82 88 95 92 92 92 90 93 91 91 92 82 93 89 87 90 83 82 78 85 87 89 80 84 90 82 80 86 87 83 90 78 76 61 97
93 83 79 88 91 86 90 98 90 88 85 91 88 86 88 85 89 88 96 87 87 100 94 94 90 90 93 93 88 85 94 91 92 88 100 85 91 90 87 99 89 92 94 95 96 96 97 92 90 92 97 96 95 96 92 93 93 91 88 100 98 89 98 98 90 97 90 96 85 93 89 93 97 96 95 92 92 97 88 86 100 87 93 83 89 96 96 91 89 89 97 94 102 91 89 92 90 82 93 94 88 90 82 94 83 96 94 93 89 84 85 84 98 95 95 96 96 86 0 0
80 93 88 89 93 90 80 89 84 0 81 89 86 83 83 83 88 95 83 84 92 93 91 92 89 94 91 84 93 88 90 95 88 95 93 96 93 93 96 96 86 89 92 88 97 87 93 97 87 98 91 92 94 88 95 93 93 95 97 89 94 96 94 88 89 87 93 93 94 91 87 94 81 84 92 94 87 92 91 84 93 95 85 90 89 90 83 98 99 86 88 96 99 85 87 88 88 85 86 86 82 80 81 88 81 85 88 84 90 83 86 93 80 93 78 72 86 127 100 0
77 80 78 84 81 87 91 87 84 79 85 83 90 86 87 86 84 87 82 82 87 90 88 86 85 87 86 84 92 89 85 87 90 86 92 88 88 86 87 90 92 91 91 96 97 87 95 90 91 91 95 96 91 87 90 86 91 92 94 95 88 92 90 88 88 95 81 85 87 93 86 94 90 89 89 86 87 95 94 88 92 89 90 89 90 92 90 89 88 86 90 90 82 89 76 80 88 84 89 90 78 79 87 85 89 85 86 84 75 74 76 83 82 86 86 76 52 74 0 0
81 77 77 80 82 85 89 94 80 89 84 90 88 84 76 87 81 88 91 91 91 92 90 85 78 83 86 88 89 91 89 86 91 86 85 87 88 89 87 89 91 84 88 95 94 86 91 92 90 96 90 88 82 86 86 96 93 88 84 94 91 88 87 97 89 91 91 85 82 94 88 88 88 90 91 86 89 90 82 85 86 91 87 82 91 95 92 88 90 91 89 91 82 85 80 88 88 84 95 87 86 92 79 80 78 88 89 91 90 77 80 90 81 87 88 62 0 0 0 0
78 68 60 62 77 79 82 81 83 74 77 75 81 87 83 74 81 79 76 74 85 73 81 86 72 74 79 77 85 74 86 74 77 78 89 78 87 83 84 78 85 83 80 69 81 77 84 83 86 77 85 80 77 81 79 83 85 86 85 72 86 78 75 79 75 81 73 78 81 83 80 84 79 80 86 82 79 83 88 82 70 80 74 81 75 87 83 80 77 81 77 68 82 73 80 81 77 83 68 78 75 76 79 59 79 67 78 77 73 74 84 79 71 61 77 67 0 0 0 0
72 69 74 79 70 79 87 84 79 75 82 84 78 80 82 82 85 78 75 73 80 81 73 75 84 85 79 72 82 83 86 85 82 82 81 68 89 74 79 80 92 78 86 85 85 84 80 80 86 81 83 72 73 80 83 82 81 82 84 73 84 80 81 84 79 85 74 75 93 69 76 86 83 85 89 79 82 83 84 83 80 70 78 79 72 77 82 76 82 86 81 83 73 71 82 76 86 75 68 78 84 74 69 74 69 74 71 83 77 85 77 73 57 76 113 0 0 0 0 0
