0 0 0 0 0 0 0 0 0 0 0 0 0 0 0 0 0 0 0 0 0 0 0 0 0 0 0 0 0 0 0 0 0 0 0 0 0 0 0 0 0 0 0 0 0 0 0 0 0 0 0 0 0 0 0 0 0 0 0 0 0 0 0 0 0 0 0 0 0 0 0 0 0 0 0 0 0 0 0 0 0 0 0 0 0 0 0 0 0 0 0 0 0 0 0 0 0 0 0 0 0 0 0 0 0 0 0 0 0 0 0 0 0 0 0 0 0 0 0 0
0 0 0 0 0 0 0 0 0 0 0 0 0 0 0 0 0 0 0 0 0 0 0 0 0 0 0 0 0 0 0 0 0 0 0 0 0 0 0 0 0 0 0 0 0 0 0 0 0 0 0 0 0 0 0 0 0 0 0 0 0 0 0 0 0 0 0 0 0 0 0 0 0 0 0 0 0 0 0 0 0 0 0 0 0 0 0 0 0 0 0 0 0 0 0 0 0 0 0 0 0 0 0 0 0 0 0 0 0 0 0 0 0 0 0 0 0 0 0 0
0 0 0 0 0 0 0 0 0 0 0 0 0 0 0 0 0 0 0 0 0 0 0 0 0 0 0 0 0 0 0 0 0 0 0 0 0 0 0 0 0 0 0 0 0 0 0 0 0 0 0 0 0 0 0 0 0 0 0 0 0 0 0 0 0 0 0 0 0 0 0 0 0 0 0 0 0 0 0 0 0 0 0 0 0 0 0 0 0 0 0 0 0 0 0 0 0 0 0 0 0 0 0 0 0 0 0 0 0 0 0 0 0 0 0 0 0 0 0 0
0 0 0 0 0 0 0 0 0 0 0 1136 1150 1141 0 0 1276 1288 1301 0 0 1315 1274 0 0 0 0 0 0 0 0 0 0 0 0 0 0 0 0 0 0 0 0 0 0 0 0 0 0 0 0 0 0 0 0 0 0 0 0 0 0 0 0 0 0 0 0 0 0 0 0 0 0 0 0 0 0 0 0 0 0 0 0 0 0 0 0 0 0 0 0 0 0 0 0 0 0 0 0 0 0 0 0 0 0 0 0 0 0 0 0 0 0 0 0 0 0 0 0 0
0 0 0 0 0 0 0 1121 1140 1131 1142 1171 1149 1143 1184 0 1287 1273 1296 0 1246 1288 1250 0 0 0 0 0 0 0 0 0 0 0 0 0 0 0 0 0 0 0 0 0 0 0 0 0 0 0 0 0 0 0 0 0 0 0 0 0 0 0 0 0 0 0 0 0 0 0 0 0 0 0 0 0 0 0 0 0 0 0 0 0 0 0 0 0 0 0 0 0 0 0 0 0 0 0 0 0 0 0 0 0 0 0 0 0 0 0 0 0 0 0 0 0 0 0 0 0
0 0 0 0 0 0 0 1139 1128 1115 0 0 1158 1135 1173 1206 1260 1249 1264 0 1277 1249 1248 1258 0 0 0 0 0 0 0 0 0 0 0 0 0 0 0 0 0 0 0 0 0 0 0 0 0 0 0 0 0 0 0 0 0 0 0 0 0 0 0 0 0 0 0 0 0 0 0 0 0 0 0 0 0 0 0 0 0 0 0 0 0 0 0 0 0 0 0 0 0 0 0 0 0 0 0 0 0 0 0 0 0 0 0 0 0 0 0 0 0 0 0 0 0 0 0 0
0 0 0 0 0 0 0 0 0 0 0 0 1203 1204 1239 1258 1241 1270 1287 1258 1253 1277 1253 1273 1267 0 0 0 0 0 0 1394 0 0 0 0 0 0 0 0 0 0 0 0 0 0 0 0 0 0 0 0 0 0 0 0 0 0 0 0 0 0 0 0 0 0 0 0 0 0 0 0 0 0 0 0 0 0 0 0 0 0 0 0 0 0 0 0 0 0 0 0 0 0 0 0 0 0 0 0 0 0 0 0 0 0 0 0 0 0 0 0 0 0 0 0 0 0 0 0
0 0 0 0 0 0 0 0 0 0 0 0 1221 1259 1260 1260 1291 1318 1278 1264 1291 1275 1292 1269 0 1321 1351 1390 0 0 0 1394 0 0 0 0 0 0 0 0 0 0 0 0 0 0 0 0 0 0 0 0 0 0 0 0 0 0 0 0 0 0 0 0 0 0 0 0 0 0 0 0 0 0 0 0 0 0 0 0 0 0 0 0 0 0 0 0 0 0 0 0 0 0 0 0 0 0 0 0 0 0 0 0 0 0 0 0 0 0 0 0 0 0 0 0 0 0 0 0
0 0 0 0 0 0 0 0 0 0 0 0 1258 1247 1255 1253 1290 1278 1266 1251 1235 1274 1251 1247 0 0 1320 1343 1363 1351 1337 1372 0 0 0 0 0 0 0 0 0 0 0 0 0 0 0 0 0 0 0 0 0 0 0 0 0 0 0 0 0 0 0 0 0 0 0 0 0 0 0 0 0 0 0 0 0 0 0 0 0 0 0 0 0 0 0 0 0 0 0 0 0 0 0 0 0 0 0 0 0 0 0 0 0 0 0 0 0 0 0 0 0 0 0 0 0 0 0 0
0 0 0 0 0 0 0 0 0 0 0 0 0 0 1294 1313 1305 1289 1291 1292 1293 1268 1257 1278 1270 0 1382 1390 1376 1391 1401 1426 1430 0 0 0 0 0 0 0 0 0 0 0 0 0 0 0 0 0 0 0 0 0 0 0 0 0 0 0 0 0 0 0 0 0 0 0 0 0 0 0 0 0 0 0 0 0 0 0 0 0 0 0 0 0 0 0 0 0 0 0 0 0 0 0 0 0 0 0 0 0 0 0 0 0 0 0 0 0 0 0 0 0 0 0 0 0 0 0
0 0 0 0 0 0 0 0 0 0 0 0 0 0 0 0 0 0 0 0 0 1311 1290 1259 1262 0 0 1358 1344 1353 1378 1424 1399 0 0 0 0 0 0 0 0 0 0 0 0 0 0 0 0 0 0 0 0 0 0 0 0 0 0 0 0 0 0 0 0 0 0 0 0 0 0 0 0 0 0 0 0 0 0 0 0 0 0 0 0 0 0 0 0 0 0 0 0 0 0 0 0 0 0 0 0 0 0 0 0 0 0 0 0 0 0 0 0 0 0 0 0 0 0 0
0 0 0 0 0 0 0 0 0 0 0 0 0 0 0 0 0 0 0 0 0 0 0 1343 1327 0 0 0 1362 1350 1348 1406 1409 0 0 0 0 0 0 0 0 0 0 0 0 0 0 0 0 0 0 0 0 0 0 0 0 0 0 0 0 0 0 0 0 0 0 0 0 0 0 0 0 0 0 0 0 0 0 0 0 0 0 0 0 0 0 0 0 0 0 0 0 0 0 0 0 0 0 0 0 0 0 0 0 0 0 1719 0 0 0 0 0 0 0 0 0 0 0 0
0 0 0 0 0 0 0 0 0 0 0 0 0 0 0 0 0 0 0 0 0 0 0 1394 1402 1342 1325 1321 1350 1359 1373 1396 1442 0 0 0 0 0 0 0 0 0 0 0 0 0 0 0 0 0 0 0 0 0 0 0 0 0 0 0 0 0 0 0 0 0 0 0 0 0 0 0 0 0 0 0 0 0 0 0 0 0 0 0 0 0 0 0 0 0 0 0 0 0 0 0 0 0 0 0 0 0 0 0 0 0 1757 1746 0 0 0 0 0 0 0 0 0 0 0 0
0 0 0 0 0 0 0 0 0 0 0 0 0 0 0 0 0 0 0 0 0 0 0 1362 1372 1370 1316 1285 1303 1324 1333 1412 1444 0 0 0 0 0 0 0 0 0 0 0 0 0 0 0 0 0 0 0 0 0 0 0 0 0 0 0 0 0 0 0 0 0 0 0 0 0 0 0 0 0 0 0 0 0 0 0 0 0 0 0 0 0 0 0 0 0 0 0 0 0 0 0 0 0 0 0 0 0 0 0 0 1729 1700 1792 1698 0 0 0 0 0 0 0 0 0 0 0
0 0 0 0 0 0 0 0 0 0 0 0 0 0 0 0 0 0 0 0 0 0 0 1362 1337 1373 1357 1331 1317 1309 1320 1377 1420 0 0 0 0 0 0 0 0 0 0 0 0 0 0 0 0 0 0 0 0 0 0 0 0 0 0 0 0 0 0 0 0 0 0 0 0 0 0 0 0 0 0 0 0 0 0 0 0 0 0 0 0 0 0 0 0 0 0 0 0 0 0 0 0 0 0 0 0 0 0 0 0 0 1747 0 0 0 0 0 0 0 0 0 0 0 0 0
0 0 0 0 0 0 0 0 0 0 0 0 0 0 0 0 0 0 0 0 0 0 0 0 1349 1363 1382 1361 1354 1324 1339 1400 1407 0 0 0 0 0 0 0 0 0 0 0 0 0 0 0 0 0 0 0 0 0 0 0 0 0 0 0 0 0 0 0 0 0 0 0 0 0 0 0 0 0 0 0 0 0 0 0 0 0 0 0 0 0 0 0 0 0 0 0 0 0 0 0 0 0 0 0 0 0 0 0 0 0 0 1663 1741 0 0 0 0 0 0 0 0 0 0 0
1227 1257 1284 1285 1280 1276 1277 0 0 0 0 0 0 0 0 0 0 0 0 0 0 0 0 0 1351 1370 1361 1373 1373 1364 1345 1412 1396 0 0 0 0 0 0 0 0 0 0 0 0 0 0 0 0 0 0 0 0 0 0 0 0 0 0 0 0 0 0 0 0 0 0 0 0 0 0 0 0 0 0 0 0 0 0 0 0 0 0 0 0 0 0 0 0 0 0 0 0 0 0 0 0 0 0 0 0 0 0 0 1757 1689 1695 1715 1643 1663 0 0 0 0 0 0 0 0 0 0
1267 1260 1274 1273 1274 1300 1318 1310 1355 1327 1344 0 0 0 0 0 0 0 0 0 0 0 0 1390 1363 1385 1359 1383 1381 1389 1409 1420 1423 0 0 0 0 0 0 0 0 0 0 0 0 0 0 0 0 0 0 0 0 0 0 0 0 0 0 0 0 0 0 0 0 0 0 0 0 0 0 0 0 0 0 0 0 0 0 0 0 0 0 0 0 0 0 0 0 0 0 0 0 0 0 0 0 0 0 0 0 0 0 1815 1796 1747 1748 1708 1709 1736 1706 1673 0 0 0 0 0 0 0 0
1211 1257 1267 1292 1288 1300 1311 1297 1324 1328 1335 1399 1400 1397 1415 1426 0 0 0 0 0 0 0 0 0 1395 0 0 1373 0 0 1418 1420 0 0 0 0 0 0 0 0 0 0 0 0 0 0 0 0 0 0 0 0 0 0 0 0 0 0 0 0 0 0 0 0 0 0 0 0 0 0 0 0 0 0 0 0 0 0 0 0 0 0 0 0 0 0 0 0 0 0 0 0 0 0 0 0 0 0 0 0 0 0 1788 1796 1757 1741 1782 1741 1691 1681 1658 0 0 0 0 0 0 0 0
0 0 0 0 1284 1309 1296 1316 1332 1323 1330 1330 1358 1391 1371 1392 1412 1459 1466 1456 1467 0 0 0 0 0 0 0 0 0 0 1441 1439 1421 0 0 0 0 0 0 0 0 0 0 0 0 0 0 0 0 0 0 0 0 0 0 0 0 0 0 0 0 0 0 0 0 0 0 0 0 0 0 0 0 0 0 0 0 0 0 0 0 0 0 0 0 0 0 0 0 0 0 0 0 0 0 0 0 0 0 0 0 1813 1802 1756 1733 1737 1755 1716 1637 0 0 0 0 0 0 0 0 0 0
0 0 0 0 0 0 0 0 0 1356 1346 1339 1361 1378 1377 1430 1424 1446 1436 1441 1461 1486 0 0 0 0 0 0 0 0 0 1450 1487 1490 0 0 0 0 0 0 0 0 0 0 0 0 0 0 0 0 0 0 0 0 0 0 0 0 0 0 0 0 0 0 0 0 0 0 0 0 0 0 0 0 0 0 0 0 0 0 0 0 0 0 0 0 0 0 0 0 0 0 0 0 0 0 0 0 0 0 0 0 0 1786 1707 1621 1620 1660 1603 1579 1576 1633 1601 1573 0 0 0 0 0 0
0 0 0 0 0 0 0 0 0 0 0 0 0 0 0 1377 1396 1400 1412 1423 1422 1465 0 0 0 0 0 0 0 0 0 0 1421 0 0 0 0 0 0 0 0 0 0 0 0 0 0 0 0 0 0 0 0 0 0 0 0 0 0 0 0 0 0 0 0 0 0 0 0 0 0 0 0 0 0 0 0 0 0 0 0 0 0 0 0 0 0 0 0 0 0 0 0 0 0 0 0 0 0 0 0 0 1617 1591 1579 1615 1615 1579 1588 1561 1544 1580 1576 1611 0 0 0 0 0 0
0 0 0 0 0 0 0 0 0 0 0 0 0 0 0 0 0 0 0 0 0 1472 0 0 0 0 0 0 0 0 0 0 0 0 0 0 0 0 0 0 0 0 0 0 0 0 0 0 0 0 0 0 0 0 0 0 0 0 0 0 0 0 0 0 0 0 0 0 0 0 0 0 0 0 0 0 0 0 0 0 0 0 0 0 0 0 0 0 0 0 0 0 0 0 0 0 0 0 0 0 0 1571 1569 1571 1596 1583 1598 1608 1562 1574 1593 1576 1564 1590 0 0 0 0 0 0
0 0 0 0 0 0 0 0 0 0 0 0 0 0 0 0 0 0 0 0 0 0 0 0 0 0 0 0 0 0 0 0 0 0 0 0 0 0 0 0 0 0 0 0 0 0 0 0 0 0 0 0 0 0 0 0 0 0 0 0 0 0 0 0 0 0 0 0 0 0 0 0 0 0 0 0 0 0 0 0 0 0 0 0 0 0 0 0 0 0 0 0 0 0 0 0 0 0 0 0 0 0 0 1595 1595 1613 1581 1625 1593 1595 1589 1594 0 0 0 0 0 0 0 0
0 0 0 0 0 0 0 0 0 0 0 0 0 0 0 0 0 0 0 0 0 0 0 0 0 0 0 0 0 0 0 0 0 0 0 0 0 0 0 0 0 0 0 0 0 0 0 0 0 0 0 0 0 0 0 0 0 0 0 0 0 0 0 0 0 0 0 0 0 0 0 0 0 0 0 0 0 0 0 0 0 0 0 0 0 0 0 0 0 0 0 0 0 0 0 0 0 0 0 0 0 0 0 0 0 0 0 1517 1546 0 0 0 0 0 0 0 0 0 0 0
0 0 0 0 0 0 0 0 0 0 0 0 0 0 0 0 0 0 0 0 0 0 0 0 0 0 0 0 0 0 0 0 0 0 0 0 0 0 0 0 0 0 0 0 0 0 0 0 0 0 0 0 0 0 0 0 0 0 0 0 0 0 0 0 0 0 0 0 0 0 0 0 0 0 0 0 0 0 0 0 0 0 0 0 0 0 0 0 0 0 0 0 0 0 0 0 0 0 0 0 0 0 0 0 0 0 0 0 0 0 0 0 0 0 0 0 0 0 0 0
547 589 0 0 0 0 0 0 0 0 0 0 0 0 0 0 0 0 0 0 0 0 0 0 0 1902 1877 0 0 0 0 0 0 0 0 0 0 0 0 0 0 0 0 0 0 0 0 2897 2932 2943 2974 2897 2945 2926 2926 2888 2919 2915 2919 2951 2926 2954 2903 2865 2914 2935 0 0 0 0 0 0 0 0 0 0 0 0 0 0 0 0 0 0 0 0 0 0 0 0 0 0 0 0 0 0 1743 0 0 0 0 0 0 0 0 0 0 0 0 0 0 0 0 0 0 0 0 0 0 0
573 598 588 592 616 667 0 0 0 0 0 0 0 0 0 0 0 0 0 0 0 0 0 0 0 0 0 1916 1921 0 0 0 0 0 0 0 0 0 0 0 0 0 0 0 0 0 0 2873 2888 2910 2893 2896 2895 2883 2921 2866 2897 2915 2876 2924 2906 2885 2861 2903 2908 2923 0 0 0 0 0 0 0 0 0 0 0 0 0 0 0 0 0 0 0 0 0 0 0 0 0 0 0 0 0 0 0 0 0 0 0 0 0 0 0 0 0 0 0 0 0 0 0 0 0 0 0 0 0 0
572 573 581 608 622 626 649 645 664 0 0 0 0 0 0 0 0 0 0 0 0 0 0 0 0 0 0 0 0 0 0 0 0 0 0 0 0 0 0 0 0 0 0 0 0 0 0 2928 2945 2912 2883 2910 2967 2891 2914 2909 2867 2888 2914 2921 2953 2964 2922 2889 2865 2927 0 0 0 0 0 0 0 0 0 0 0 0 0 0 0 0 0 0 0 0 0 0 0 0 0 0 0 0 0 0 0 0 0 0 0 0 0 0 0 0 0 0 0 0 0 0 0 0 0 0 0 0 0 0
562 582 594 608 613 626 627 639 655 682 686 692 0 0 0 0 0 0 0 0 0 0 0 0 0 0 0 0 0 0 0 0 0 0 0 0 0 0 0 0 0 0 0 0 0 0 0 2958 2902 2920 2925 2948 2894 2932 2965 2893 2944 2885 2883 2947 2893 2911 2870 2943 2880 2943 0 0 0 0 0 0 0 0 0 0 0 0 0 0 0 0 0 0 0 0 0 0 0 0 0 0 0 0 0 0 0 0 0 0 0 0 0 0 0 0 0 0 0 0 0 0 0 0 0 0 0 0 0 0
590 570 593 587 618 606 640 647 656 676 669 667 702 716 711 0 0 0 0 0 0 0 0 0 0 0 0 0 0 0 0 0 0 0 0 0 0 0 0 0 0 0 0 0 0 0 0 2935 2896 2916 2904 2909 2898 2896 2914 2911 2836 2940 2933 2961 2890 2878 2925 2901 2904 0 0 0 0 0 0 0 0 0 0 0 0 0 0 0 0 0 0 0 0 0 0 0 0 0 0 0 0 0 0 0 0 0 0 0 0 0 0 0 0 0 0 0 0 0 0 0 0 0 0 0 0 0 0 0
729 765 756 728 728 657 654 662 641 670 679 686 710 725 725 758 758 720 0 0 0 0 0 0 0 0 0 0 0 0 0 0 0 0 0 0 0 0 0 0 0 0 0 0 0 0 0 2927 2931 2949 2923 2946 2933 2932 2931 2920 2953 2957 2931 2877 2925 2951 2929 2890 2918 2945 0 0 0 0 0 0 0 0 0 0 0 0 0 0 0 0 0 0 0 0 0 0 0 0 0 0 0 0 0 0 0 0 0 0 0 0 0 0 0 0 0 0 0 0 0 0 0 0 0 0 0 0 0 0
772 817 809 816 826 832 818 836 816 823 753 760 712 717 737 752 769 781 786 825 814 0 0 0 0 0 0 0 0 0 0 0 0 0 0 0 0 0 0 0 0 0 0 0 0 0 0 2924 2914 2883 2919 2918 2888 2908 2854 2888 2900 2886 2902 2836 2886 2922 2856 2882 2893 2872 0 0 0 0 0 0 0 0 0 0 0 0 0 0 0 0 0 0 0 0 0 0 0 0 0 0 0 0 0 0 0 0 0 0 0 0 0 0 0 0 0 0 0 0 0 0 0 0 0 0 0 0 0 0
741 795 826 834 843 862 866 895 901 934 918 929 931 911 878 809 799 800 809 842 865 871 860 902 0 0 0 0 0 0 0 0 0 0 0 0 0 0 0 0 0 0 0 0 0 0 0 2912 2863 2866 2884 2936 2882 2877 2917 2865 2884 2867 2894 2862 2866 2857 2860 2883 2855 2898 0 0 0 0 0 0 0 0 0 0 0 0 0 0 0 0 0 0 0 0 0 0 0 0 0 0 0 0 0 0 0 0 0 0 0 0 0 0 0 0 0 0 0 0 0 0 0 0 0 0 0 0 0 0
654 0 874 858 882 859 895 905 893 927 936 938 949 955 951 949 941 929 913 882 854 880 877 859 918 938 0 0 0 0 0 0 0 0 0 0 0 0 0 0 0 0 0 0 0 0 0 2939 2911 2953 2922 2873 2876 2881 2932 2941 2908 2926 2862 2878 2860 2935 2871 2872 2905 2889 0 0 0 0 0 0 0 0 0 0 0 0 0 0 0 0 0 0 0 0 0 0 0 0 0 0 0 0 0 0 0 0 0 0 0 0 0 0 0 0 0 0 0 0 0 0 0 0 0 0 0 0 0 0
685 933 965 931 948 958 976 937 942 924 952 954 965 948 950 960 957 964 952 963 934 923 928 926 927 945 955 1000 0 0 0 0 0 0 0 0 0 0 0 0 0 0 0 0 0 0 0 2873 2878 2893 2869 2852 2919 2870 2921 2871 2854 2894 2891 2901 2846 2842 2889 2872 2850 2937 0 0 0 0 0 0 0 0 0 0 0 0 0 0 0 0 0 0 0 0 0 0 0 0 0 0 0 0 0 0 0 0 0 0 0 0 0 0 0 0 0 0 0 0 0 0 0 0 0 0 0 0 0 0
602 767 0 0 0 0 0 0 0 0 1013 976 1006 995 984 975 980 972 951 977 953 962 949 952 974 957 973 973 1026 1053 1099 0 0 0 0 0 0 0 0 0 0 0 0 0 0 0 0 2874 2922 2927 2887 2906 2901 2905 2899 2877 2955 2935 2916 2841 2908 2903 2874 2864 2916 2884 0 0 0 0 0 0 0 0 0 0 0 0 0 0 0 0 0 0 0 0 0 0 0 0 0 0 0 0 0 0 0 0 0 0 0 0 0 0 0 0 0 0 0 0 0 0 0 0 0 0 0 0 0 0
601 589 617 0 1125 1127 1130 1152 1131 1145 1116 1127 1139 1153 1128 1144 1099 1051 0 0 1023 1048 1067 931 1007 1024 1114 1121 1102 1104 1052 0 0 0 0 0 0 0 0 0 0 0 0 0 0 0 0 2936 2943 2950 2916 2962 2946 2931 2968 2941 2894 2975 2923 2865 2936 2934 2941 2920 2894 2876 0 0 0 0 0 0 0 0 0 0 0 0 0 0 0 0 0 0 0 0 0 0 0 0 0 0 0 0 0 0 0 0 0 0 0 0 0 0 0 0 0 0 0 0 0 0 0 0 0 0 0 0 0 0
570 574 581 581 0 0 0 0 0 0 0 0 0 0 0 0 0 1032 964 0 1076 1145 1120 0 0 1081 1161 1177 1140 1143 1107 0 0 0 0 0 0 0 0 0 0 0 0 0 0 0 0 2953 2970 2940 2951 2998 2939 2889 2960 2895 2926 2945 2935 2913 2938 2895 2907 2868 2889 2871 0 0 0 0 0 0 0 0 0 0 0 0 0 0 0 0 0 0 0 0 0 0 0 0 0 0 0 0 0 0 0 0 0 0 0 0 0 0 0 0 0 0 0 0 0 0 0 0 0 0 0 0 0 0
613 550 595 596 597 0 0 0 0 0 0 0 0 0 0 0 0 979 995 0 0 0 0 0 0 0 0 0 0 0 0 0 0 0 0 0 0 0 0 0 0 0 0 0 0 0 0 2887 2938 2924 2990 2886 3001 2971 2915 2958 2871 2917 2948 2948 2961 2951 2898 2918 2891 2926 0 0 0 0 0 0 0 0 0 0 0 0 0 0 0 0 0 0 0 0 0 0 0 0 0 0 0 0 0 0 0 0 0 0 0 0 0 0 0 0 0 0 0 0 0 0 0 0 0 0 0 0 0 0
578 573 617 593 597 581 0 0 0 0 0 0 0 0 0 0 0 0 0 0 0 0 0 0 0 0 0 0 0 0 0 0 0 0 0 0 0 0 0 0 0 0 0 0 0 0 0 2871 2890 2920 2870 2890 2931 2904 2908 2907 2886 2909 2848 2889 2904 2925 2898 2893 2878 0 0 0 0 0 0 0 0 0 0 0 0 0 0 0 0 0 0 0 0 0 0 0 0 0 0 0 0 0 0 0 0 0 0 0 0 0 0 0 0 0 0 0 0 0 0 0 0 0 0 0 0 0 0 0
570 600 592 643 589 594 0 0 0 0 0 0 0 0 0 0 0 0 0 0 0 0 955 0 0 0 0 0 0 0 0 0 0 0 0 0 0 0 0 0 0 0 0 0 0 0 0 2894 2929 2870 2901 2897 2882 2876 2889 2937 2914 2868 2897 2894 2862 2901 2868 2898 2891 2883 0 0 0 0 0 0 0 0 0 0 0 0 0 0 0 0 0 0 0 0 0 0 0 0 0 0 0 0 0 0 0 0 0 0 0 0 0 0 0 0 0 0 0 0 0 0 0 0 0 0 0 0 0 0
586 610 592 579 613 604 0 0 0 0 0 0 0 0 0 0 0 0 0 0 0 0 990 0 0 0 0 0 0 0 0 0 0 0 0 0 0 0 0 0 0 0 0 0 0 0 0 2883 2935 2869 2869 2910 2893 2913 2873 2916 2857 2849 2866 2923 2885 2883 2891 2923 2876 2879 0 0 0 0 0 0 0 0 0 0 0 0 0 0 0 0 0 0 0 0 0 0 0 0 0 0 0 0 0 0 0 0 0 0 0 0 0 0 0 0 0 0 0 0 0 0 0 0 0 0 0 0 0 0
593 591 631 618 619 621 652 0 0 0 0 0 0 0 0 0 0 0 0 0 0 0 0 0 0 0 0 0 0 0 0 0 0 0 0 0 0 0 0 0 0 0 0 0 0 0 0 2893 2876 2908 2894 2925 2900 2875 2863 2853 2861 2896 2908 2893 2874 2893 2892 2877 2852 0 0 0 0 0 0 0 0 0 0 0 0 0 0 0 0 0 0 0 0 0 0 0 0 0 0 0 0 0 0 0 0 0 0 0 0 0 0 0 0 0 0 0 0 0 0 0 0 0 0 0 0 0 0 0
606 631 595 609 600 600 630 0 0 0 0 0 0 0 0 0 2286 0 0 0 0 0 982 986 0 0 0 0 0 0 0 0 0 0 0 0 0 0 0 0 0 0 0 0 0 0 0 2897 2868 2878 2908 2959 2879 2891 2875 2900 2885 2887 2861 2922 2899 2852 2865 2851 2898 2849 0 0 0 0 0 0 0 0 0 0 0 0 0 0 0 0 0 0 0 0 0 0 0 0 0 0 0 0 0 0 0 0 0 0 0 0 0 0 0 0 0 0 0 0 0 0 0 0 0 0 0 0 0 0
610 572 598 597 618 606 582 0 0 0 0 0 0 0 0 0 0 0 0 0 0 0 0 0 0 0 0 0 0 0 0 0 0 0 0 0 0 0 0 0 0 0 0 0 0 0 0 2922 2959 2945 2886 2954 2940 2923 2946 2964 2923 2935 2943 2919 2893 2901 2894 2919 2884 2903 0 0 0 0 0 0 0 0 0 0 0 0 0 0 0 0 0 0 0 0 0 0 0 0 0 0 0 0 0 0 0 0 0 0 0 0 0 0 0 0 0 0 0 0 0 0 0 0 0 0 0 0 0 0
633 586 603 596 599 578 0 0 0 0 0 0 0 0 0 0 0 0 0 0 0 0 0 0 0 0 0 0 0 0 0 0 0 0 0 0 0 0 0 0 0 0 0 0 0 0 0 0 0 0 0 0 0 0 0 0 0 0 0 0 0 0 3030 2897 2902 0 0 0 0 0 0 0 0 0 0 0 0 0 0 0 0 0 0 0 0 0 0 0 0 0 0 0 0 0 0 0 0 0 0 0 0 0 0 0 0 0 0 0 0 0 0 0 0 0 0 0 0 0 0 0
582 566 596 627 600 602 0 0 0 0 0 0 0 0 0 0 0 0 0 0 0 0 0 0 0 0 0 0 0 0 0 0 0 0 0 0 0 0 0 0 0 0 0 0 0 0 0 0 0 0 0 0 0 0 0 0 0 0 0 0 0 0 0 0 0 0 0 0 0 0 0 0 0 0 0 0 0 0 0 0 0 0 0 0 0 0 0 0 0 0 0 0 0 0 0 0 0 0 0 0 0 0 0 0 0 0 0 0 0 0 0 0 0 0 0 0 0 0 0 0
612 576 608 619 578 0 0 0 0 0 0 0 0 0 0 0 0 0 0 0 0 0 0 0 0 0 0 0 0 0 0 0 0 0 0 0 0 0 0 0 0 0 0 0 0 0 0 0 0 0 0 0 0 0 0 0 0 0 0 0 0 0 0 0 0 0 0 0 0 0 0 0 0 0 0 0 0 0 0 0 0 0 0 0 0 0 0 0 0 0 0 0 0 0 0 0 0 0 0 0 0 0 0 0 0 0 0 0 0 0 0 0 0 0 0 0 0 0 0 0
633 596 614 582 647 0 0 0 0 0 0 0 0 0 0 0 0 0 0 0 0 0 0 0 0 0 0 0 0 0 0 0 0 0 0 0 0 0 0 0 0 0 0 0 0 0 0 0 0 0 0 0 0 0 0 0 0 0 0 0 0 0 0 0 0 0 0 0 0 0 0 0 0 0 0 0 0 0 0 0 0 0 0 0 0 0 0 0 0 0 0 0 0 0 0 0 0 0 0 0 0 0 0 0 0 0 0 0 0 0 0 0 0 0 0 0 0 0 0 0
612 601 620 615 0 0 0 0 0 0 0 0 0 0 0 0 0 0 0 0 0 0 0 0 0 0 891 923 887 897 874 0 888 877 0 942 0 0 968 948 0 0 0 0 0 0 0 0 0 0 0 0 0 0 0 0 0 0 0 0 0 0 0 0 0 0 0 0 0 0 0 0 0 0 0 0 0 0 0 0 0 0 0 0 0 0 0 0 0 0 0 0 0 0 0 0 0 0 0 0 0 0 0 0 0 0 0 0 0 0 0 0 0 0 0 0 0 0 0 0
584 626 576 0 0 0 0 664 669 740 661 693 704 753 709 729 744 707 716 703 693 729 729 731 731 759 726 726 726 731 760 774 729 711 763 771 736 741 801 731 734 765 759 765 753 788 768 760 763 774 742 805 798 824 800 801 775 780 808 809 768 766 736 851 798 784 754 806 822 810 821 741 831 0 845 0 0 0 0 817 0 0 0 0 0 0 0 0 0 0 0 0 0 0 0 0 0 0 0 0 0 0 0 0 0 0 0 0 0 0 0 0 0 0 0 0 0 0 0 0
564 564 567 564 567 548 594 591 572 598 554 613 591 582 565 555 598 563 591 586 620 590 612 581 579 584 593 616 601 633 599 650 598 623 598 639 622 606 603 603 614 618 582 576 636 581 654 619 641 629 633 653 626 628 676 639 660 630 635 629 626 640 671 649 690 680 656 670 684 661 678 690 669 699 697 670 674 651 680 668 671 693 723 683 698 695 738 703 687 724 676 712 718 690 710 0 715 690 677 716 754 712 0 0 0 0 0 0 0 0 0 0 0 0 0 0 0 0 0 0
518 491 494 502 497 506 489 486 482 488 496 500 521 493 506 515 498 503 497 527 509 489 499 503 500 515 495 507 510 513 508 502 499 515 507 525 505 520 532 509 531 506 508 518 540 514 529 518 527 524 536 541 536 542 546 523 536 541 533 518 509 525 544 528 541 541 509 528 534 536 523 529 515 535 535 543 548 525 576 591 556 572 563 537 563 634 522 517 529 553 560 588 549 519 556 593 598 538 572 566 567 582 539 553 0 564 0 598 628 547 603 0 0 0 0 0 0 0 0 0
426 414 383 425 444 431 424 432 440 430 433 417 441 464 429 451 428 447 434 431 444 466 452 455 452 434 449 461 461 456 448 442 456 449 459 467 458 457 466 462 468 465 469 465 472 477 464 462 471 462 477 470 462 462 482 463 479 497 475 479 484 470 488 473 464 466 482 481 475 488 484 474 488 479 481 509 467 469 497 478 490 495 484 486 479 480 500 487 465 467 476 487 490 498 478 475 465 474 502 488 493 497 501 526 503 501 483 495 494 477 532 526 0 0 0 0 0 0 0 0
375 395 375 406 383 380 375 402 399 396 389 390 396 404 402 413 389 389 397 409 405 403 402 407 399 403 407 409 405 406 408 405 413 408 408 416 408 412 427 414 411 412 422 402 418 417 426 421 441 412 425 421 422 414 425 411 428 432 422 417 417 429 424 432 421 418 409 444 430 427 432 437 426 429 432 412 429 432 420 416 425 424 438 419 429 430 447 441 433 429 414 433 434 423 431 427 417 436 440 443 428 440 422 422 424 443 429 413 432 420 416 436 464 417 0 0 0 0 0 0
348 373 351 348 351 383 367 359 349 336 367 362 370 362 353 375 368 375 367 357 377 364 366 364 367 368 375 372 377 371 376 371 363 369 376 365 383 371 369 374 370 371 362 375 365 380 383 372 392 389 386 388 389 382 379 384 375 378 378 389 397 380 386 380 385 385 387 390 385 383 394 404 381 377 386 378 400 397 389 404 390 398 394 388 397 391 390 391 377 393 395 384 405 391 395 391 391 396 392 393 411 396 393 402 396 399 379 407 415 404 388 411 396 381 373 422 0 0 0 0
323 325 342 329 326 357 351 337 352 346 348 340 370 327 362 330 362 341 336 362 353 361 352 360 354 340 339 354 347 336 336 350 350 370 334 348 345 341 326 343 344 349 347 352 359 350 343 359 342 371 347 352 350 359 348 341 352 345 350 366 356 351 349 359 361 360 352 356 350 356 349 364 342 344 361 348 353 358 355 357 357 363 363 350 349 349 365 350 352 359 359 357 363 362 354 357 354 352 343 359 386 364 371 381 372 362 358 377 375 375 363 372 360 373 387 395 375 0 0 0
313 304 286 287 306 300 305 305 302 306 303 299 305 305 302 299 319 308 307 304 299 304 306 309 286 302 301 304 294 309 300 307 294 307 311 308 313 308 306 301 312 315 304 312 313 306 322 314 316 309 309 315 314 312 321 317 325 318 321 308 318 308 308 316 311 310 325 318 316 321 322 318 322 312 310 323 307 320 320 324 324 318 317 317 319 329 326 315 311 329 321 323 314 323 322 340 316 326 312 327 340 317 350 350 343 349 323 321 327 325 345 323 339 352 344 355 324 306 317 0
275 275 284 278 282 278 278 286 281 295 283 276 286 286 294 287 282 297 278 297 280 283 283 288 279 277 284 290 291 280 293 279 286 279 288 281 282 279 282 284 290 286 291 289 290 292 288 287 290 289 286 289 286 292 287 276 278 292 288 288 298 288 291 295 299 287 293 279 301 293 296 291 295 286 289 295 292 287 296 286 301 294 305 297 288 296 298 295 301 303 302 296 301 305 293 312 279 294 295 284 303 308 274 308 299 316 293 298 302 322 294 302 305 296 288 280 332 330 332 343
257 251 262 263 248 255 256 250 252 256 246 251 259 255 263 253 258 267 262 252 260 263 260 252 252 255 258 260 263 257 256 262 260 266 264 265 257 268 269 267 262 265 263 264 265 264 269 265 268 266 265 270 264 264 277 260 270 262 264 266 264 261 267 265 273 269 264 262 268 272 264 266 269 266 269 263 273 267 269 262 267 270 266 269 275 268 275 274 267 275 270 265 278 270 271 266 267 273 272 281 275 264 277 286 271 271 276 275 277 279 261 285 274 275 280 286 279 281 304 275
231 234 238 232 239 237 245 234 234 231 234 230 246 249 242 241 234 243 247 238 237 240 236 249 237 234 236 241 240 249 247 249 248 247 249 248 239 246 253 251 254 243 243 245 243 252 246 254 243 251 252 244 248 248 257 246 247 247 248 254 246 256 251 252 247 259 251 248 246 250 248 244 249 256 246 254 253 252 250 250 254 241 251 248 259 256 260 263 257 253 250 259 257 251 249 249 250 249 249 258 249 256 252 250 260 247 270 253 253 249 259 250 258 250 235 251 256 268 271 235
216 224 219 216 224 222 225 216 219 216 219 218 228 225 228 227 226 226 231 222 226 226 229 232 226 228 225 229 226 228 224 231 234 235 235 241 233 230 228 225 227 231 231 225 234 237 234 236 235 231 230 227 232 228 232 230 230 228 237 236 240 232 237 233 239 237 236 238 236 231 235 234 230 232 233 231 237 233 224 222 238 233 239 230 233 223 232 232 232 228 229 230 239 229 237 236 234 233 243 237 241 240 243 237 236 235 241 230 243 240 231 231 240 227 225 231 233 226 221 218
211 208 222 212 217 210 212 207 209 213 211 216 210 217 215 208 210 210 209 219 213 213 218 208 209 215 197 215 216 216 215 215 196 217 214 199 215 198 219 204 199 224 217 218 222 217 225 224 222 225 215 202 217 206 208 222 224 202 223 208 219 220 223 237 227 203 224 220 221 219 224 222 220 218 219 216 225 219 221 223 227 225 229 230 222 224 224 224 223 219 223 217 225 224 219 221 226 227 231 222 216 220 220 232 228 219 227 223 223 231 221 214 229 226 215 206 210 217 231 241
198 197 198 196 208 201 202 200 189 184 199 205 204 208 202 203 194 189 195 212 193 188 195 207 187 188 187 190 183 210 190 189 191 195 197 195 194 189 197 190 192 197 190 194 198 196 196 194 193 201 197 193 196 195 201 198 197 201 191 199 196 198 199 195 195 200 193 193 202 201 197 201 198 194 194 192 197 194 198 199 193 194 213 213 200 203 195 192 193 221 212 195 209 208 209 182 190 193 213 197 206 219 207 195 217 205 211 211 204 207 208 209 205 205 211 202 213 175 176 169
176 176 198 191 180 192 180 183 180 181 182 178 180 187 181 184 190 186 180 190 180 188 182 186 192 187 191 193 186 185 194 192 194 188 186 195 192 191 196 194 199 195 194 198 188 193 193 201 197 193 197 200 196 195 197 198 199 191 200 203 195 199 199 202 192 197 200 195 199 198 197 195 200 200 197 199 200 196 188 195 193 197 194 192 186 191 189 191 189 185 186 183 189 194 181 191 187 189 191 192 183 204 186 203 186 193 181 191 203 215 199 202 178 195 210 187 203 173 195 201
179 170 180 180 182 174 181 182 174 181 184 183 180 184 182 183 183 183 185 190 187 186 185 189 179 188 184 189 189 188 186 183 185 186 194 182 187 182 192 188 188 189 189 186 190 188 185 185 188 188 186 189 186 184 193 191 195 188 187 186 186 188 189 194 191 192 191 194 192 188 194 188 189 191 189 188 192 188 189 186 193 192 184 195 185 187 185 189 187 189 186 194 186 179 182 191 189 189 187 180 182 180 184 187 180 181 186 178 180 179 180 181 198 171 177 176 199 179 177 173
173 167 159 170 169 167 173 173 167 167 173 169 169 171 176 177 174 179 179 178 175 176 172 172 179 172 180 175 176 181 171 175 179 173 179 174 180 174 180 176 175 182 179 178 183 179 176 181 181 186 179 179 180 184 183 180 179 180 177 176 176 177 185 181 179 182 180 184 180 183 180 181 179 183 183 182 184 183 182 184 181 181 180 177 179 178 171 181 182 182 174 182 176 178 175 174 179 177 183 178 179 184 181 184 177 182 179 173 170 179 184 174 179 179 177 172 170 169 175 173
163 163 162 161 166 168 162 159 168 165 168 167 167 166 170 177 169 168 173 169 175 171 172 165 169 164 170 169 174 173 175 172 170 166 167 168 174 166 170 174 165 171 172 167 179 171 167 171 171 173 170 174 171 174 171 172 172 177 169 173 174 174 177 170 177 176 171 172 172 174 176 174 172 168 175 176 173 175 174 175 169 174 170 167 171 178 173 170 171 167 172 176 171 169 165 171 174 173 170 172 169 171 174 178 178 174 175 172 175 163 176 177 177 174 175 177 179 176 168 175
157 158 164 164 164 164 161 155 151 151 159 159 160 161 165 165 161 162 164 163 162 165 168 163 161 164 163 160 164 163 165 165 161 166 158 161 163 159 163 164 160 170 163 165 164 169 162 159 164 166 161 168 170 167 168 167 165 165 161 170 163 166 162 165 166 162 163 166 168 160 165 160 166 169 167 169 172 165 170 159 165 159 165 163 165 164 167 162 166 159 167 164 162 161 160 165 161 163 167 173 171 163 161 164 159 157 166 161 159 159 161 161 164 167 165 155 176 152 150 163
143 148 152 145 151 150 151 151 155 155 151 152 151 153 154 150 150 159 149 156 151 156 159 159 155 152 147 159 154 158 155 158 158 154 154 157 155 154 150 162 156 155 161 158 156 156 158 150 156 159 158 158 160 158 156 152 158 157 160 163 161 159 161 161 162 160 160 159 156 153 158 158 158 158 162 163 170 161 163 153 160 156 161 153 160 156 158 160 158 156 156 160 158 156 155 160 161 154 153 160 154 156 154 155 158 152 152 150 152 158 151 149 155 161 152 147 153 149 145 130
139 141 146 143 148 147 144 148 152 145 153 143 143 146 147 140 151 149 145 149 151 148 151 150 150 149 146 150 151 148 149 151 145 147 150 147 150 156 147 146 154 152 155 151 156 148 151 151 145 154 151 151 152 150 157 153 150 158 155 158 152 153 154 155 153 150 150 151 151 156 154 154 149 154 151 154 159 159 151 156 156 153 151 146 149 150 155 154 155 157 150 151 156 150 157 146 148 152 153 155 155 159 160 155 152 148 145 149 148 148 146 154 155 142 162 153 153 155 141 147
139 137 139 138 141 138 137 144 142 144 143 143 142 141 140 142 145 138 143 149 142 145 140 149 147 144 151 148 144 139 140 143 148 144 140 146 139 148 144 149 147 145 150 148 144 148 142 142 145 149 144 147 144 144 142 148 143 150 148 147 150 147 130 144 151 150 150 145 148 149 146 148 151 150 146 147 149 151 153 150 140 147 143 129 141 144 150 144 150 146 148 149 147 147 149 149 142 144 150 152 150 142 148 143 141 142 143 144 142 145 142 137 142 145 149 145 139 136 149 144
132 133 131 133 133 143 139 139 142 140 137 0 134 137 137 137 141 140 140 142 146 143 144 144 140 142 148 139 140 138 140 138 142 139 142 132 132 128 139 142 133 143 141 141 140 142 141 132 138 126 141 140 134 143 143 144 143 145 143 133 133 143 141 151 136 143 142 146 146 140 128 132 135 133 146 143 152 144 142 147 147 140 129 128 143 141 141 141 143 143 130 143 144 143 141 143 141 141 144 145 143 138 139 143 147 140 140 144 139 141 134 131 132 128 131 132 142 134 141 128
129 136 127 134 135 139 143 135 136 140 136 134 142 140 139 134 129 140 138 137 140 144 142 144 140 139 140 130 138 125 136 138 138 129 128 128 127 133 127 126 146 140 128 141 0 142 130 129 132 127 127 131 141 134 0 144 0 131 130 127 129 129 136 133 129 128 144 128 145 141 143 124 128 130 129 128 143 140 142 131 137 130 129 126 130 139 128 129 132 142 122 139 140 139 140 128 138 142 141 146 137 133 134 141 136 133 140 136 145 136 139 133 143 144 136 139 135 149 130 146
117 106 124 109 128 130 136 131 115 111 121 119 115 134 120 122 122 125 123 121 122 125 130 126 136 139 135 139 0 130 125 122 120 125 121 122 125 126 126 122 127 126 126 128 0 0 128 126 128 122 124 119 128 130 126 129 133 130 127 124 128 123 128 126 126 127 128 129 128 127 128 123 126 124 117 121 122 139 126 126 134 124 127 128 118 125 123 124 124 128 128 128 135 126 122 121 125 139 127 130 132 117 119 126 113 117 115 129 124 120 128 133 131 137 116 143 127 138 112 90
111 118 109 107 109 127 123 117 117 120 120 119 121 123 120 118 111 125 123 120 118 122 126 122 122 125 131 130 126 125 128 0 128 123 116 115 123 121 0 122 127 125 0 0 0 0 122 128 122 126 126 130 128 126 126 124 124 124 124 119 127 123 119 123 123 121 129 120 121 122 123 118 127 120 123 117 117 129 124 127 119 115 121 124 117 119 121 113 124 120 122 123 124 120 118 123 127 127 121 118 121 117 124 117 109 120 115 116 123 130 117 130 134 129 124 139 127 114 132 129
108 98 113 117 111 115 119 117 113 109 118 117 117 113 113 111 117 115 113 122 116 110 113 116 113 116 122 118 116 123 125 0 117 121 115 112 114 0 114 116 121 0 0 122 124 0 124 120 118 114 119 119 121 120 122 123 122 120 118 121 123 120 118 117 121 119 120 125 119 116 121 118 113 111 113 116 116 118 119 124 115 123 119 120 120 113 117 114 119 124 118 116 117 117 109 121 128 119 113 118 119 118 116 111 113 114 121 121 112 121 113 110 129 131 119 115 130 111 110 150
98 105 109 101 99 106 116 110 104 113 119 109 111 109 121 119 113 113 107 105 113 114 113 104 116 111 114 115 117 114 119 116 115 114 116 112 107 114 0 117 118 113 111 110 108 117 118 0 115 0 114 111 119 114 0 0 107 110 117 115 127 117 106 111 106 113 111 110 117 107 110 104 110 102 107 108 109 111 108 116 117 108 108 112 114 105 108 106 109 115 112 107 97 117 110 115 112 114 104 107 111 114 115 106 111 111 105 111 115 121 108 118 96 106 98 128 97 99 97 133
103 97 110 108 107 102 113 105 108 108 104 114 109 111 112 117 112 109 112 106 110 99 104 106 114 111 107 111 107 117 111 106 110 111 115 113 114 0 107 108 110 108 119 103 104 111 107 108 116 0 108 112 109 114 112 115 104 106 116 107 108 112 113 0 114 106 107 111 113 112 104 101 108 114 104 105 103 105 102 110 111 98 110 110 100 105 101 109 102 104 106 109 100 103 100 109 106 104 106 105 104 109 107 114 108 101 107 103 91 116 107 94 111 108 118 109 115 111 130 88
99 90 106 110 101 92 99 101 98 95 104 102 104 97 101 107 97 105 102 97 102 103 95 102 107 105 108 98 101 107 109 109 105 101 106 102 105 108 107 107 104 105 102 95 101 101 107 102 108 104 107 108 110 105 104 107 100 101 108 101 105 109 105 0 109 105 0 109 105 104 105 105 100 106 105 104 96 102 0 101 0 101 99 100 96 103 100 100 96 101 102 107 94 101 95 91 96 100 96 99 107 105 101 101 101 100 90 96 97 94 85 108 98 110 95 94 102 105 86 98
93 91 85 92 95 96 95 91 101 95 99 100 96 105 103 99 96 101 106 95 98 92 94 94 92 93 107 102 102 102 109 100 105 103 103 103 98 103 97 96 101 99 98 96 103 99 105 102 103 105 107 98 102 103 94 99 102 105 102 102 107 100 109 101 115 104 106 105 105 101 106 105 100 98 97 94 104 100 97 97 0 105 99 93 97 97 99 109 96 94 104 99 98 99 93 109 91 99 95 102 101 90 97 86 90 102 96 97 103 97 85 91 106 83 98 120 105 87 90 107
89 97 92 98 93 94 94 91 86 92 93 97 94 87 94 88 94 90 106 104 102 96 94 97 96 92 100 96 95 97 99 98 101 99 93 105 95 91 95 102 95 94 91 93 98 97 101 100 89 100 103 91 87 95 97 102 93 96 101 96 94 100 98 0 100 102 94 92 97 98 98 97 99 103 87 102 100 100 100 107 92 97 90 108 99 97 92 91 91 92 96 94 104 83 91 93 92 88 104 92 92 99 99 96 102 98 97 79 89 91 92 92 94 100 105 100 109 98 96 78
85 86 78 82 90 87 89 90 86 91 85 90 94 91 88 92 86 91 95 94 94 94 93 90 94 88 98 89 90 99 90 91 98 93 90 96 92 91 92 91 88 99 98 89 91 98 95 98 98 97 94 94 98 98 97 90 98 93 97 95 96 93 88 95 95 91 93 89 95 99 100 96 90 92 85 97 93 94 94 88 88 99 96 91 86 88 86 93 93 96 95 96 93 93 94 95 87 93 91 84 86 83 86 83 87 86 90 81 90 88 87 81 85 91 82 94 81 79 83 98
87 78 85 82 87 87 88 98 88 88 91 88 88 90 88 87 93 94 96 87 86 95 89 85 91 91 95 92 93 86 93 87 98 88 96 95 89 96 98 95 95 91 98 93 96 97 95 96 90 91 98 97 97 97 97 96 97 89 91 97 89 99 97 99 90 98 86 90 88 93 100 99 98 96 94 89 95 97 84 98 102 91 97 91 95 91 90 93 93 88 98 95 102 85 90 91 86 85 90 96 88 88 84 97 91 94 89 85 88 85 85 82 100 88 90 89 96 91 0 0
81 88 87 83 94 90 87 89 86 0 83 82 89 89 92 90 92 91 88 93 90 93 90 96 92 89 88 86 89 96 88 93 90 96 92 92 95 94 95 96 96 92 95 89 95 90 89 96 87 99 89 97 93 95 93 96 93 96 92 92 94 86 97 90 90 99 95 94 98 92 98 95 89 85 91 88 98 90 90 93 93 94 89 94 95 93 95 92 98 90 87 93 101 89 94 86 91 92 87 89 91 91 89 91 84 81 98 89 89 81 87 88 81 90 80 85 96 82 85 0
83 84 78 86 89 86 100 90 86 79 85 81 90 91 88 90 83 91 83 85 89 89 91 91 86 88 92 84 90 88 90 87 91 91 89 96 90 89 91 90 90 84 90 93 98 89 98 94 93 90 97 93 89 90 98 98 93 98 89 87 92 97 95 88 91 97 93 90 92 97 86 94 92 95 93 86 90 95 94 87 88 90 92 89 86 89 90 85 94 84 92 92 80 90 84 86 89 86 86 90 82 85 91 76 85 87 90 82 80 91 80 100 85 88 82 81 75 74 0 0
82 77 84 81 89 85 89 97 83 90 84 78 89 85 91 86 83 90 90 90 90 92 89 81 80 83 88 88 93 91 92 88 87 87 92 83 90 92 89 93 92 87 90 90 95 91 95 91 93 90 95 88 92 90 85 89 89 98 81 99 95 89 88 96 87 97 90 84 92 95 91 87 90 90 92 88 90 93 93 85 91 93 87 87 91 94 94 89 91 94 88 92 83 86 86 84 90 83 98 88 84 88 81 80 77 92 82 88 87 84 80 89 85 83 99 83 0 0 0 0
82 67 68 72 77 80 82 84 83 75 83 79 78 91 87 80 81 83 78 74 85 75 82 77 73 72 81 84 83 78 91 72 79 83 87 77 83 83 87 79 85 82 79 72 78 86 82 85 88 77 86 77 78 84 80 94 87 86 90 68 89 79 82 83 83 84 77 84 80 79 81 84 84 81 82 82 82 86 89 85 75 83 76 81 78 83 83 74 83 82 92 71 83 75 82 78 71 82 66 87 70 73 74 69 74 76 76 83 77 84 90 76 89 69 116 86 0 0 0 0
71 74 78 81 70 86 86 86 84 77 78 88 71 78 75 88 83 85 77 77 78 86 76 76 86 82 77 72 85 78 89 78 84 83 83 76 78 78 81 81 91 86 88 82 87 86 81 75 84 85 85 77 77 74 87 84 84 78 82 74 85 74 80 84 89 76 83 77 88 78 83 85 88 80 81 85 78 84 90 87 83 78 83 80 72 83 82 76 82 86 69 84 70 75 84 76 87 79 67 75 82 72 75 76 71 80 72 85 87 86 82 92 75 94 75 0 0 0 0 0
