0 0 0 0 0 0 0 0 0 0 0 0 0 0 0 0 0 0 0 0 0 0 0 0 0 0 0 0 0 0 0 0 0 0 0 0 0 0 0 0 0 0 0 0 0 0 0 0 0 0 0 0 0 0 0 0 0 0 0 0 0 0 0 0 0 0 0 0 0 0 0 0 0 0 0 0 0 0 0 0 0 0 0 0 0 0 0 0 0 0 0 0 0 0 0 0 0 0 0 0 0 0 0 0 0 0 0 0 0 0 0 0 0 0 0 0 0 0 0 0
0 0 0 0 0 0 0 0 0 0 0 0 0 0 0 0 0 0 0 0 0 0 0 0 0 0 0 0 0 0 0 0 0 0 0 0 0 0 0 0 0 0 0 0 0 0 0 0 0 0 0 0 0 0 0 0 0 0 0 0 0 0 0 0 0 0 0 0 0 0 0 0 0 0 0 0 0 0 0 0 0 0 0 0 0 0 0 0 0 0 0 0 0 0 0 0 0 0 0 0 0 0 0 0 0 0 0 0 0 0 0 0 0 0 0 0 0 0 0 0
0 0 0 0 0 0 0 0 0 0 0 0 0 0 0 0 1275 1288 0 0 0 0 0 0 0 0 0 0 0 0 0 0 0 0 0 0 0 0 0 0 0 0 0 0 0 0 0 0 0 0 0 0 0 0 0 0 0 0 0 0 0 0 0 0 0 0 0 0 0 0 0 0 0 0 0 0 0 0 0 0 0 0 0 0 0 0 0 0 0 0 0 0 0 0 0 0 0 0 0 0 0 0 0 0 0 0 0 0 0 0 0 0 0 0 0 0 0 0 0 0
0 0 0 0 0 0 0 0 0 0 0 1123 1115 1122 0 0 1253 1307 0 0 0 0 1286 0 0 0 0 0 0 0 0 0 0 0 0 0 0 0 0 0 0 0 0 0 0 0 0 0 0 0 0 0 0 0 0 0 0 0 0 0 0 0 0 0 0 0 0 0 0 0 0 0 0 0 0 0 0 0 0 0 0 0 0 0 0 0 0 0 0 0 0 0 0 0 0 0 0 0 0 0 0 0 0 0 0 0 0 0 0 0 0 0 0 0 0 0 0 0 0 0
0 0 0 0 0 0 0 0 1088 1114 1129 1134 1174 1140 1151 1156 1245 1299 0 1251 1271 1262 1276 0 0 0 0 0 0 0 0 0 0 0 0 0 0 0 0 0 0 0 0 0 0 0 0 0 0 0 0 0 0 0 0 0 0 0 0 0 0 0 0 0 0 0 0 0 0 0 0 0 0 0 0 0 0 0 0 0 0 0 0 0 0 0 0 0 0 0 0 0 0 0 0 0 0 0 0 0 0 0 0 0 0 0 0 0 0 0 0 0 0 0 0 0 0 0 0 0
0 0 0 0 0 0 1108 1104 1127 1131 0 0 1192 1182 1184 1221 1274 1277 1269 1314 1261 1269 1264 1274 0 0 0 0 0 0 0 0 0 0 0 0 0 0 0 0 0 0 0 0 0 0 0 0 0 0 0 0 0 0 0 0 0 0 0 0 0 0 0 0 0 0 0 0 0 0 0 0 0 0 0 0 0 0 0 0 0 0 0 0 0 0 0 0 0 0 0 0 0 0 0 0 0 0 0 0 0 0 0 0 0 0 0 0 0 0 0 0 0 0 0 0 0 0 0 0
0 0 0 0 0 0 0 0 0 0 0 0 1206 1212 1237 1249 1261 1273 1286 1295 1243 1292 1262 1280 1257 0 0 0 0 0 0 1388 0 0 0 0 0 0 0 0 0 0 0 0 0 0 0 0 0 0 0 0 0 0 0 0 0 0 0 0 0 0 0 0 0 0 0 0 0 0 0 0 0 0 0 0 0 0 0 0 0 0 0 0 0 0 0 0 0 0 0 0 0 0 0 0 0 0 0 0 0 0 0 0 0 0 0 0 0 0 0 0 0 0 0 0 0 0 0 0
0 0 0 0 0 0 0 0 0 0 0 0 1267 1287 1280 1304 1293 1295 1291 1282 1272 1249 1285 1291 0 1335 1357 1326 1397 0 0 1379 0 0 0 0 0 0 0 0 0 0 0 0 0 0 0 0 0 0 0 0 0 0 0 0 0 0 0 0 0 0 0 0 0 0 0 0 0 0 0 0 0 0 0 0 0 0 0 0 0 0 0 0 0 0 0 0 0 0 0 0 0 0 0 0 0 0 0 0 0 0 0 0 0 0 0 0 0 0 0 0 0 0 0 0 0 0 0 0
0 0 0 0 0 0 0 0 0 0 0 0 1248 1292 1254 1286 1299 1256 1251 1270 1252 1274 1281 1283 0 0 1324 1329 1326 1351 1369 1394 0 0 0 0 0 0 0 0 0 0 0 0 0 0 0 0 0 0 0 0 0 0 0 0 0 0 0 0 0 0 0 0 0 0 0 0 0 0 0 0 0 0 0 0 0 0 0 0 0 0 0 0 0 0 0 0 0 0 0 0 0 0 0 0 0 0 0 0 0 0 0 0 0 0 0 0 0 0 0 0 0 0 0 0 0 0 0 0
0 0 0 0 0 0 0 0 0 0 0 0 0 0 1295 1303 1269 1267 1253 1301 1259 1270 1264 1280 1306 0 0 1348 1323 1377 1377 1426 1453 0 0 0 0 0 0 0 0 0 0 0 0 0 0 0 0 0 0 0 0 0 0 0 0 0 0 0 0 0 0 0 0 0 0 0 0 0 0 0 0 0 0 0 0 0 0 0 0 0 0 0 0 0 0 0 0 0 0 0 0 0 0 0 0 0 0 0 0 0 0 0 0 0 0 0 0 0 0 0 0 0 0 0 0 0 0 0
0 0 0 0 0 0 0 0 0 0 0 0 0 0 0 0 0 0 0 0 0 1289 1264 1244 1286 0 0 1333 1356 1368 1383 1422 1434 0 0 0 0 0 0 0 0 0 0 0 0 0 0 0 0 0 0 0 0 0 0 0 0 0 0 0 0 0 0 0 0 0 0 0 0 0 0 0 0 0 0 0 0 0 0 0 0 0 0 0 0 0 0 0 0 0 0 0 0 0 0 0 0 0 0 0 0 0 0 0 0 0 0 0 0 0 0 0 0 0 0 0 0 0 0 0
0 0 0 0 0 0 0 0 0 0 0 0 0 0 0 0 0 0 0 0 0 0 0 1363 1321 0 0 1350 1337 1362 1336 1396 1427 0 0 0 0 0 0 0 0 0 0 0 0 0 0 0 0 0 0 0 0 0 0 0 0 0 0 0 0 0 0 0 0 0 0 0 0 0 0 0 0 0 0 0 0 0 0 0 0 0 0 0 0 0 0 0 0 0 0 0 0 0 0 0 0 0 0 0 0 0 0 0 0 0 0 0 0 0 0 0 0 0 0 0 0 0 0 0
0 0 0 0 0 0 0 0 0 0 0 0 0 0 0 0 0 0 0 0 0 0 0 1363 1386 1307 1285 1321 1344 1310 1347 1396 1392 0 0 0 0 0 0 0 0 0 0 0 0 0 0 0 0 0 0 0 0 0 0 0 0 0 0 0 0 0 0 0 0 0 0 0 0 0 0 0 0 0 0 0 0 0 0 0 0 0 0 0 0 0 0 0 0 0 0 0 0 0 0 0 0 0 0 0 0 0 0 0 0 0 0 0 0 0 0 0 0 0 0 0 0 0 0 0
0 0 0 0 0 0 0 0 0 0 0 0 0 0 0 0 0 0 0 0 0 0 0 1385 1375 1376 1322 1330 1338 1329 1377 1421 1429 0 0 0 0 0 0 0 0 0 0 0 0 0 0 0 0 0 0 0 0 0 0 0 0 0 0 0 0 0 0 0 0 0 0 0 0 0 0 0 0 0 0 0 0 0 0 0 0 0 0 0 0 0 0 0 0 0 0 0 0 0 0 0 0 0 0 0 0 0 0 0 0 0 0 0 0 0 0 0 0 0 0 0 0 0 0 0
0 0 0 0 0 0 0 0 0 0 0 0 0 0 0 0 0 0 0 0 0 0 0 1386 1358 1374 1338 1355 1343 1349 1354 1384 1423 0 0 0 0 0 0 0 0 0 0 0 0 0 0 0 0 0 0 0 0 0 0 0 0 0 0 0 0 0 0 0 0 0 0 0 0 0 0 0 0 0 0 0 0 0 0 0 0 0 0 0 0 0 0 0 0 0 0 0 0 0 0 0 0 0 0 0 0 0 0 0 0 0 0 0 0 0 0 0 0 0 0 0 0 0 0 0
0 0 0 0 0 0 0 0 0 0 0 0 0 0 0 0 0 0 0 0 0 0 0 1371 1369 1363 1376 1371 1361 1338 1357 1412 1442 0 0 0 0 0 0 0 0 0 0 0 0 0 0 0 0 0 0 0 0 0 0 0 0 0 0 0 0 0 0 0 0 0 0 0 0 0 0 0 0 0 0 0 0 0 0 0 0 0 0 0 0 0 0 0 0 0 0 0 0 0 0 0 0 0 0 0 0 0 0 0 0 0 0 0 0 0 0 0 0 0 0 0 0 0 0 0
1243 1264 1255 1276 1254 1289 1325 0 0 0 0 0 0 0 0 0 0 0 0 0 0 0 0 0 1365 1373 1370 1388 1351 1344 1352 1402 1400 0 0 0 0 0 0 0 0 0 0 0 0 0 0 0 0 0 0 0 0 0 0 0 0 0 0 0 0 0 0 0 0 0 0 0 0 0 0 0 0 0 0 0 0 0 0 0 0 0 0 0 0 0 0 0 0 0 0 0 0 0 0 0 0 0 0 0 0 0 0 0 0 0 0 0 0 0 0 0 0 0 0 0 0 0 0 0
1273 1247 1271 1283 1297 1297 1321 1327 1349 1338 1387 0 0 0 0 0 0 0 0 0 0 0 0 1378 1375 1371 1382 1372 1372 1382 1375 1440 1429 0 0 0 0 0 0 0 0 0 0 0 0 0 0 0 0 0 0 0 0 0 0 0 0 0 0 0 0 0 0 0 0 0 0 0 0 0 0 0 0 0 0 0 0 0 0 0 0 0 0 0 0 0 0 0 0 0 0 0 0 0 0 0 0 0 0 0 0 0 0 0 0 0 0 0 0 0 0 0 0 0 0 0 0 0 0 0
1236 1269 1272 1279 1292 1285 1306 1323 1315 1318 1355 1359 1356 1362 1373 1448 0 0 0 0 0 0 0 0 0 1390 0 0 1387 0 0 1426 1439 0 0 0 0 0 0 0 0 0 0 0 0 0 0 0 0 0 0 0 0 0 0 0 0 0 0 0 0 0 0 0 0 0 0 0 0 0 0 0 0 0 0 0 0 0 0 0 0 0 0 0 0 0 0 0 0 0 0 0 0 0 0 0 0 0 0 0 0 0 0 0 0 0 0 0 0 0 0 0 0 0 0 0 0 0 0 0
0 0 0 0 1277 1307 1307 1318 1314 1344 1340 1347 1360 1366 1394 1385 1431 1453 1471 1453 0 0 0 0 0 0 0 0 0 0 0 1437 1426 1449 0 0 0 0 0 0 0 0 0 0 0 0 0 0 0 0 0 0 0 0 0 0 0 0 0 0 0 0 0 0 0 0 0 0 0 0 0 0 0 0 0 0 0 0 0 0 0 0 0 0 0 0 0 0 0 0 0 0 0 0 0 0 0 0 0 0 0 0 0 0 0 0 0 0 0 0 0 0 0 0 0 0 0 0 0 0
0 0 0 0 0 0 0 0 0 1332 1363 1369 1352 1345 1385 1410 1406 1437 1434 1429 1474 1467 0 0 0 0 0 0 0 0 0 1459 1463 1434 0 0 0 0 0 0 0 0 0 0 0 0 0 0 0 0 0 0 0 0 0 0 0 0 0 0 0 0 0 0 0 0 0 0 0 0 0 0 0 0 0 0 0 0 0 0 0 0 0 0 0 0 0 0 0 0 0 0 0 0 0 0 0 0 0 0 0 0 0 0 0 0 0 0 0 0 0 0 0 0 0 0 0 0 0 0
0 0 0 0 0 0 0 0 0 0 0 0 0 0 0 1379 1386 1404 1446 1438 1465 1486 0 0 0 0 0 0 0 0 0 0 1482 0 0 0 0 0 0 0 0 0 0 0 0 0 0 0 0 0 0 0 0 0 0 0 0 0 0 0 0 0 0 0 0 0 0 0 0 0 0 0 0 0 0 0 0 0 0 0 0 0 0 0 0 0 0 0 0 0 0 0 0 0 0 0 0 0 0 0 0 0 0 0 0 0 0 1695 1709 1619 0 0 0 0 0 0 0 0 0 0
0 0 0 0 0 0 0 0 0 0 0 0 0 0 0 0 0 0 0 0 0 1458 0 0 0 0 0 0 0 0 0 0 0 0 0 0 0 0 0 0 0 0 0 0 0 0 0 0 0 0 0 0 0 0 0 0 0 0 0 0 0 0 0 0 0 0 0 0 0 0 0 0 0 0 0 0 0 0 0 0 0 0 0 0 0 0 0 0 0 0 0 0 0 0 0 0 0 0 0 0 0 0 0 0 0 1748 1686 0 0 0 0 0 0 0 0 0 0 0 0 0
0 0 0 0 0 0 0 0 0 0 0 0 0 0 0 0 0 0 0 0 0 0 0 0 0 0 0 0 0 0 0 0 0 0 0 0 0 0 0 0 0 0 0 0 0 0 0 0 0 0 0 0 0 0 0 0 0 0 0 0 0 0 0 0 0 0 0 0 0 0 0 0 0 0 0 0 0 0 0 0 0 0 0 0 0 0 0 0 0 0 0 0 0 0 0 0 0 0 0 0 0 0 0 0 0 0 1599 1599 1586 1589 1534 1553 1522 1531 1532 0 0 0 0 0
0 0 0 0 0 0 0 0 0 0 0 0 0 0 0 0 0 0 0 0 0 0 0 0 0 0 0 0 0 0 0 0 0 0 0 0 0 0 0 0 0 0 0 0 0 0 0 0 0 0 0 0 0 0 0 0 0 0 0 0 0 0 0 0 0 0 0 0 0 0 0 0 0 0 0 0 0 0 0 0 0 0 0 0 0 0 0 0 0 0 0 0 0 0 0 0 0 0 0 0 1664 1669 1659 1617 1597 1604 1657 1612 1574 1565 1575 1570 1550 1540 1556 0 0 0 0 0
0 0 0 0 0 0 0 0 0 0 0 0 0 0 0 0 0 0 0 0 0 0 0 0 0 0 0 0 0 0 0 0 0 0 0 0 0 0 0 0 0 0 0 0 0 0 0 0 0 0 0 0 0 0 0 0 0 0 0 0 0 0 0 0 0 0 0 0 0 0 0 0 0 0 0 0 0 0 0 0 0 0 0 0 0 0 0 0 0 0 0 0 0 0 0 0 1753 1682 1683 1749 1684 1671 1698 1618 1622 1620 1601 1575 1604 1642 0 0 0 0 0 0 0 0 0 0
567 586 0 0 0 0 0 0 0 0 0 0 0 0 0 0 0 0 0 0 0 0 0 0 0 1852 1879 0 0 0 0 0 0 0 0 0 0 0 0 0 0 0 0 0 0 0 0 2950 2923 2958 2952 2916 2927 2914 2885 2903 2891 2910 2896 2880 2977 2912 2895 2847 2902 2854 0 0 0 0 0 0 0 0 0 0 0 0 0 0 0 0 0 0 0 0 0 0 0 0 1842 1837 1801 1820 1794 1765 1732 1744 1703 1696 1710 1662 1687 1655 0 0 0 0 0 0 0 0 0 0 0 0 0 0 0 0
567 587 577 576 611 651 0 0 0 0 0 0 0 0 0 0 0 0 0 0 0 0 0 0 0 0 0 1897 0 0 0 0 0 0 0 0 0 0 0 0 0 0 0 0 0 0 0 2915 2981 2940 2955 2924 2926 2938 2942 2933 2881 2927 2923 2954 2963 2921 2892 2900 2880 2917 0 0 0 0 0 0 0 0 0 0 0 0 0 0 0 0 0 0 0 0 0 0 0 0 1800 1813 1785 1775 1802 1738 1720 0 0 0 0 0 0 0 0 0 0 0 0 0 0 0 0 0 0 0 0 0 0 0
572 589 581 597 617 630 625 645 640 0 0 0 0 0 0 0 0 0 0 0 0 0 0 0 0 0 0 0 0 0 0 0 0 0 0 0 0 0 0 0 0 0 0 0 0 0 0 2962 2919 2941 2910 2941 2907 2907 2878 2908 2891 2849 2875 2851 2860 2923 2919 2911 2911 0 0 0 0 0 0 0 0 0 0 0 0 0 0 0 0 0 0 0 0 0 0 0 0 0 0 0 0 0 0 0 0 0 0 0 0 0 0 0 0 0 0 0 0 0 0 0 0 0 0 0 0 0 0 0
597 587 592 601 642 620 651 633 669 659 689 678 0 0 0 0 0 0 0 0 0 0 0 0 0 0 0 0 0 0 0 0 0 0 0 0 0 0 0 0 0 0 0 0 0 0 0 2903 2903 2888 2904 2870 2908 2916 2895 2877 2974 2909 2912 2849 2846 2908 2887 2852 2864 2925 0 0 0 0 0 0 0 0 0 0 0 0 0 0 0 0 0 0 0 0 0 0 0 0 0 0 0 0 0 0 0 0 0 0 0 0 0 0 0 0 0 0 0 0 0 0 0 0 0 0 0 0 0 0
594 574 580 583 609 622 617 655 663 663 688 686 713 701 732 0 0 0 0 0 0 0 0 0 0 0 0 0 0 0 0 0 0 0 0 0 0 0 0 0 0 0 0 0 0 0 0 2948 2963 2947 2937 2918 2922 2961 2954 2919 2901 2919 2917 2920 2922 2884 2869 2907 2910 0 0 0 0 0 0 0 0 0 0 0 0 0 0 0 0 0 0 0 0 0 0 0 0 0 0 0 0 0 0 0 0 0 0 0 0 0 0 0 0 0 0 0 0 0 0 0 0 0 0 0 0 0 0 0
759 752 782 752 691 656 654 676 668 663 698 688 725 727 745 755 784 803 0 0 0 0 0 0 0 0 0 0 0 0 0 0 0 0 0 0 0 0 0 0 0 0 0 0 0 0 0 2848 2967 2911 2924 2886 2928 2880 2879 2875 2897 2854 2872 2851 2879 2890 2853 2875 2882 0 0 0 0 0 0 0 0 0 0 0 0 0 0 0 0 0 0 0 0 0 0 0 0 0 0 0 0 0 0 0 0 0 0 0 0 0 0 0 0 0 0 0 0 0 0 0 0 0 0 0 0 0 0 0
788 797 790 827 829 828 829 876 811 760 749 730 735 713 740 729 739 781 795 808 852 0 0 0 0 0 0 0 0 0 0 0 0 0 0 0 0 0 0 0 0 0 0 0 0 0 0 2903 2945 2901 2952 2897 2875 2913 2940 2861 2901 2887 2838 2857 2909 2901 2849 2867 2924 2885 0 0 0 0 0 0 0 0 0 0 0 0 0 0 0 0 0 0 0 0 0 0 0 0 0 0 0 0 0 0 0 0 0 0 0 0 0 0 0 0 0 0 0 0 0 0 0 0 0 0 0 0 0 0
752 786 819 825 823 861 869 878 873 917 906 921 930 901 829 795 769 762 802 837 809 848 874 901 0 0 0 0 0 0 0 0 0 0 0 0 0 0 0 0 0 0 0 0 0 0 0 2966 2898 2955 2907 2922 2881 2868 2955 2916 2960 2933 2949 2926 2930 2916 2928 2939 2842 2910 0 0 0 0 0 0 0 0 0 0 0 0 0 0 0 0 0 0 0 0 0 0 0 0 0 0 0 0 0 0 0 0 0 0 0 0 0 0 0 0 0 0 0 0 0 0 0 0 0 0 0 0 0 0
618 0 835 805 838 864 857 904 904 920 933 924 954 959 948 960 932 938 906 846 832 858 866 877 895 935 0 0 0 0 0 0 0 0 0 0 0 0 0 0 0 0 0 0 0 0 0 2906 2911 2958 2900 2959 2940 2933 2899 2887 2907 2903 2889 2888 2916 2864 2832 2925 2894 2931 0 0 0 0 0 0 0 0 0 0 0 0 0 0 0 0 0 0 0 0 0 0 0 0 0 0 0 0 0 0 0 0 0 0 0 0 0 0 0 0 0 0 0 0 0 0 0 0 0 0 0 0 0 0
636 923 948 950 942 878 0 916 895 921 935 940 950 957 944 952 954 954 948 950 931 919 900 909 904 929 967 975 1032 0 0 0 0 0 0 0 0 0 0 0 0 0 0 0 0 0 0 2970 2896 2928 2901 2980 2893 2914 2931 2929 2908 2903 2925 2901 2895 2883 2862 2938 2888 2898 0 0 0 0 0 0 0 0 0 0 0 0 0 0 0 0 0 0 0 0 0 0 0 0 0 0 0 0 0 0 0 0 0 0 0 0 0 0 0 0 0 0 0 0 0 0 0 0 0 0 0 0 0 0
602 688 0 0 0 0 0 0 0 0 960 975 982 1000 966 962 962 959 946 936 933 946 932 946 950 923 973 974 999 1024 1039 0 0 0 0 0 0 0 0 0 0 0 0 0 0 0 0 2867 2897 2862 2882 2910 2975 2900 2961 2902 2882 2908 2892 2905 2919 2910 2927 2867 2883 0 0 0 0 0 0 0 0 0 0 0 0 0 0 0 0 0 0 0 0 0 0 0 0 0 0 0 0 0 0 0 0 0 0 0 0 0 0 0 0 0 0 0 0 0 0 0 0 0 0 0 0 0 0 0
613 615 591 0 1119 1122 1135 1148 1151 1141 1144 1165 1156 1134 1141 1143 1119 1047 0 1035 1018 1064 1057 985 1013 1014 1119 1138 1106 1079 1062 0 0 0 0 0 0 0 0 0 0 0 0 0 0 0 0 2904 2905 2915 2882 2859 2854 2882 2926 2867 2890 2838 2883 2909 2886 2857 2865 2865 2882 2850 0 0 0 0 0 0 0 0 0 0 0 0 0 0 0 0 0 0 0 0 0 0 0 0 0 0 0 0 0 0 0 0 0 0 0 0 0 0 0 0 0 0 0 0 0 0 0 0 0 0 0 0 0 0
595 605 616 606 0 0 0 0 0 0 0 0 0 0 0 0 1389 1040 972 0 0 1161 1106 1006 0 1096 1170 1132 1148 1159 1115 0 0 0 0 0 0 0 0 0 0 0 0 0 0 0 0 2906 2875 2893 2944 2891 2880 2899 2888 2887 2872 2904 2925 2883 2883 2867 2902 2898 2863 0 0 0 0 0 0 0 0 0 0 0 0 0 0 0 0 0 0 0 0 0 0 0 0 0 0 0 0 0 0 0 0 0 0 0 0 0 0 0 0 0 0 0 0 0 0 0 0 0 0 0 0 0 0 0
625 628 613 618 626 0 0 0 0 0 0 0 0 0 0 0 0 1001 982 0 0 0 0 982 0 0 0 0 0 0 0 0 0 0 0 0 0 0 0 0 0 0 0 0 0 0 0 2910 2894 2895 2914 2870 2933 2921 2873 2824 2895 2874 2886 2870 2888 2859 2871 2855 2916 0 0 0 0 0 0 0 0 0 0 0 0 0 0 0 0 0 0 0 0 0 0 0 0 0 0 0 0 0 0 0 0 0 0 0 0 0 0 0 0 0 0 0 0 0 0 0 0 0 0 0 0 0 0 0
565 593 618 642 651 646 0 0 0 0 0 0 0 0 0 0 0 0 0 0 0 0 0 0 0 0 0 0 0 0 0 0 0 0 0 0 0 0 0 0 0 0 0 0 0 0 0 2905 2911 2874 2886 2880 2915 2882 2880 2853 2867 2921 2896 2905 2901 2914 2876 2912 2882 0 0 0 0 0 0 0 0 0 0 0 0 0 0 0 0 0 0 0 0 0 0 0 0 0 0 0 0 0 0 0 0 0 0 0 0 0 0 0 0 0 0 0 0 0 0 0 0 0 0 0 0 0 0 0
562 556 620 611 605 585 0 0 0 0 0 0 0 0 0 0 0 0 0 0 0 0 0 0 0 0 0 0 0 0 0 0 0 0 0 0 0 0 0 0 0 0 0 0 0 0 0 2974 2912 2932 2904 2891 2894 2931 2937 2924 2929 2911 2925 2941 2898 2891 2913 2919 2904 0 0 0 0 0 0 0 0 0 0 0 0 0 0 0 0 0 0 0 0 0 0 0 0 0 0 0 0 0 0 0 0 0 0 0 0 0 0 0 0 0 0 0 0 0 0 0 0 0 0 0 0 0 0 0
583 587 607 606 607 581 0 0 0 0 0 0 0 0 0 0 0 0 0 0 0 0 909 0 0 0 0 0 0 0 0 0 0 0 0 0 0 0 0 0 0 0 0 0 0 0 0 2940 2904 2918 2944 2888 2896 2889 2965 2900 2920 2895 2914 2891 2886 2877 2879 2889 2879 0 0 0 0 0 0 0 0 0 0 0 0 0 0 0 0 0 0 0 0 0 0 0 0 0 0 0 0 0 0 0 0 0 0 0 0 0 0 0 0 0 0 0 0 0 0 0 0 0 0 0 0 0 0 0
558 597 567 572 642 587 599 0 0 0 0 0 0 0 0 0 0 0 0 0 0 0 0 0 0 0 0 0 0 0 0 0 0 0 0 0 0 0 0 0 0 0 0 0 0 0 0 2956 2922 2902 2910 2873 2914 2917 2938 2959 2921 2933 2917 2902 2873 2860 2908 2893 2900 0 0 0 0 0 0 0 0 0 0 0 0 0 0 0 0 0 0 0 0 0 0 0 0 0 0 0 0 0 0 0 0 0 0 0 0 0 0 0 0 0 0 0 0 0 0 0 0 0 0 0 0 0 0 0
587 597 573 620 612 613 609 0 0 0 0 0 0 0 0 0 2301 0 0 0 0 0 987 962 0 0 0 0 0 0 0 0 0 0 0 0 0 0 0 0 0 0 0 0 0 0 0 2859 2960 2863 2900 2930 2914 2935 2895 2928 2949 2878 2870 2857 2887 2863 2886 2879 2889 2861 0 0 0 0 0 0 0 0 0 0 0 0 0 0 0 0 0 0 0 0 0 0 0 0 0 0 0 0 0 0 0 0 0 0 0 0 0 0 0 0 0 0 0 0 0 0 0 0 0 0 0 0 0 0
588 596 583 595 598 610 645 0 0 0 0 0 0 0 0 0 0 0 0 0 0 0 0 0 0 0 0 0 0 0 0 0 0 0 0 0 0 0 0 0 0 0 0 0 0 0 0 2862 2894 2890 2890 2891 2864 2896 2871 2864 2843 2903 2852 2881 2857 2878 2852 2883 2869 2803 0 0 0 0 0 0 0 0 0 0 0 0 0 0 0 0 0 0 0 0 0 0 0 0 0 0 0 0 0 0 0 0 0 0 0 0 0 0 0 0 0 0 0 0 0 0 0 0 0 0 0 0 0 0
600 596 593 627 603 625 0 0 0 0 0 0 0 0 0 0 0 0 0 0 0 0 0 0 0 0 0 0 0 0 0 0 0 0 0 0 0 0 0 0 0 0 0 0 0 0 0 0 0 0 0 0 0 0 0 0 0 0 0 0 0 0 3008 2897 2881 0 0 0 0 0 0 0 0 0 0 0 0 0 0 0 0 0 0 0 0 0 0 0 0 0 0 0 0 0 0 0 0 0 0 0 0 0 0 0 0 0 0 0 0 0 0 0 0 0 0 0 0 0 0 0
584 627 618 639 608 617 0 0 0 0 0 0 0 0 0 0 0 0 0 0 0 0 0 0 0 0 0 0 0 0 0 0 0 0 0 0 0 0 0 0 0 0 0 0 0 0 0 0 0 0 0 0 0 0 0 0 0 0 0 0 0 0 0 0 0 0 0 0 0 0 0 0 0 0 0 0 0 0 0 0 0 0 0 0 0 0 0 0 0 0 0 0 0 0 0 0 0 0 0 0 0 0 0 0 0 0 0 0 0 0 0 0 0 0 0 0 0 0 0 0
607 546 622 606 612 655 0 0 0 0 0 0 0 0 0 0 0 0 0 0 0 0 0 0 0 0 0 0 0 0 0 0 0 0 0 0 0 0 0 0 0 0 0 0 0 0 0 0 0 0 0 0 0 0 0 0 0 0 0 0 0 0 0 0 0 0 0 0 0 0 0 0 0 0 0 0 0 0 0 0 0 0 0 0 0 0 0 0 0 0 0 0 0 0 0 0 0 0 0 0 0 0 0 0 0 0 0 0 0 0 0 0 0 0 0 0 0 0 0 0
587 585 573 617 580 0 0 0 0 0 0 0 0 0 0 0 0 0 0 0 0 0 0 0 0 0 0 0 0 0 0 0 0 0 0 0 0 0 0 0 0 0 0 0 0 0 0 0 0 0 0 0 0 0 0 0 0 0 0 0 0 0 0 0 0 0 0 0 0 0 0 0 0 0 0 0 0 0 0 0 0 0 0 0 0 0 0 0 0 0 0 0 0 0 0 0 0 0 0 0 0 0 0 0 0 0 0 0 0 0 0 0 0 0 0 0 0 0 0 0
580 596 595 605 0 0 0 0 0 0 0 0 0 0 0 0 0 0 0 0 0 0 0 0 0 0 872 883 921 869 891 875 0 934 0 932 0 904 894 905 928 916 901 0 0 0 0 0 0 0 0 0 0 0 0 0 0 0 0 0 0 0 0 0 0 0 0 0 0 0 0 0 0 0 0 0 0 0 0 0 0 0 0 0 0 0 0 0 0 0 0 0 0 0 0 0 0 0 0 0 0 0 0 0 0 0 0 0 0 0 0 0 0 0 0 0 0 0 0 0
539 547 0 0 0 0 0 657 718 701 678 657 652 687 696 685 717 684 723 693 730 662 652 697 617 693 671 634 699 700 721 714 729 669 724 685 744 768 689 725 739 698 727 719 731 745 759 743 755 757 740 796 736 778 744 767 767 709 777 733 725 723 724 707 780 766 771 738 744 810 772 742 755 0 0 0 0 0 0 0 0 0 0 0 0 0 0 0 0 0 0 0 0 0 0 0 0 0 0 0 0 0 0 0 0 0 0 0 0 0 0 0 0 0 0 0 0 0 0 0
579 554 561 541 509 552 573 566 574 578 560 555 589 568 609 559 604 623 574 632 638 602 577 601 580 617 589 600 612 624 605 626 601 616 620 611 629 631 607 621 623 588 642 624 606 553 645 636 602 621 625 640 628 605 634 625 681 624 647 642 668 620 645 648 676 668 639 637 688 635 643 703 683 638 686 608 632 663 676 667 639 703 681 699 670 677 708 667 717 700 657 629 681 740 718 0 697 699 676 725 669 719 0 0 0 0 0 0 0 0 0 0 0 0 0 0 0 0 0 0
501 493 515 501 492 476 507 493 505 511 489 517 535 499 507 519 495 495 503 517 515 496 522 491 508 506 514 526 497 510 515 512 521 516 519 520 520 539 529 497 523 531 534 512 543 528 532 512 528 530 535 523 525 522 534 571 562 554 523 546 516 534 558 556 560 551 547 569 547 554 533 535 544 576 567 514 555 564 556 563 580 540 579 594 550 638 573 607 561 544 572 584 547 578 583 548 626 581 585 607 580 588 635 589 0 595 0 638 636 595 619 0 0 0 0 0 0 0 0 0
422 412 435 418 433 426 425 431 429 432 445 421 445 453 433 441 423 444 432 425 451 465 446 451 456 448 440 469 442 445 456 460 456 463 457 446 458 465 460 464 465 454 449 468 460 468 454 473 486 467 479 460 474 475 470 477 487 476 468 466 482 487 486 495 481 482 482 476 475 487 470 490 491 466 495 474 490 477 486 482 489 483 497 491 484 514 485 489 481 485 521 497 475 497 478 495 492 488 510 522 480 546 491 494 526 494 497 498 499 499 529 562 0 0 0 0 0 0 0 0
399 385 405 399 419 395 401 385 392 391 401 398 388 404 405 397 418 409 400 408 408 399 419 419 417 409 406 421 406 412 408 423 408 417 424 418 417 420 423 415 423 417 425 408 425 431 417 420 424 420 424 435 422 427 435 430 418 430 420 415 410 420 446 429 438 426 419 423 442 442 431 435 434 436 417 435 434 435 441 433 440 453 437 450 443 455 441 445 458 435 448 454 455 438 449 427 439 452 434 469 455 448 455 479 461 470 486 456 441 470 467 444 430 435 484 0 0 0 0 0
362 371 344 346 352 376 351 364 363 355 371 367 362 357 354 359 384 374 353 360 364 363 354 374 362 364 358 367 372 360 369 376 369 377 375 356 374 371 387 367 369 379 375 377 361 380 379 365 386 381 395 376 375 375 374 375 371 385 374 389 393 389 386 388 379 391 408 390 385 396 394 382 387 391 385 388 393 391 395 397 387 370 400 398 395 396 397 381 395 398 395 389 384 388 398 391 391 383 391 395 401 384 401 382 396 404 402 387 392 393 380 399 383 377 413 384 0 0 0 0
308 296 317 328 302 312 314 332 333 333 323 346 327 351 335 326 336 322 330 339 338 332 334 338 339 345 332 338 328 348 336 333 346 353 341 337 350 341 325 338 338 337 342 341 336 336 345 337 348 341 353 340 352 338 332 334 346 329 341 339 358 351 353 346 348 343 338 344 345 353 360 353 349 342 349 347 339 342 349 334 350 356 360 345 341 347 334 336 339 356 338 344 342 344 352 351 337 347 361 351 361 348 352 354 360 356 361 363 361 332 344 350 372 358 356 342 314 0 0 0
294 305 304 275 301 301 301 297 298 312 303 283 298 289 301 287 298 314 295 291 296 292 301 300 297 301 305 307 299 303 305 306 302 308 301 302 316 309 310 316 310 317 312 295 312 310 311 315 305 310 311 311 319 313 314 308 313 309 322 315 310 317 307 318 308 322 323 323 314 321 313 310 316 311 314 321 313 300 317 315 316 320 312 312 318 318 320 317 328 322 326 320 321 323 307 326 310 318 321 319 334 328 336 307 329 335 313 326 319 344 298 330 339 324 311 328 321 349 343 0
279 262 259 280 277 272 275 285 267 282 271 275 280 282 286 287 275 273 284 278 277 269 276 273 274 268 272 271 287 272 271 279 274 276 275 280 280 280 280 279 290 284 285 282 278 283 281 280 283 287 283 286 285 283 288 286 281 282 282 287 284 288 287 288 291 284 291 289 297 290 282 290 289 286 287 284 306 281 289 288 283 290 283 290 285 290 288 288 293 285 291 291 293 306 282 286 271 293 299 296 289 299 296 284 281 300 305 295 293 300 313 307 284 271 299 279 253 287 311 302
253 245 253 263 261 254 259 255 258 260 252 256 253 250 264 255 261 256 254 260 248 262 260 252 254 255 252 260 254 258 255 262 257 254 262 259 260 260 269 265 262 258 265 264 257 265 258 258 262 263 269 276 265 264 272 263 261 267 264 267 269 262 271 266 266 265 263 259 264 264 265 268 267 272 263 264 265 263 263 262 269 258 265 269 261 267 261 261 259 268 269 261 271 272 260 271 271 273 276 270 268 272 268 268 286 270 284 275 280 274 272 267 282 256 276 276 286 239 288 284
230 240 235 239 242 235 240 233 244 238 232 236 242 253 234 244 244 240 250 247 231 237 246 242 245 236 246 243 242 251 244 250 247 239 249 248 241 249 252 248 246 246 245 243 246 244 244 249 249 254 251 256 248 254 266 249 246 250 248 253 248 250 257 255 253 250 249 253 253 250 257 245 248 253 254 248 253 254 253 252 252 249 252 252 250 262 259 256 257 251 251 250 260 249 254 261 250 254 249 251 261 246 262 245 256 248 258 244 258 252 247 245 251 256 250 256 229 269 248 251
214 217 214 214 218 225 223 214 221 218 217 221 226 221 218 216 212 223 227 227 224 225 233 228 226 222 227 231 226 226 220 225 227 236 235 233 228 221 231 225 232 226 228 227 234 226 229 235 234 234 233 231 227 233 231 236 227 230 232 234 234 229 237 233 233 232 238 230 228 232 230 233 232 238 231 239 234 229 236 226 226 225 232 224 235 230 238 231 232 227 228 229 234 235 230 241 231 235 235 240 231 232 230 233 232 232 236 231 232 243 230 242 235 229 229 220 225 239 210 233
210 208 220 219 217 207 209 212 213 211 210 207 216 219 217 208 218 209 211 215 217 216 217 210 212 214 210 218 215 215 216 217 212 219 218 219 216 203 218 224 219 227 223 221 221 201 224 222 216 219 219 219 221 227 227 220 221 220 216 225 224 221 224 230 217 220 205 221 220 226 206 234 221 219 216 216 222 220 218 223 222 230 229 233 220 221 226 221 219 225 226 220 226 228 233 227 228 226 224 232 217 221 220 228 223 225 217 224 232 228 219 223 229 236 224 236 227 238 235 237
195 198 196 197 200 207 206 184 187 182 203 206 185 195 210 191 189 184 191 190 191 204 197 191 181 188 184 189 186 195 192 193 189 189 197 188 188 197 190 199 190 196 199 197 196 200 197 193 197 196 196 201 197 193 201 200 195 193 199 192 201 196 196 197 196 198 193 195 197 197 197 194 198 196 191 196 192 200 194 189 189 195 199 198 216 193 196 192 196 220 194 194 195 189 191 190 191 193 213 209 207 215 203 196 212 207 210 211 200 208 211 213 209 208 213 185 221 192 194 207
175 176 194 174 191 177 181 182 181 184 185 180 180 180 182 180 178 186 188 187 178 184 183 186 193 192 189 182 187 194 182 188 192 191 195 192 196 194 191 190 193 195 200 197 187 196 197 194 191 194 193 193 193 197 201 195 199 194 195 199 196 199 195 198 198 199 200 197 198 195 195 190 195 198 191 196 189 195 193 191 193 189 193 194 184 189 191 191 195 186 183 193 188 191 178 189 182 185 186 186 190 179 203 181 185 183 185 190 205 182 187 180 182 176 174 170 184 167 168 173
169 168 167 176 180 176 171 183 182 174 180 175 178 181 187 182 183 188 185 187 184 183 187 185 184 189 190 189 186 191 183 185 181 185 186 179 180 184 184 185 188 187 186 184 190 186 191 187 186 189 189 188 189 187 191 192 190 191 191 192 189 192 186 189 191 187 189 188 189 186 192 188 194 192 188 189 187 188 185 184 190 193 189 189 187 196 191 189 184 193 188 190 188 185 184 191 185 189 190 185 180 184 178 186 181 182 184 181 174 174 182 177 180 203 189 177 181 179 170 198
168 169 160 163 165 171 166 173 172 170 173 167 173 170 178 177 172 178 177 181 175 173 171 172 171 168 175 176 170 177 173 177 178 169 175 168 176 174 178 175 173 181 178 175 178 177 178 179 180 178 178 178 177 181 181 186 177 182 175 180 175 179 182 179 177 180 179 180 180 173 181 176 178 177 181 176 181 178 181 179 182 180 176 176 181 175 177 182 180 181 178 175 175 172 178 178 178 177 180 185 184 181 187 181 175 170 178 180 175 173 178 171 174 173 171 168 174 174 165 166
156 166 168 164 161 164 161 162 167 162 169 166 165 166 166 170 170 170 167 166 165 170 169 163 169 163 167 167 175 170 171 168 170 166 169 164 166 167 173 165 165 169 172 169 177 177 169 166 168 171 173 172 177 175 174 172 170 175 175 168 169 171 177 174 170 176 173 171 169 172 174 170 170 173 174 175 174 174 171 172 164 168 174 169 168 174 174 177 176 169 167 169 170 173 169 171 172 178 171 170 166 180 179 170 172 169 178 173 165 164 171 173 170 172 168 167 170 163 169 199
154 161 159 170 160 166 165 153 155 163 166 158 159 163 162 169 162 168 167 167 162 165 173 161 162 164 161 158 164 163 164 172 162 165 159 163 163 164 162 161 162 167 164 164 166 161 164 167 160 164 166 166 166 166 165 166 167 168 165 171 164 167 166 166 169 174 163 170 164 164 165 165 163 169 161 168 170 170 172 172 166 161 169 168 165 165 165 161 165 163 167 167 164 161 166 165 161 165 170 170 166 169 166 162 164 172 167 169 160 165 166 166 159 164 176 162 170 166 174 164
143 147 147 146 151 149 148 151 153 153 151 148 151 153 151 152 152 157 150 160 150 154 157 157 152 156 147 158 155 158 153 156 151 155 153 159 155 154 153 157 152 159 159 160 154 158 153 157 153 155 157 161 161 160 158 151 154 153 159 161 162 155 160 159 160 161 155 164 159 151 159 156 157 158 157 160 162 160 158 156 158 160 156 157 156 156 159 161 159 160 156 159 153 159 156 152 156 151 152 154 156 155 159 154 156 153 156 151 153 156 149 156 152 144 157 153 140 161 141 140
136 145 149 142 146 147 143 148 148 145 150 149 147 147 149 146 151 151 141 151 154 152 151 147 150 148 146 152 155 146 152 148 148 148 148 145 144 152 150 152 150 152 153 151 151 148 146 148 155 151 154 156 151 155 157 146 151 155 153 156 155 153 156 151 148 152 156 152 153 152 155 154 151 157 154 152 159 158 154 153 151 152 149 147 150 157 154 152 155 151 156 148 155 152 156 147 148 156 156 155 154 158 159 158 155 149 149 149 155 156 153 158 158 153 167 148 155 159 141 156
137 137 140 136 136 134 137 140 140 140 144 143 143 141 135 139 142 140 143 146 143 141 143 146 142 143 146 145 144 142 139 133 142 143 141 142 145 147 146 145 147 151 141 148 148 146 143 137 131 141 147 147 148 144 151 143 149 145 148 146 149 147 143 147 147 146 151 150 148 143 148 147 142 149 147 147 147 148 152 145 142 145 143 144 141 146 146 147 145 145 148 147 145 149 146 148 138 144 151 150 151 148 149 147 144 148 139 146 140 150 139 136 134 143 146 167 142 142 150 136
129 133 134 132 134 138 137 140 137 138 138 0 134 137 134 137 137 138 139 140 146 142 142 141 141 145 145 141 140 139 128 123 131 131 138 130 133 127 139 125 132 132 144 140 138 130 140 127 141 121 133 142 132 143 143 141 142 145 129 133 130 144 133 147 144 131 141 141 143 127 132 140 130 131 145 141 144 139 139 144 150 141 130 127 143 138 140 138 140 141 130 143 146 143 140 139 139 139 142 140 142 137 139 140 138 137 130 135 147 135 133 130 128 131 131 130 134 135 122 92
130 132 124 134 135 138 141 130 132 143 134 131 137 135 137 133 134 137 134 136 138 139 138 136 141 135 133 138 139 125 125 130 129 128 126 126 128 128 127 127 130 142 131 129 0 133 130 130 124 126 127 126 127 133 0 134 0 131 131 125 130 126 141 142 139 126 141 128 134 131 132 126 126 130 128 127 142 131 130 129 138 129 128 127 129 128 127 127 131 143 135 136 142 136 128 125 141 139 142 140 135 122 136 143 139 119 132 131 132 134 137 117 137 139 136 132 123 127 99 137
112 101 112 107 127 118 132 124 116 105 124 129 116 123 123 126 124 121 124 118 116 126 130 124 128 137 137 139 0 130 127 119 115 124 123 122 126 126 125 120 121 128 124 129 0 0 126 124 127 120 122 119 125 127 122 127 133 132 130 122 123 119 124 128 125 128 127 130 120 125 129 123 123 122 119 118 123 132 124 126 124 126 126 126 119 140 122 126 122 125 127 127 126 123 121 118 126 137 127 130 119 117 122 118 109 113 109 119 120 127 116 129 121 141 117 131 127 108 97 82
109 109 122 110 114 114 123 113 119 118 119 115 115 123 117 114 111 124 131 116 128 123 127 122 119 121 125 125 125 122 128 0 123 122 111 110 119 120 0 120 128 126 0 0 0 0 124 125 121 122 124 124 126 123 122 123 122 120 120 120 124 124 117 123 125 125 127 123 116 119 119 117 125 124 118 115 119 125 123 123 118 115 122 121 118 118 122 116 126 120 116 120 120 125 123 115 124 123 120 120 121 118 123 120 106 121 118 118 114 135 133 129 119 130 113 131 139 104 114 133
113 103 114 113 116 114 115 120 113 114 131 117 108 115 114 116 114 108 119 123 116 109 113 120 117 112 119 117 117 122 122 0 119 117 117 113 118 0 114 115 121 0 0 120 124 0 119 119 114 116 115 115 125 114 120 120 120 118 111 120 120 120 122 122 119 123 121 114 116 116 118 115 110 117 113 119 123 117 118 119 117 118 117 117 115 112 116 119 115 120 119 114 118 114 106 118 122 118 115 117 120 121 118 107 116 111 126 114 108 127 126 134 116 129 132 115 125 130 97 129
88 106 105 103 100 104 111 110 104 110 111 108 106 107 123 116 112 109 101 101 113 105 111 107 108 108 113 113 114 117 114 112 111 111 113 108 105 113 111 116 116 114 109 108 113 113 115 0 111 0 115 108 119 115 0 0 104 108 114 114 122 114 108 112 109 107 112 108 116 110 112 107 105 100 109 106 103 108 106 112 106 104 108 103 109 105 110 114 105 117 107 104 106 115 109 112 113 116 104 103 105 108 117 107 106 105 110 112 110 122 107 113 106 108 104 99 100 89 111 97
99 99 110 107 105 104 109 108 110 110 112 112 109 109 115 117 116 110 111 102 108 100 97 103 115 107 112 110 104 112 111 111 109 105 113 112 115 0 104 107 109 105 109 104 104 107 107 110 114 0 111 111 109 113 109 115 108 108 114 112 105 110 112 0 116 108 108 114 111 109 105 104 104 112 102 104 102 100 106 112 107 106 106 115 98 108 101 105 106 105 111 114 105 101 104 107 106 110 111 115 105 120 106 118 111 105 106 116 91 117 109 109 120 117 126 116 89 126 119 130
97 89 104 109 99 96 98 91 95 94 103 96 101 97 100 102 101 99 103 106 99 101 95 101 105 102 105 100 101 106 106 105 103 98 104 100 102 104 101 106 104 100 102 104 98 103 106 100 106 100 105 106 103 104 99 104 100 102 105 103 100 107 105 0 109 103 0 109 103 104 104 101 97 108 103 103 97 103 0 99 0 104 95 101 99 100 98 99 97 99 99 104 95 91 95 94 96 100 101 102 102 104 101 96 101 102 100 97 94 83 93 100 95 103 110 97 125 105 103 107
91 88 87 93 93 94 95 96 94 97 97 95 99 98 100 95 91 98 106 98 98 90 92 87 96 101 101 101 100 98 103 102 106 102 100 101 101 99 97 95 100 100 97 93 98 99 101 99 104 104 109 95 98 100 97 98 100 105 103 103 105 100 108 101 112 104 104 107 105 100 100 102 100 97 95 99 103 97 96 97 0 100 93 93 99 99 101 106 94 101 101 99 99 99 96 103 94 98 86 105 101 89 95 90 94 105 95 100 101 91 91 90 97 92 98 111 109 87 79 103
95 96 92 102 89 95 96 89 86 96 95 91 92 90 95 84 92 89 108 108 105 93 82 94 95 89 99 98 94 105 96 99 101 98 97 104 94 90 100 102 95 99 90 91 103 95 100 104 93 97 98 97 85 94 96 96 93 95 97 102 99 97 100 0 94 101 94 97 96 94 99 95 102 99 90 104 98 95 99 104 92 102 89 108 99 98 89 90 95 102 90 92 93 83 87 90 98 92 105 90 94 97 95 93 101 98 103 80 95 89 101 91 96 81 121 82 101 114 96 78
83 86 76 81 88 86 89 91 84 84 81 92 91 87 86 81 87 86 91 92 84 87 93 92 92 87 96 91 89 97 87 87 96 96 88 93 85 96 93 91 86 86 97 97 88 97 89 98 91 95 91 94 99 96 94 96 92 98 98 89 96 95 98 96 89 99 98 97 99 99 97 92 99 88 85 95 89 97 96 93 94 96 93 93 85 92 87 91 90 93 93 92 90 91 91 92 83 93 93 86 91 80 90 92 86 85 86 83 91 89 78 74 85 86 83 88 89 59 86 81
92 82 86 82 88 84 95 95 83 88 87 86 87 89 87 86 93 87 94 94 90 92 94 87 94 92 92 87 89 95 91 88 96 88 96 83 92 90 97 99 90 91 96 97 93 96 90 96 88 89 101 98 96 98 97 92 93 96 93 94 94 92 95 91 98 98 88 92 89 92 97 85 96 96 91 89 91 95 84 93 97 90 97 91 96 92 94 94 89 95 96 98 97 88 93 91 86 85 93 100 92 85 93 98 84 93 94 82 84 84 87 85 87 90 94 86 100 92 0 0
85 88 88 83 88 87 87 88 84 0 81 90 85 90 81 87 87 82 91 85 88 94 94 99 79 89 93 84 86 96 88 95 88 85 92 90 97 96 97 94 87 89 94 86 96 89 90 95 91 86 88 93 98 96 93 98 99 90 97 87 89 84 93 96 87 98 96 93 94 98 97 97 83 85 94 93 87 92 97 87 97 96 92 88 95 95 81 95 103 90 86 101 99 87 89 90 89 90 90 83 82 91 85 88 82 83 91 95 90 85 85 85 94 89 93 89 110 113 100 0
77 80 78 87 86 84 94 87 81 78 84 80 87 87 83 88 84 91 87 89 90 87 91 85 85 89 93 87 87 88 84 89 93 92 91 97 93 90 93 88 93 88 96 96 87 88 91 93 91 92 91 96 92 84 93 98 96 93 94 95 91 93 95 84 87 91 78 88 91 93 86 89 91 85 93 86 87 91 93 84 91 85 91 93 92 92 95 83 86 86 92 83 85 85 87 80 88 83 84 92 77 82 92 81 87 85 95 84 72 84 76 86 90 88 84 75 77 35 0 0
79 77 83 89 87 83 89 92 78 87 80 76 81 82 91 88 82 91 91 92 82 93 92 85 85 83 94 90 92 92 91 87 84 90 92 83 92 90 88 93 91 89 86 95 95 90 98 92 89 94 91 87 91 87 83 91 92 88 87 91 92 91 86 96 85 93 85 86 87 96 91 92 92 86 96 88 91 94 94 89 96 96 94 84 92 91 86 88 92 93 89 93 80 88 89 88 88 87 99 84 83 91 90 88 83 89 86 92 85 71 88 84 102 78 85 141 0 0 0 0
75 72 60 59 75 79 88 85 82 78 83 74 78 77 80 80 81 78 78 77 82 74 81 79 75 73 83 88 84 77 86 76 81 81 88 76 82 83 85 78 86 80 79 75 83 84 81 85 85 79 83 73 76 85 77 76 84 83 86 73 84 82 82 81 78 85 75 76 82 80 80 78 82 74 85 83 76 82 86 84 70 83 71 76 75 85 81 78 80 77 78 72 78 75 85 78 67 85 68 72 68 77 78 64 73 74 83 82 66 81 77 70 74 67 83 89 0 0 0 0
69 66 74 79 63 81 87 86 84 78 80 88 71 75 77 78 80 81 75 77 75 80 77 85 84 83 77 72 76 82 86 81 82 80 84 67 81 74 81 78 87 79 84 84 84 85 80 79 81 79 82 77 76 79 82 83 82 76 83 69 81 74 79 78 79 73 79 74 87 76 74 77 85 83 83 79 79 87 84 82 81 79 74 85 72 78 82 71 81 86 67 76 67 71 80 72 86 79 71 66 82 70 66 66 66 74 66 76 80 69 61 61 46 66 72 0 0 0 0 0
