0 0 0 0 0 0 0 0 0 0 0 0 0 0 0 0 0 0 0 0 0 0 0 0 0 0 0 0 0 0 0 0 0 0 0 0 0 0 0 0 0 0 0 0 0 0 0 0 0 0 0 0 0 0 0 0 0 0 0 0 0 0 0 0 0 0 0 0 0 0 0 0 0 0 0 0 0 0 0 0 0 0 0 0 0 0 0 0 0 0 0 0 0 0 0 0 0 0 0 0 0 0 0 0 0 0 0 0 0 0 0 0 0 0 0 0 0 0 0 0
0 0 0 0 0 0 0 0 0 0 0 0 0 0 0 0 0 0 0 0 0 0 0 0 0 0 0 0 0 0 0 0 0 0 0 0 0 0 0 0 0 0 0 0 0 0 0 0 0 0 0 0 0 0 0 0 0 0 0 0 0 0 0 0 0 0 0 0 0 0 0 0 0 0 0 0 0 0 0 0 0 0 0 0 0 0 0 0 0 0 0 0 0 0 0 0 0 0 0 0 0 0 0 0 0 0 0 0 0 0 0 0 0 0 0 0 0 0 0 0
0 0 0 0 0 0 0 0 0 0 0 0 0 0 0 0 1256 1262 0 0 0 0 0 0 0 0 0 0 0 0 0 0 0 0 0 0 0 0 0 0 0 0 0 0 0 0 0 0 0 0 0 0 0 0 0 0 0 0 0 0 0 0 0 0 0 0 0 0 0 0 0 0 0 0 0 0 0 0 0 0 0 0 0 0 0 0 0 0 0 0 0 0 0 0 0 0 0 0 0 0 0 0 0 0 0 0 0 0 0 0 0 0 0 0 0 0 0 0 0 0
0 0 0 0 0 0 0 0 0 0 0 1146 1157 1137 0 0 1251 1293 0 0 0 1244 1280 0 0 0 0 0 0 0 0 0 0 0 0 0 0 0 0 0 0 0 0 0 0 0 0 0 0 0 0 0 0 0 0 0 0 0 0 0 0 0 0 0 0 0 0 0 0 0 0 0 0 0 0 0 0 0 0 0 0 0 0 0 0 0 0 0 0 0 0 0 0 0 0 0 0 0 0 0 0 0 0 0 0 0 0 0 0 0 0 0 0 0 0 0 0 0 0 0
0 0 0 0 0 0 0 0 1117 1097 1143 1135 1129 1152 1141 0 1278 1285 1275 0 1259 1252 1267 0 0 0 0 0 0 0 0 0 0 0 0 0 0 0 0 0 0 0 0 0 0 0 0 0 0 0 0 0 0 0 0 0 0 0 0 0 0 0 0 0 0 0 0 0 0 0 0 0 0 0 0 0 0 0 0 0 0 0 0 0 0 0 0 0 0 0 0 0 0 0 0 0 0 0 0 0 0 0 0 0 0 0 0 0 0 0 0 0 0 0 0 0 0 0 0 0
0 0 0 0 0 0 0 1110 1123 1142 0 0 1178 1141 1172 1212 1282 1257 1317 1268 1265 1273 1262 1271 0 0 0 0 0 0 0 0 0 0 0 0 0 0 0 0 0 0 0 0 0 0 0 0 0 0 0 0 0 0 0 0 0 0 0 0 0 0 0 0 0 0 0 0 0 0 0 0 0 0 0 0 0 0 0 0 0 0 0 0 0 0 0 0 0 0 0 0 0 0 0 0 0 0 0 0 0 0 0 0 0 0 0 0 0 0 0 0 0 0 0 0 0 0 0 0
0 0 0 0 0 0 0 0 0 0 0 0 1226 1230 1232 1259 1291 1285 1290 1335 1280 1291 1287 1299 1313 0 0 0 0 0 0 1436 0 0 0 0 0 0 0 0 0 0 0 0 0 0 0 0 0 0 0 0 0 0 0 0 0 0 0 0 0 0 0 0 0 0 0 0 0 0 0 0 0 0 0 0 0 0 0 0 0 0 0 0 0 0 0 0 0 0 0 0 0 0 0 0 0 0 0 0 0 0 0 0 0 0 0 0 0 0 0 0 0 0 0 0 0 0 0 0
0 0 0 0 0 0 0 0 0 0 0 0 1229 1278 1282 1290 1288 1276 1271 1257 1284 1251 1244 1257 0 1326 1352 1348 1328 0 0 1425 0 0 0 0 0 0 0 0 0 0 0 0 0 0 0 0 0 0 0 0 0 0 0 0 0 0 0 0 0 0 0 0 0 0 0 0 0 0 0 0 0 0 0 0 0 0 0 0 0 0 0 0 0 0 0 0 0 0 0 0 0 0 0 0 0 0 0 0 0 0 0 0 0 0 0 0 0 0 0 0 0 0 0 0 0 0 0 0
0 0 0 0 0 0 0 0 0 0 0 0 1252 1281 1289 1280 1281 1282 1268 1245 1260 1259 1253 1272 0 0 1329 1398 1339 1364 1380 1405 0 0 0 0 0 0 0 0 0 0 0 0 0 0 0 0 0 0 0 0 0 0 0 0 0 0 0 0 0 0 0 0 0 0 0 0 0 0 0 0 0 0 0 0 0 0 0 0 0 0 0 0 0 0 0 0 0 0 0 0 0 0 0 0 0 0 0 0 0 0 0 0 0 0 0 0 0 0 0 0 0 0 0 0 0 0 0 0
0 0 0 0 0 0 0 0 0 0 0 0 0 1241 1298 1286 1291 1265 1297 1264 1261 1263 1274 1274 1263 0 0 1361 1350 1372 1363 1413 1435 0 0 0 0 0 0 0 0 0 0 0 0 0 0 0 0 0 0 0 0 0 0 0 0 0 0 0 0 0 0 0 0 0 0 0 0 0 0 0 0 0 0 0 0 0 0 0 0 0 0 0 0 0 0 0 0 0 0 0 0 0 0 0 0 0 0 0 0 0 0 0 0 0 0 0 0 0 0 0 0 0 0 0 0 0 0 0
0 0 0 0 0 0 0 0 0 0 0 0 0 0 0 0 0 0 0 0 0 1247 1269 1258 1294 0 0 1361 1350 1356 1356 1379 1414 0 0 0 0 0 0 0 0 0 0 0 0 0 0 0 0 0 0 0 0 0 0 0 0 0 0 0 0 0 0 0 0 0 0 0 0 0 0 0 0 0 0 0 0 0 0 0 0 0 0 0 0 0 0 0 0 0 0 0 0 0 0 0 0 0 0 0 0 0 0 0 0 0 0 0 0 0 0 0 0 0 0 0 0 0 0 0
0 0 0 0 0 0 0 0 0 0 0 0 0 0 0 0 0 0 0 0 0 0 0 1396 1344 0 0 0 1337 1328 1355 1381 1453 0 0 0 0 0 0 0 0 0 0 0 0 0 0 0 0 0 0 0 0 0 0 0 0 0 0 0 0 0 0 0 0 0 0 0 0 0 0 0 0 0 0 0 0 0 0 0 0 0 0 0 0 0 0 0 0 0 0 0 0 0 0 0 0 0 0 0 0 0 0 0 0 0 1703 1747 0 0 0 0 0 0 0 0 0 0 0 0
0 0 0 0 0 0 0 0 0 0 0 0 0 0 0 0 0 0 0 0 0 0 0 1400 1378 1341 1247 1304 1326 1327 1366 1376 1452 0 0 0 0 0 0 0 0 0 0 0 0 0 0 0 0 0 0 0 0 0 0 0 0 0 0 0 0 0 0 0 0 0 0 0 0 0 0 0 0 0 0 0 0 0 0 0 0 0 0 0 0 0 0 0 0 0 0 0 0 0 0 0 0 0 0 0 0 0 0 0 0 0 1761 1730 1759 0 0 0 0 0 0 0 0 0 0 0
0 0 0 0 0 0 0 0 0 0 0 0 0 0 0 0 0 0 0 0 0 0 0 1357 1385 1376 1311 1338 1318 1331 1401 1437 1437 0 0 0 0 0 0 0 0 0 0 0 0 0 0 0 0 0 0 0 0 0 0 0 0 0 0 0 0 0 0 0 0 0 0 0 0 0 0 0 0 0 0 0 0 0 0 0 0 0 0 0 0 0 0 0 0 0 0 0 0 0 0 0 0 0 0 0 0 0 0 0 0 1742 1784 1694 1703 0 0 0 0 0 0 0 0 0 0 0
0 0 0 0 0 0 0 0 0 0 0 0 0 0 0 0 0 0 0 0 0 0 0 1408 1375 1389 1367 1352 1313 1317 1352 1406 1455 0 0 0 0 0 0 0 0 0 0 0 0 0 0 0 0 0 0 0 0 0 0 0 0 0 0 0 0 0 0 0 0 0 0 0 0 0 0 0 0 0 0 0 0 0 0 0 0 0 0 0 0 0 0 0 0 0 0 0 0 0 0 0 0 0 0 0 0 0 0 0 0 1764 1708 0 0 0 0 0 0 0 0 0 0 0 0 0
0 0 0 0 0 0 0 0 0 0 0 0 0 0 0 0 0 0 0 0 0 0 0 1391 1367 1378 1393 1395 1357 1352 1368 1420 1441 0 0 0 0 0 0 0 0 0 0 0 0 0 0 0 0 0 0 0 0 0 0 0 0 0 0 0 0 0 0 0 0 0 0 0 0 0 0 0 0 0 0 0 0 0 0 0 0 0 0 0 0 0 0 0 0 0 0 0 0 0 0 0 0 0 0 0 0 0 0 0 0 0 0 1730 1706 1748 0 0 0 1685 0 0 0 0 0 0
1254 1274 1273 1277 1278 1280 1358 0 0 0 0 0 0 0 0 0 0 0 0 0 0 0 0 0 1393 1387 1372 1378 1390 1364 1372 1424 1435 0 0 0 0 0 0 0 0 0 0 0 0 0 0 0 0 0 0 0 0 0 0 0 0 0 0 0 0 0 0 0 0 0 0 0 0 0 0 0 0 0 0 0 0 0 0 0 0 0 0 0 0 0 0 0 0 0 0 0 0 0 0 0 0 0 0 0 0 0 0 0 0 1758 1735 1721 1633 1677 0 1631 0 0 0 0 0 0 0 0
1257 1277 1262 1282 1282 1304 1321 1317 1346 1330 1394 0 0 0 0 0 0 0 0 0 0 0 0 1377 1347 1350 1377 1373 1386 1388 1387 1446 1420 0 0 0 0 0 0 0 0 0 0 0 0 0 0 0 0 0 0 0 0 0 0 0 0 0 0 0 0 0 0 0 0 0 0 0 0 0 0 0 0 0 0 0 0 0 0 0 0 0 0 0 0 0 0 0 0 0 0 0 0 0 0 0 0 0 0 0 0 0 0 1733 1679 1731 1698 1684 1689 1654 1679 1675 0 0 0 0 0 0 0 0
1248 1249 1250 1278 1289 1289 1301 1294 1319 1327 1341 1348 1371 1379 1372 1393 0 0 0 0 0 0 0 0 0 1310 0 0 1378 0 0 1406 1437 0 0 0 0 0 0 0 0 0 0 0 0 0 0 0 0 0 0 0 0 0 0 0 0 0 0 0 0 0 0 0 0 0 0 0 0 0 0 0 0 0 0 0 0 0 0 0 0 0 0 0 0 0 0 0 0 0 0 0 0 0 0 0 0 0 0 0 0 0 0 1719 1772 1758 1718 1699 1693 1650 1662 1610 0 0 0 0 0 0 0 0
0 0 0 0 1277 1300 1301 1294 1338 1325 1312 1357 1347 1353 1395 1370 1387 1406 1426 1450 0 0 0 0 0 0 0 0 0 0 0 1423 1424 1422 0 0 0 0 0 0 0 0 0 0 0 0 0 0 0 0 0 0 0 0 0 0 0 0 0 0 0 0 0 0 0 0 0 0 0 0 0 0 0 0 0 0 0 0 0 0 0 0 0 0 0 0 0 0 0 0 0 0 0 0 0 0 0 0 0 0 0 0 1812 1757 1779 1749 1733 1659 1652 1639 0 0 0 0 0 0 0 0 0 0
0 0 0 0 0 0 0 0 0 1326 1335 1352 1347 1374 1375 1377 1404 1414 1416 1442 1442 1472 0 0 0 0 0 0 0 0 0 1450 1439 1443 0 0 0 0 0 0 0 0 0 0 0 0 0 0 0 0 0 0 0 0 0 0 0 0 0 0 0 0 0 0 0 0 0 0 0 0 0 0 0 0 0 0 0 0 0 0 0 0 0 0 0 0 0 0 0 0 0 0 0 0 0 0 0 0 0 0 0 0 0 1739 1644 1613 1610 1610 1597 1563 1617 1581 1582 1538 1548 0 0 0 0 0
0 0 0 0 0 0 0 0 0 0 0 0 0 0 0 1401 1387 1406 1447 1435 1453 1489 0 0 0 0 0 0 0 0 0 0 1489 0 0 0 0 0 0 0 0 0 0 0 0 0 0 0 0 0 0 0 0 0 0 0 0 0 0 0 0 0 0 0 0 0 0 0 0 0 0 0 0 0 0 0 0 0 0 0 0 0 0 0 0 0 0 0 0 0 0 0 0 0 0 0 0 0 0 0 0 0 1668 1600 1591 1612 1606 1592 1599 1572 1611 1584 1599 1598 1605 0 0 0 0 0
0 0 0 0 0 0 0 0 0 0 0 0 0 0 0 0 0 0 0 0 0 1485 0 0 0 0 0 0 0 0 0 0 0 0 0 0 0 0 0 0 0 0 0 0 0 0 0 0 0 0 0 0 0 0 0 0 0 0 0 0 0 0 0 0 0 0 0 0 0 0 0 0 0 0 0 0 0 0 0 0 0 0 0 0 0 0 0 0 0 0 0 0 0 0 0 0 0 0 0 0 0 1632 1588 1618 1576 1604 1621 1575 1600 1571 1590 1595 1623 1583 0 0 0 0 0 0
0 0 0 0 0 0 0 0 0 0 0 0 0 0 0 0 0 0 0 0 0 0 0 0 0 0 0 0 0 0 0 0 0 0 0 0 0 0 0 0 0 0 0 0 0 0 0 0 0 0 0 0 0 0 0 0 0 0 0 0 0 0 0 0 0 0 0 0 0 0 0 0 0 0 0 0 0 0 0 0 0 0 0 0 0 0 0 0 0 0 0 0 0 0 0 0 0 0 0 0 0 0 0 1597 1608 1602 1554 1593 1593 1591 1565 1612 0 0 0 0 0 0 0 0
0 0 0 0 0 0 0 0 0 0 0 0 0 0 0 0 0 0 0 0 0 0 0 0 0 0 0 0 0 0 0 0 0 0 0 0 0 0 0 0 0 0 0 0 0 0 0 0 0 0 0 0 0 0 0 0 0 0 0 0 0 0 0 0 0 0 0 0 0 0 0 0 0 0 0 0 0 0 0 0 0 0 0 0 0 0 0 0 0 0 0 0 0 0 0 0 0 0 0 0 0 0 0 0 0 0 1567 1616 0 0 0 0 0 0 0 0 0 0 0 0
0 0 0 0 0 0 0 0 0 0 0 0 0 0 0 0 0 0 0 0 0 0 0 0 0 0 0 0 0 0 0 0 0 0 0 0 0 0 0 0 0 0 0 0 0 0 0 0 0 0 0 0 0 0 0 0 0 0 0 0 0 0 0 0 0 0 0 0 0 0 0 0 0 0 0 0 0 0 0 0 0 0 0 0 0 0 0 0 0 0 0 0 0 0 0 0 0 0 0 0 0 0 0 0 0 0 0 0 0 0 0 0 0 0 0 0 0 0 0 0
571 589 0 0 0 0 0 0 0 0 0 0 0 0 0 0 0 0 0 0 0 0 0 0 0 1847 1870 0 0 0 0 0 0 0 0 0 0 0 0 0 0 0 0 0 0 0 0 2959 2941 2916 2924 2863 2951 2965 2910 2911 2903 2874 2885 2891 2928 2890 2895 2897 2903 2889 0 0 0 0 0 0 0 0 0 0 0 0 0 0 0 0 0 0 0 0 0 0 0 0 0 0 0 0 0 0 1720 0 0 0 0 0 0 0 0 0 0 0 0 0 0 0 0 0 0 0 0 0 0 0
564 592 595 596 636 703 0 0 0 0 0 0 0 0 0 0 0 0 0 0 0 0 0 0 0 0 1912 1922 0 0 0 0 0 0 0 0 0 0 0 0 0 0 0 0 0 0 0 2930 2953 2901 2941 2912 2879 2917 2953 2927 2865 2936 2906 2892 2870 2923 2878 2917 2872 2878 0 0 0 0 0 0 0 0 0 0 0 0 0 0 0 0 0 0 0 0 0 0 0 0 0 0 0 0 0 0 0 0 0 0 0 0 0 0 0 0 0 0 0 0 0 0 0 0 0 0 0 0 0 0
564 587 574 603 584 628 625 631 631 0 0 0 0 0 0 0 0 0 0 0 0 0 0 0 0 0 0 0 0 0 0 0 0 0 0 0 0 0 0 0 0 0 0 0 0 0 0 2932 2924 2940 2925 2932 2942 2912 2899 2943 2879 2909 2887 2882 2877 2913 2883 2939 2880 0 0 0 0 0 0 0 0 0 0 0 0 0 0 0 0 0 0 0 0 0 0 0 0 0 0 0 0 0 0 0 0 0 0 0 0 0 0 0 0 0 0 0 0 0 0 0 0 0 0 0 0 0 0 0
598 583 605 609 614 625 624 645 669 667 701 707 0 0 0 0 0 0 0 0 0 0 0 0 0 0 0 0 0 0 0 0 0 0 0 0 0 0 0 0 0 0 0 0 0 0 0 2949 2916 2903 2907 2918 2900 2929 2943 2892 2950 2926 2895 2920 2927 2918 2877 2947 2924 2900 0 0 0 0 0 0 0 0 0 0 0 0 0 0 0 0 0 0 0 0 0 0 0 0 0 0 0 0 0 0 0 0 0 0 0 0 0 0 0 0 0 0 0 0 0 0 0 0 0 0 0 0 0 0
618 588 582 596 600 618 651 661 669 684 676 696 719 735 732 0 0 0 0 0 0 0 0 0 0 0 0 0 0 0 0 0 0 0 0 0 0 0 0 0 0 0 0 0 0 0 0 2913 2915 2903 2916 2910 2970 2884 2881 2909 2930 2869 2902 2934 2851 2924 2917 2877 2905 0 0 0 0 0 0 0 0 0 0 0 0 0 0 0 0 0 0 0 0 0 0 0 0 0 0 0 0 0 0 0 0 0 0 0 0 0 0 0 0 0 0 0 0 0 1763 0 0 0 0 0 0 0 0 0
745 732 796 745 728 644 661 661 668 678 680 696 707 724 739 755 758 789 0 0 0 0 0 0 0 0 0 0 0 0 0 0 0 0 0 0 0 0 0 0 0 0 0 0 0 0 0 2942 2915 2914 2901 2892 2936 2910 2901 2917 2922 2925 2936 2875 2897 2901 2933 2912 2900 2906 0 0 0 0 0 0 0 0 0 0 0 0 0 0 0 0 0 0 0 0 0 0 0 0 0 0 0 0 0 0 0 0 0 0 0 0 0 0 0 0 0 0 0 0 0 0 0 0 0 0 0 0 0 0
789 805 821 813 843 853 844 826 857 811 771 717 747 705 755 752 756 799 795 816 845 0 0 0 0 0 0 0 0 0 0 0 0 0 0 0 0 0 0 0 0 0 0 0 0 0 0 2905 2842 2872 2899 2907 2899 2859 2897 2926 2897 2911 2910 2855 2950 2890 2885 2921 2874 2858 0 0 0 0 0 0 0 0 0 0 0 0 0 0 0 0 0 0 0 0 0 0 0 0 0 0 0 0 0 0 0 0 0 0 0 0 0 0 0 0 0 0 0 0 0 0 0 0 0 0 0 0 0 0
752 802 807 828 840 862 863 849 879 912 905 909 919 915 844 788 779 783 798 798 848 831 861 848 0 0 0 0 0 0 0 0 0 0 0 0 0 0 0 0 0 0 0 0 0 0 0 2889 2946 2942 2926 2896 2939 2906 2909 2898 2923 2954 2897 2936 2924 2934 2914 2860 2905 2915 0 0 0 0 0 0 0 0 0 0 0 0 0 0 0 0 0 0 0 0 0 0 0 0 0 0 0 0 0 0 0 0 0 0 0 0 0 0 0 0 0 0 0 0 0 0 0 0 0 0 0 0 0 0
605 0 851 816 847 862 862 871 895 909 914 943 952 952 931 951 937 928 884 866 838 846 839 886 902 911 0 0 0 0 0 0 0 0 0 0 0 0 0 0 0 0 0 0 0 0 0 2887 2908 2955 2903 2913 2875 2953 2871 2928 2927 2847 2827 2872 2928 2902 2880 2855 2881 2925 0 0 0 0 0 0 0 0 0 0 0 0 0 0 0 0 0 0 0 0 0 0 0 0 0 0 0 0 0 0 0 0 0 0 0 0 0 0 0 0 0 0 0 0 0 0 0 0 0 0 0 0 0 0
666 927 936 942 905 945 922 886 902 900 933 949 942 945 951 945 955 938 949 946 935 916 909 910 920 957 939 948 1038 0 0 0 0 0 0 0 0 0 0 0 0 0 0 0 0 0 0 2921 2935 2882 2924 2905 2906 2900 2855 2939 2924 2920 2871 2836 2929 2884 2922 2899 2857 0 0 0 0 0 0 0 0 0 0 0 0 0 0 0 0 0 0 0 0 0 0 0 0 0 0 0 0 0 0 0 0 0 0 0 0 0 0 0 0 0 0 0 0 0 0 0 0 0 0 0 0 0 0 0
602 748 0 0 0 0 0 0 0 999 954 999 997 994 986 966 972 956 950 937 953 953 946 966 970 973 972 999 1019 1033 1049 0 0 0 0 0 0 0 0 0 0 0 0 0 0 0 0 2903 2911 2894 2880 2897 2845 2901 2882 2917 2867 2909 2896 2883 2947 2890 2879 2871 2910 2852 0 0 0 0 0 0 0 0 0 0 0 0 0 0 0 0 0 0 0 0 0 0 0 0 0 0 0 0 0 0 0 0 0 0 0 0 0 0 0 0 0 0 0 0 0 0 0 0 0 0 0 0 0 0
576 618 637 0 1146 1136 1148 1148 1158 1151 1167 1165 1153 1152 1149 1148 1112 1055 0 0 1028 1056 1060 986 1006 1037 1122 1135 1116 1077 1116 0 0 0 0 0 0 0 0 0 0 0 0 0 0 0 0 2914 2926 2885 2927 2933 2909 2889 2934 2904 2829 2890 2875 2914 2890 2899 2874 2876 2906 2871 0 0 0 0 0 0 0 0 0 0 0 0 0 0 0 0 0 0 0 0 0 0 0 0 0 0 0 0 0 0 0 0 0 0 0 0 0 0 0 0 0 0 0 0 0 0 0 0 0 0 0 0 0 0
589 582 616 617 0 0 0 0 0 0 0 0 0 0 0 0 1414 1015 1009 0 0 1163 1123 0 0 1126 1166 1151 1134 1151 1139 0 0 0 0 0 0 0 0 0 0 0 0 0 0 0 0 2895 2910 2878 2918 2899 2928 2900 2888 2933 2883 2917 2855 2863 2910 2899 2902 2888 2875 2947 0 0 0 0 0 0 0 0 0 0 0 0 0 0 0 0 0 0 0 0 0 0 0 0 0 0 0 0 0 0 0 0 0 0 0 0 0 0 0 0 0 0 0 0 0 0 0 0 0 0 0 0 0 0
551 624 583 609 628 0 0 0 0 0 0 0 0 0 0 0 0 1012 978 0 0 0 0 0 0 0 0 0 0 0 0 0 0 0 0 0 0 0 0 0 0 0 0 0 0 0 0 2882 2888 2882 2935 2924 2878 2903 2898 2927 2887 2896 2914 2867 2941 2862 2903 2893 2898 0 0 0 0 0 0 0 0 0 0 0 0 0 0 0 0 0 0 0 0 0 0 0 0 0 0 0 0 0 0 0 0 0 0 0 0 0 0 0 0 0 0 0 0 0 0 0 0 0 0 0 0 0 0 0
588 586 636 606 620 650 0 0 0 0 0 0 0 0 0 0 0 0 0 0 0 0 0 0 0 0 0 0 0 0 0 0 0 0 0 0 0 0 0 0 0 0 0 0 0 0 0 2966 2886 2882 2935 2876 2874 2891 2883 2862 2866 2891 2881 2875 2889 2890 2872 2896 2872 2910 0 0 0 0 0 0 0 0 0 0 0 0 0 0 0 0 0 0 0 0 0 0 0 0 0 0 0 0 0 0 0 0 0 0 0 0 0 0 0 0 0 0 0 0 0 0 0 0 0 0 0 0 0 0
612 576 585 611 608 614 0 0 0 0 0 0 0 0 0 0 0 0 0 0 0 0 964 0 0 0 0 0 0 0 0 0 0 0 0 0 0 0 0 0 0 0 0 0 0 0 0 2904 2886 2910 2887 2929 2933 2923 2884 2921 2908 2870 2925 2918 2901 2906 2918 2870 2891 2833 0 0 0 0 0 0 0 0 0 0 0 0 0 0 0 0 0 0 0 0 0 0 0 0 0 0 0 0 0 0 0 0 0 0 0 0 0 0 0 0 0 0 0 0 0 0 0 0 0 0 0 0 0 0
579 550 572 612 602 631 580 0 0 0 0 0 0 0 0 0 0 0 0 0 0 0 936 0 0 0 0 0 0 0 0 0 0 0 0 0 0 0 0 0 0 0 0 0 0 0 0 2925 2973 2923 2929 2945 2888 2935 2904 2947 2897 2890 2892 2882 2890 2890 2914 2895 2887 0 0 0 0 0 0 0 0 0 0 0 0 0 0 0 0 0 0 0 0 0 0 0 0 0 0 0 0 0 0 0 0 0 0 0 0 0 0 0 0 0 0 0 0 0 0 0 0 0 0 0 0 0 0 0
599 576 606 588 609 620 653 0 0 0 0 0 0 0 0 0 0 0 0 0 0 0 0 0 0 0 0 0 0 0 0 0 0 0 0 0 0 0 0 0 0 0 0 0 0 0 0 2919 2899 2895 2920 2929 2965 2934 2897 2907 2908 2898 2887 2891 2906 2903 2911 2884 2885 2886 0 0 0 0 0 0 0 0 0 0 0 0 0 0 0 0 0 0 0 0 0 0 0 0 0 0 0 0 0 0 0 0 0 0 0 0 0 0 0 0 0 0 0 0 0 0 0 0 0 0 0 0 0 0
585 587 624 589 609 612 600 0 0 0 0 0 0 0 0 0 2278 0 0 0 900 0 911 964 0 0 0 0 0 0 0 0 0 0 0 0 0 0 0 0 0 0 0 0 0 0 0 2900 2891 2886 2866 2904 2873 2907 2929 2894 2916 2922 2886 2873 2913 2928 2870 2898 2864 2871 0 0 0 0 0 0 0 0 0 0 0 0 0 0 0 0 0 0 0 0 0 0 0 0 0 0 0 0 0 0 0 0 0 0 0 0 0 0 0 0 0 0 0 0 0 0 0 0 0 0 0 0 0 0
583 588 588 586 609 581 563 0 0 0 0 0 0 0 0 0 0 0 0 0 0 0 0 0 0 0 0 0 0 0 0 0 0 0 0 0 0 0 0 0 0 0 0 0 0 0 0 2935 2888 2946 2933 2921 2917 2903 2885 2921 2880 2888 2878 2908 2869 2916 2899 2883 2886 2853 0 0 0 0 0 0 0 0 0 0 0 0 0 0 0 0 0 0 0 0 0 0 0 0 0 0 0 0 0 0 0 0 0 0 0 0 0 0 0 0 0 0 0 0 0 0 0 0 0 0 0 0 0 0
580 608 607 623 607 616 0 0 0 0 0 0 0 0 0 0 0 0 0 0 0 0 0 0 0 0 0 0 0 0 0 0 0 0 0 0 0 0 0 0 0 0 0 0 0 0 0 0 0 0 0 0 0 0 0 0 0 0 0 0 0 2883 2999 2909 2894 0 0 0 0 0 0 0 0 0 0 0 0 0 0 0 0 0 0 0 0 0 0 0 0 0 0 0 0 0 0 0 0 0 0 0 0 0 0 0 0 0 0 0 0 0 0 0 0 0 0 0 0 0 0 0
576 580 619 592 615 610 0 0 0 0 0 0 0 0 0 0 0 0 0 0 0 0 0 0 0 0 0 0 0 0 0 0 0 0 0 0 0 0 0 0 0 0 0 0 0 0 0 0 0 0 0 0 0 0 0 0 0 0 0 0 0 0 0 0 0 0 0 0 0 0 0 0 0 0 0 0 0 0 0 0 0 0 0 0 0 0 0 0 0 0 0 0 0 0 0 0 0 0 0 0 0 0 0 0 0 0 0 0 0 0 0 0 0 0 0 0 0 0 0 0
619 564 599 598 591 0 0 0 0 0 0 0 0 0 0 0 0 0 0 0 0 0 0 0 0 0 0 0 0 0 0 0 0 0 0 0 0 0 0 0 0 0 0 0 0 0 0 0 0 0 0 0 0 0 0 0 0 0 0 0 0 0 0 0 0 0 0 0 0 0 0 0 0 0 0 0 0 0 0 0 0 0 0 0 0 0 0 0 0 0 0 0 0 0 0 0 0 0 0 0 0 0 0 0 0 0 0 0 0 0 0 0 0 0 0 0 0 0 0 0
616 585 590 625 614 0 0 0 0 0 0 0 0 0 0 0 0 0 0 0 0 0 0 0 0 0 0 0 0 0 0 0 0 0 0 0 0 0 0 0 0 0 0 0 0 0 0 0 0 0 0 0 0 0 0 0 0 0 0 0 0 0 0 0 0 0 0 0 0 0 0 0 0 0 0 0 0 0 0 0 0 0 0 0 0 0 0 0 0 0 0 0 0 0 0 0 0 0 0 0 0 0 0 0 0 0 0 0 0 0 0 0 0 0 0 0 0 0 0 0
582 589 611 542 0 0 0 0 0 0 0 0 0 0 0 0 0 0 0 0 0 0 0 0 0 0 829 843 853 841 865 844 846 845 890 905 0 855 852 887 891 893 0 0 0 0 0 0 0 0 0 0 0 0 0 0 0 0 0 0 0 0 0 0 0 0 0 0 0 0 0 0 0 0 0 0 0 0 0 0 0 0 0 0 0 0 0 0 0 0 0 0 0 0 0 0 0 0 0 0 0 0 0 0 0 0 0 0 0 0 0 0 0 0 0 0 0 0 0 0
533 553 565 0 0 0 0 656 711 728 708 685 676 724 702 698 695 693 670 702 699 715 697 722 680 714 725 671 725 723 697 679 657 763 746 724 721 714 745 747 723 764 758 715 769 745 759 751 747 741 724 776 781 747 804 806 774 765 785 795 804 788 768 792 713 775 724 709 777 784 804 768 771 0 0 0 0 0 0 0 0 0 0 0 0 0 0 0 0 0 0 0 0 0 0 0 0 0 0 0 0 0 0 0 0 0 0 0 0 0 0 0 0 0 0 0 0 0 0 0
546 565 580 559 554 564 589 550 566 600 547 571 555 577 583 578 583 584 594 587 556 558 569 590 610 627 586 613 598 578 597 566 586 576 584 578 575 608 601 617 599 620 598 595 551 602 591 633 624 650 601 593 625 629 624 636 597 644 617 653 611 604 641 629 626 612 649 646 653 667 659 649 654 691 682 621 641 667 672 675 688 660 659 710 667 717 652 690 679 685 652 685 717 684 727 0 0 690 687 682 703 711 0 0 0 0 0 0 0 0 0 0 0 0 0 0 0 0 0 0
487 505 501 501 484 495 499 478 507 518 491 505 509 487 486 484 481 490 488 490 497 511 495 504 510 499 506 486 501 497 517 521 515 495 516 526 528 526 517 512 520 515 504 505 528 523 524 517 538 531 514 535 518 526 545 514 523 535 535 549 534 534 541 536 551 513 504 543 532 556 537 553 547 555 540 505 564 551 555 541 561 562 545 541 549 591 545 579 547 566 578 548 596 564 569 579 588 589 597 576 588 621 581 570 0 602 0 608 610 618 574 0 0 0 0 0 0 0 0 0
422 421 429 441 429 423 422 432 439 437 438 449 436 441 455 452 439 458 451 450 456 449 454 456 467 453 443 444 441 462 461 461 446 441 461 459 465 461 456 460 467 464 473 479 462 467 459 476 475 471 473 456 474 467 491 486 467 479 469 489 480 477 478 492 486 469 481 481 475 480 494 481 486 486 481 494 492 490 480 477 489 478 491 507 501 493 489 490 467 493 482 476 487 460 537 474 498 499 478 499 498 510 477 515 542 536 529 536 537 498 499 482 0 0 0 0 0 0 0 0
385 412 383 396 398 390 398 394 393 381 400 388 398 402 400 397 402 390 400 395 407 397 414 396 402 409 407 418 413 406 405 409 409 402 409 421 408 416 417 423 409 419 420 416 407 423 408 405 413 413 423 414 417 415 420 416 436 419 427 424 417 432 413 411 429 434 429 424 416 431 434 437 424 430 421 425 425 431 419 434 435 427 433 432 425 433 439 444 431 433 446 425 439 438 428 416 436 439 446 460 439 439 451 441 428 441 433 433 446 435 444 386 436 435 0 0 0 0 0 0
347 355 349 355 366 372 373 347 356 357 378 364 357 365 366 372 355 370 365 368 361 360 365 375 371 365 355 371 360 379 383 382 379 387 374 367 378 371 375 378 372 362 377 371 376 374 381 375 378 381 373 382 380 379 378 377 377 388 379 393 383 383 387 385 388 379 397 383 387 395 381 394 399 391 376 399 399 384 390 398 396 396 396 395 384 413 396 391 405 405 402 393 402 393 400 399 390 387 400 391 389 372 393 385 387 414 403 399 398 393 410 384 405 401 373 351 0 0 0 0
310 304 318 320 309 323 341 334 316 328 332 324 340 330 335 332 337 330 334 343 332 325 329 333 338 338 327 340 333 330 337 336 347 351 341 344 348 333 330 340 329 350 332 339 336 338 334 344 348 357 338 346 333 347 332 345 343 331 338 345 345 354 358 351 355 342 342 356 349 351 355 352 337 343 335 350 339 351 348 354 352 349 343 346 353 345 354 344 354 342 347 357 356 360 341 341 338 360 345 346 347 348 360 366 346 360 360 349 354 363 351 357 352 355 314 356 354 0 0 0
299 272 308 288 298 298 303 288 297 309 303 289 287 296 291 285 301 295 293 301 294 297 310 287 294 301 286 311 306 308 297 301 304 310 302 302 300 304 312 311 305 309 302 308 300 304 316 299 300 304 311 313 305 307 318 309 316 312 312 307 307 310 301 318 307 308 310 310 318 310 314 320 309 320 303 319 304 304 317 323 305 319 318 312 316 320 316 328 319 324 316 299 309 322 320 325 313 329 312 333 304 310 341 300 310 309 311 325 308 316 322 310 311 316 280 329 328 256 317 0
276 279 269 275 273 275 284 276 279 285 278 273 283 277 279 277 278 278 277 283 278 280 274 278 274 271 276 281 292 272 279 274 285 281 289 276 281 290 278 281 294 283 282 286 285 292 285 289 287 289 289 286 281 280 288 291 285 286 283 286 284 297 283 285 292 289 284 293 294 289 283 288 287 283 286 287 290 280 290 289 295 288 288 286 282 289 289 287 298 293 292 299 305 292 296 301 284 293 297 294 294 303 294 305 297 288 291 301 285 289 291 317 289 302 290 257 291 316 305 281
256 250 253 258 258 257 246 251 261 259 249 248 255 258 264 247 246 254 256 250 252 265 261 249 255 268 255 260 252 259 264 257 266 261 260 264 255 256 265 265 260 266 270 264 267 268 265 263 265 271 265 271 267 265 262 262 265 265 268 263 266 263 275 265 268 263 266 260 271 275 268 270 269 268 265 262 270 266 266 266 265 262 252 273 271 263 271 256 258 271 263 268 271 269 260 268 270 274 278 279 276 262 271 281 265 274 271 266 270 283 268 264 264 258 259 262 259 264 283 247
234 230 237 236 244 234 241 231 236 243 243 242 238 240 240 241 251 243 242 246 236 248 249 238 242 243 240 243 243 243 243 247 243 241 239 251 240 250 243 245 249 246 235 246 251 250 241 251 246 249 248 249 248 247 253 246 245 248 247 254 250 249 252 250 246 257 251 256 248 257 250 246 249 247 251 260 247 248 247 251 249 250 244 247 248 247 248 253 240 240 251 251 258 246 241 249 250 254 253 252 260 254 254 249 251 251 256 246 262 257 263 236 254 261 245 273 279 275 270 228
216 224 220 214 222 222 224 212 225 215 221 228 223 230 225 222 224 224 234 226 224 226 228 227 227 222 223 235 231 220 222 228 229 226 239 231 232 230 229 232 230 231 236 230 229 226 234 239 236 229 233 232 233 234 231 231 233 232 236 234 237 232 233 230 234 233 235 233 235 234 235 235 242 234 227 238 228 232 224 231 231 231 239 229 232 231 238 238 234 232 230 236 233 232 229 231 235 237 240 240 241 237 250 237 240 241 232 227 238 243 235 233 233 246 247 249 211 221 227 233
207 203 219 219 213 205 208 213 214 221 212 208 219 221 207 217 212 212 214 220 212 217 215 209 209 213 220 213 210 221 213 216 218 215 218 199 219 218 217 221 219 217 196 220 225 217 220 220 218 220 214 221 217 207 222 224 204 198 222 223 215 219 217 225 228 221 221 219 223 220 225 221 224 217 220 222 216 219 220 218 222 227 226 226 221 224 218 216 221 216 218 223 221 214 224 217 222 218 223 226 212 220 222 226 217 231 220 221 226 231 229 226 222 227 233 232 217 218 227 234
196 194 195 203 208 205 198 200 187 183 200 202 188 207 203 188 207 207 206 189 193 204 196 206 185 185 184 191 191 196 196 190 194 190 194 195 188 197 187 189 192 197 187 199 198 199 194 193 193 194 196 191 194 215 200 197 202 195 200 199 192 198 198 199 195 199 197 198 197 193 196 200 197 195 192 192 193 197 190 196 195 200 215 197 190 198 200 190 210 211 196 195 207 187 196 191 191 208 213 209 214 208 206 208 213 208 208 211 204 210 213 211 212 204 205 207 196 202 172 179
179 180 194 191 199 178 176 183 179 180 180 175 178 183 178 181 181 189 186 177 178 185 187 185 192 183 186 193 186 185 194 190 195 192 193 195 189 188 190 189 189 195 197 190 188 195 191 198 199 197 194 197 196 192 196 198 195 198 198 199 196 198 197 201 202 197 194 197 190 197 197 191 200 190 194 198 199 198 193 192 194 197 195 195 185 188 190 191 194 191 185 191 191 189 187 181 190 180 184 183 182 189 180 185 182 186 183 201 202 208 182 199 189 176 187 179 202 200 213 192
178 174 172 169 176 180 175 185 181 181 181 180 185 185 177 181 182 185 183 188 186 191 185 186 182 189 189 190 189 191 186 185 184 185 184 187 182 187 188 183 183 189 186 191 190 187 189 192 181 191 185 191 187 190 192 194 189 192 193 190 188 188 185 191 195 192 190 193 189 191 188 191 189 187 188 187 191 192 187 192 186 194 189 186 189 187 189 186 193 193 184 180 193 183 181 182 186 183 186 184 182 188 185 178 186 180 181 182 180 182 175 179 201 183 175 178 181 184 175 184
172 168 159 170 165 169 168 174 168 166 173 170 175 172 175 180 171 178 179 179 178 179 176 171 171 170 173 176 172 178 178 183 174 177 172 165 176 174 175 177 175 178 179 175 184 187 178 179 184 184 178 183 176 179 180 181 185 175 179 186 175 179 184 182 179 179 181 179 182 177 177 179 172 182 178 176 181 184 178 178 184 180 177 179 180 182 176 178 180 182 176 186 177 177 183 181 178 180 181 177 178 183 186 179 177 175 180 184 175 169 179 180 177 176 177 177 167 177 175 180
162 161 166 165 163 165 158 160 169 167 170 164 165 165 165 176 166 167 170 172 169 163 172 171 170 165 170 171 170 171 169 174 172 164 170 167 172 173 171 171 168 172 172 168 176 172 170 170 174 176 172 171 175 175 173 175 169 176 174 176 174 174 171 175 173 172 172 167 177 169 171 170 173 171 175 176 172 176 174 171 172 172 173 170 164 180 176 173 172 166 170 177 173 168 165 170 172 167 163 180 168 187 174 168 178 173 167 169 174 167 176 171 172 177 172 178 169 170 169 169
156 159 161 166 162 160 165 161 157 158 161 159 159 157 162 163 158 161 169 166 160 162 169 163 162 165 163 162 162 163 163 166 164 164 159 156 161 162 159 161 160 166 164 162 165 168 165 162 158 165 164 168 162 164 166 166 163 167 165 167 160 167 167 168 164 167 159 165 164 160 164 161 167 169 163 164 170 167 170 168 163 158 165 163 160 163 164 161 164 161 161 164 163 163 163 160 161 161 165 167 168 168 160 170 161 163 171 169 157 160 163 166 161 163 164 154 164 173 151 145
146 148 151 150 151 148 148 154 153 154 148 149 150 151 151 154 154 158 152 161 155 158 158 155 156 154 153 158 158 158 154 158 154 154 155 156 150 153 153 154 159 153 161 160 153 156 155 155 160 156 156 159 160 160 156 158 155 154 159 159 163 154 160 164 163 161 157 157 157 160 155 155 158 162 161 163 164 163 161 153 161 156 155 154 158 157 158 161 156 156 159 159 154 159 161 151 154 157 155 159 157 155 157 158 157 156 153 153 156 158 160 161 149 164 144 153 152 162 150 170
138 143 147 144 150 147 148 143 153 144 146 148 144 149 149 145 151 150 140 146 153 147 153 145 150 154 143 157 151 147 146 153 145 148 148 153 154 153 149 154 156 155 146 151 149 149 149 146 150 154 154 153 145 153 151 149 157 155 155 158 154 147 151 154 150 151 152 155 153 156 151 158 150 155 153 154 157 160 157 152 150 156 155 146 149 151 152 149 154 151 150 147 153 155 156 148 150 148 157 156 153 155 161 157 151 151 146 150 148 148 156 154 154 140 156 149 141 150 164 144
137 139 139 135 139 139 136 139 143 141 143 142 144 142 140 135 146 139 141 148 142 146 146 148 141 142 148 147 142 139 138 142 141 144 142 145 142 143 144 145 147 145 151 144 148 147 141 141 146 147 149 147 147 141 144 144 147 147 145 148 149 142 141 148 148 149 148 145 147 146 146 147 146 150 147 150 148 154 149 147 143 142 148 144 142 142 148 146 150 146 150 147 147 147 147 149 146 145 149 151 149 146 147 139 140 149 146 146 139 147 137 152 140 138 146 146 151 147 138 139
132 136 132 133 133 141 140 143 139 137 137 0 132 135 141 136 138 140 139 142 145 143 141 138 145 145 146 140 137 138 138 126 132 129 140 140 142 129 139 130 141 144 132 142 140 142 130 130 138 130 141 144 143 142 135 141 142 132 133 131 135 130 142 148 143 132 144 143 142 142 141 128 130 144 139 145 143 142 142 145 149 141 138 130 140 144 141 140 143 141 137 143 144 144 137 138 144 143 147 139 141 139 143 145 142 137 136 139 141 141 135 139 137 130 138 140 136 127 131 145
132 136 130 135 135 137 142 133 133 134 131 136 139 141 136 125 135 137 137 136 142 141 139 141 140 138 138 137 138 124 137 138 140 129 128 137 129 128 127 127 141 141 138 130 0 140 131 140 128 124 126 128 131 141 0 141 0 133 139 130 126 127 133 134 130 130 142 130 141 142 130 126 129 140 129 128 141 140 141 127 136 139 138 121 137 137 129 126 131 137 125 141 137 137 138 125 142 141 140 139 137 123 137 142 127 125 134 136 134 133 131 139 137 142 140 141 129 144 135 144
117 107 115 112 123 129 138 131 115 113 130 119 123 122 126 132 124 125 121 122 133 125 129 134 123 135 137 138 0 136 125 126 120 125 120 121 129 123 124 122 127 131 127 130 0 0 130 123 126 122 124 121 126 126 125 129 132 127 129 123 126 123 125 125 125 127 123 129 123 129 123 123 122 127 122 124 119 131 119 125 127 125 129 123 119 128 122 128 127 128 118 127 125 124 123 120 126 140 127 132 117 121 121 121 117 121 119 119 119 120 130 127 143 120 133 124 133 143 130 90
109 119 122 112 113 118 127 118 127 109 122 121 122 121 118 112 115 122 131 120 123 126 126 125 123 121 125 125 126 120 129 0 127 117 116 113 121 121 0 121 129 124 0 0 0 0 121 126 125 120 126 123 125 121 127 130 121 124 121 120 128 123 112 125 121 122 126 124 118 119 125 118 125 121 120 117 120 125 125 124 121 119 120 122 119 123 124 122 123 124 118 121 118 117 120 119 125 123 125 122 122 120 124 117 110 119 112 122 118 132 128 132 122 141 125 126 129 102 131 138
106 99 117 114 113 110 112 116 113 110 117 116 113 113 114 114 118 115 111 120 116 112 111 116 116 114 118 122 121 122 124 0 119 121 113 114 115 0 119 119 121 0 0 121 122 0 121 118 114 114 116 116 121 120 120 121 122 121 113 118 121 122 119 121 118 123 120 121 118 117 120 119 114 117 117 112 112 118 115 120 118 119 114 116 116 109 117 118 115 115 116 113 117 110 108 119 122 124 113 114 116 117 115 113 120 111 119 117 123 128 114 127 113 115 128 119 114 106 90 144
94 106 108 106 98 107 110 109 103 112 113 111 108 108 120 119 117 111 107 104 113 105 111 107 108 111 116 117 115 118 117 115 111 115 113 111 109 115 0 115 118 110 110 107 106 114 114 0 115 0 116 112 118 115 0 0 107 105 118 109 124 117 108 110 106 113 109 115 117 107 112 110 110 103 107 109 106 110 108 111 111 108 112 110 110 109 113 111 106 117 109 104 102 114 110 112 106 115 110 107 101 111 115 113 108 112 110 115 117 112 116 110 106 100 97 111 103 101 105 123
106 98 108 112 106 104 114 110 107 113 108 114 107 106 115 122 108 113 114 103 108 99 95 107 112 106 104 114 103 116 109 108 109 110 111 111 114 0 108 108 107 104 115 94 107 106 106 110 115 0 111 113 109 113 111 110 105 111 111 112 105 111 114 0 116 108 107 115 111 110 100 103 106 112 102 108 102 102 103 109 106 107 108 111 100 106 105 108 109 106 109 105 103 105 102 105 108 108 110 108 104 111 105 117 108 101 103 115 102 114 117 99 113 115 102 106 98 102 113 122
88 97 111 108 96 93 96 94 93 97 107 98 99 97 100 101 103 100 103 101 105 102 98 102 100 104 105 100 100 108 109 109 105 102 106 100 104 109 104 105 101 101 97 99 98 102 107 97 104 98 106 110 104 104 98 105 97 103 104 101 103 107 107 0 111 102 0 109 103 103 102 100 97 109 102 107 99 103 0 101 0 104 98 103 102 101 99 98 96 102 98 96 100 101 95 99 95 99 102 102 100 102 96 107 101 98 96 102 93 103 106 95 95 100 107 90 85 88 90 128
90 95 82 92 94 96 97 95 95 93 103 100 99 101 107 99 96 93 110 95 99 95 101 93 90 95 106 103 100 100 112 104 104 99 101 102 100 101 105 100 107 97 95 96 100 97 105 103 104 104 109 99 101 100 94 102 101 106 99 103 103 101 103 104 112 105 105 108 106 101 104 107 104 102 100 99 105 98 98 98 0 102 90 89 99 96 100 108 101 100 103 101 100 100 93 106 92 94 87 107 101 93 100 89 96 105 102 89 101 105 91 100 110 95 90 122 95 80 88 120
96 97 98 107 91 94 96 85 88 93 92 94 95 92 94 86 94 89 106 108 103 93 92 94 91 91 100 93 92 99 94 95 100 98 94 105 98 86 97 104 97 93 95 91 99 98 101 99 88 99 98 93 84 89 92 100 91 98 95 97 96 95 101 0 95 104 98 95 97 101 99 99 105 103 86 102 100 98 99 108 93 97 93 107 96 94 91 94 94 96 94 96 97 86 88 86 93 90 102 89 94 98 101 100 99 99 98 75 95 87 93 89 90 85 107 87 94 94 100 76
87 78 78 82 80 86 89 90 82 81 80 87 95 88 89 92 88 93 84 90 92 94 93 94 94 86 97 88 91 93 86 87 101 91 88 93 88 93 94 91 84 96 95 89 88 87 95 90 98 97 98 96 89 92 97 92 96 98 96 89 91 93 98 94 91 92 94 90 96 98 88 100 91 95 85 91 91 89 96 88 90 98 96 92 97 83 90 96 91 96 93 92 94 90 93 86 95 92 88 84 92 84 91 80 87 82 93 87 86 89 83 80 85 89 80 89 76 84 84 92
90 79 80 82 90 82 90 102 88 93 84 91 89 88 88 90 85 82 95 92 93 92 92 94 95 87 94 96 88 84 92 89 99 92 94 93 90 93 88 92 93 96 89 91 96 97 95 94 92 92 100 95 95 96 92 92 95 98 89 91 98 91 96 93 98 91 90 94 86 93 95 94 98 94 96 89 97 92 89 93 95 92 95 93 87 91 91 93 93 89 97 96 100 86 90 93 94 92 91 101 91 89 82 97 91 94 92 85 82 81 86 82 95 84 102 87 95 71 0 0
83 88 85 84 85 90 88 90 85 0 84 83 82 88 83 82 92 95 87 89 93 91 91 96 93 89 94 86 91 89 90 95 88 95 95 96 95 94 94 91 84 95 97 86 97 97 93 96 88 88 91 97 97 92 90 97 99 95 97 96 93 98 88 98 88 87 98 97 98 93 88 94 82 94 89 88 90 96 88 96 96 95 89 89 94 85 95 98 104 91 85 94 103 89 90 93 89 91 93 88 80 81 89 84 83 86 91 84 90 84 85 83 86 83 78 81 82 87 60 0
81 83 78 88 89 83 96 90 87 76 84 83 85 90 89 87 82 87 85 90 85 88 90 87 86 84 87 88 93 89 87 86 90 88 91 95 90 90 90 92 94 84 93 91 88 83 93 88 92 94 92 96 92 84 92 93 96 91 91 93 88 92 90 91 88 95 86 89 91 92 94 96 89 94 90 88 95 93 93 89 86 85 94 91 87 86 85 91 90 82 92 90 84 86 87 80 83 84 85 87 76 79 91 91 88 85 84 88 72 84 82 96 88 82 69 74 66 75 0 0
79 74 75 76 82 83 90 93 80 89 88 89 87 91 90 88 82 90 90 84 87 91 88 88 76 86 86 92 91 89 94 87 88 94 89 83 92 90 88 91 91 89 88 96 94 88 91 95 95 87 91 89 86 87 87 93 93 94 82 88 92 95 87 94 87 96 87 90 91 95 88 90 95 92 92 88 91 92 95 89 87 93 91 83 89 88 94 95 93 91 92 92 83 89 82 87 90 83 95 88 85 90 89 85 91 88 83 89 84 82 86 89 83 82 110 92 0 0 0 0
82 69 60 65 77 78 82 82 82 76 83 76 76 79 84 78 79 79 78 82 87 76 81 79 80 76 84 85 85 80 85 73 84 78 89 74 82 83 86 80 86 81 81 73 77 82 80 88 90 82 84 77 79 87 78 86 83 84 87 74 89 81 81 81 81 83 73 78 77 75 81 81 82 76 84 82 78 85 89 85 80 81 75 78 76 84 85 83 83 90 80 72 83 74 77 79 77 88 73 74 69 80 79 60 73 74 79 78 78 81 74 84 71 57 81 71 0 0 0 0
72 69 77 83 68 82 88 83 84 79 83 87 78 80 79 84 81 88 76 80 77 82 76 80 83 83 75 69 82 85 84 80 81 84 85 71 79 78 81 73 84 83 85 84 84 88 83 78 83 81 83 76 77 75 86 83 84 81 77 71 83 81 85 79 85 71 84 72 89 70 79 81 84 80 84 83 82 81 88 86 83 82 79 79 71 82 78 70 88 86 70 81 70 74 84 77 87 83 72 68 89 74 76 74 69 71 72 77 69 85 76 78 76 110 52 0 0 0 0 0
