0 0 0 0 0 0 0 0 0 0 0 0 0 0 0 0 0 0 0 0 0 0 0 0 0 0 0 0 0 0 0 0 0 0 0 0 0 0 0 0 0 0 0 0 0 0 0 0 0 0 0 0 0 0 0 0 0 0 0 0 0 0 0 0 0 0 0 0 0 0 0 0 0 0 0 0 0 0 0 0 0 0 0 0 0 0 0 0 0 0 0 0 0 0 0 0 0 0 0 0 0 0 0 0 0 0 0 0 0 0 0 0 0 0 0 0 0 0 0 0
0 0 0 0 0 0 0 0 0 0 0 0 0 0 0 0 0 0 0 0 0 0 0 0 0 0 0 0 0 0 0 0 0 0 0 0 0 0 0 0 0 0 0 0 0 0 0 0 0 0 0 0 0 0 0 0 0 0 0 0 0 0 0 0 0 0 0 0 0 0 0 0 0 0 0 0 0 0 0 0 0 0 0 0 0 0 0 0 0 0 0 0 0 0 0 0 0 0 0 0 0 0 0 0 0 0 0 0 0 0 0 0 0 0 0 0 0 0 0 0
0 0 0 0 0 0 0 0 0 0 0 0 0 0 0 0 0 1258 0 0 0 0 0 0 0 0 0 0 0 0 0 0 0 0 0 0 0 0 0 0 0 0 0 0 0 0 0 0 0 0 0 0 0 0 0 0 0 0 0 0 0 0 0 0 0 0 0 0 0 0 0 0 0 0 0 0 0 0 0 0 0 0 0 0 0 0 0 0 0 0 0 0 0 0 0 0 0 0 0 0 0 0 0 0 0 0 0 0 0 0 0 0 0 0 0 0 0 0 0 0
0 0 0 0 0 0 0 0 0 0 0 1101 1137 1143 1151 0 1282 1269 0 0 0 0 1236 0 0 0 0 0 0 0 0 0 0 0 0 0 0 0 0 0 0 0 0 0 0 0 0 0 0 0 0 0 0 0 0 0 0 0 0 0 0 0 0 0 0 0 0 0 0 0 0 0 0 0 0 0 0 0 0 0 0 0 0 0 0 0 0 0 0 0 0 0 0 0 0 0 0 0 0 0 0 0 0 0 0 0 0 0 0 0 0 0 0 0 0 0 0 0 0 0
0 0 0 0 0 0 0 0 1121 1142 1119 1127 1137 1179 1188 0 1252 1287 0 0 1250 1242 1270 0 0 0 0 0 0 0 0 0 0 0 0 0 0 0 0 0 0 0 0 0 0 0 0 0 0 0 0 0 0 0 0 0 0 0 0 0 0 0 0 0 0 0 0 0 0 0 0 0 0 0 0 0 0 0 0 0 0 0 0 0 0 0 0 0 0 0 0 0 0 0 0 0 0 0 0 0 0 0 0 0 0 0 0 0 0 0 0 0 0 0 0 0 0 0 0 0
0 0 0 0 0 0 1084 1111 1110 1148 1140 1154 1146 1178 1170 1170 1302 1266 1302 1294 1235 1241 1290 1293 0 0 0 0 0 0 0 0 0 0 0 0 0 0 0 0 0 0 0 0 0 0 0 0 0 0 0 0 0 0 0 0 0 0 0 0 0 0 0 0 0 0 0 0 0 0 0 0 0 0 0 0 0 0 0 0 0 0 0 0 0 0 0 0 0 0 0 0 0 0 0 0 0 0 0 0 0 0 0 0 0 0 0 0 0 0 0 0 0 0 0 0 0 0 0 0
0 0 0 0 0 0 0 0 0 0 0 0 1220 1245 1238 1240 1293 1299 1269 1278 1242 1236 1278 1279 1289 0 0 0 0 0 0 1410 0 0 0 0 0 0 0 0 0 0 0 0 0 0 0 0 0 0 0 0 0 0 0 0 0 0 0 0 0 0 0 0 0 0 0 0 0 0 0 0 0 0 0 0 0 0 0 0 0 0 0 0 0 0 0 0 0 0 0 0 0 0 0 0 0 0 0 0 0 0 0 0 0 0 0 0 0 0 0 0 0 0 0 0 0 0 0 0
0 0 0 0 0 0 0 0 0 0 0 0 1305 1278 1281 1303 1307 1286 1293 1276 1271 1278 1260 1309 0 1335 1395 1367 1368 1372 0 1404 0 0 0 0 0 0 0 0 0 0 0 0 0 0 0 0 0 0 0 0 0 0 0 0 0 0 0 0 0 0 0 0 0 0 0 0 0 0 0 0 0 0 0 0 0 0 0 0 0 0 0 0 0 0 0 0 0 0 0 0 0 0 0 0 0 0 0 0 0 0 0 0 0 0 0 0 0 0 0 0 0 0 0 0 0 0 0 0
0 0 0 0 0 0 0 0 0 0 0 0 1239 1270 1277 1293 1285 1259 1296 1253 1249 1275 1290 1281 0 0 1325 1359 1366 1395 1369 1379 0 0 0 0 0 0 0 0 0 0 0 0 0 0 0 0 0 0 0 0 0 0 0 0 0 0 0 0 0 0 0 0 0 0 0 0 0 0 0 0 0 0 0 0 0 0 0 0 0 0 0 0 0 0 0 0 0 0 0 0 0 0 0 0 0 0 0 0 0 0 0 0 0 0 0 0 0 0 0 0 0 0 0 0 0 0 0 0
0 0 0 0 0 0 0 0 0 0 0 0 0 1331 1295 1288 1304 1293 1272 1279 1259 1279 1291 1271 1285 0 0 1338 1362 1353 1381 1417 1430 0 0 0 0 0 0 0 0 0 0 0 0 0 0 0 0 0 0 0 0 0 0 0 0 0 0 0 0 0 0 0 0 0 0 0 0 0 0 0 0 0 0 0 0 0 0 0 0 0 0 0 0 0 0 0 0 0 0 0 0 0 0 0 0 0 0 0 0 0 0 0 0 0 0 0 0 0 0 0 0 0 0 0 0 0 0 0
0 0 0 0 0 0 0 0 0 0 0 0 0 0 0 0 0 0 0 0 0 1264 1266 1287 1273 0 0 1342 1350 1343 1347 1393 1432 0 0 0 0 0 0 0 0 0 0 0 0 0 0 0 0 0 0 0 0 0 0 0 0 0 0 0 0 0 0 0 0 0 0 0 0 0 0 0 0 0 0 0 0 0 0 0 0 0 0 0 0 0 0 0 0 0 0 0 0 0 0 0 0 0 0 0 0 0 0 0 0 0 0 0 0 0 0 0 0 0 0 0 0 0 0 0
0 0 0 0 0 0 0 0 0 0 0 0 0 0 0 0 0 0 0 0 0 0 0 0 1311 0 0 0 1327 1317 1348 1403 1419 0 0 0 0 0 0 0 0 0 0 0 0 0 0 0 0 0 0 0 0 0 0 0 0 0 0 0 0 0 0 0 0 0 0 0 0 0 0 0 0 0 0 0 0 0 0 0 0 0 0 0 0 0 0 0 0 0 0 0 0 0 0 0 0 0 0 0 0 0 0 0 0 0 0 1755 0 0 0 0 0 0 0 0 0 0 0 0
0 0 0 0 0 0 0 0 0 0 0 0 0 0 0 0 0 0 0 0 0 0 0 1386 1394 1300 1302 1334 1325 1336 1354 1394 1441 0 0 0 0 0 0 0 0 0 0 0 0 0 0 0 0 0 0 0 0 0 0 0 0 0 0 0 0 0 0 0 0 0 0 0 0 0 0 0 0 0 0 0 0 0 0 0 0 0 0 0 0 0 0 0 0 0 0 0 0 0 0 0 0 0 0 0 0 0 0 0 0 0 1806 1671 0 0 0 0 0 0 0 0 0 0 0 0
0 0 0 0 0 0 0 0 0 0 0 0 0 0 0 0 0 0 0 0 0 0 0 1350 1380 1380 1323 1310 1323 1306 1381 1408 1431 0 0 0 0 0 0 0 0 0 0 0 0 0 0 0 0 0 0 0 0 0 0 0 0 0 0 0 0 0 0 0 0 0 0 0 0 0 0 0 0 0 0 0 0 0 0 0 0 0 0 0 0 0 0 0 0 0 0 0 0 0 0 0 0 0 0 0 0 0 0 0 0 1780 1734 0 1702 0 0 0 0 0 0 0 0 0 0 0
0 0 0 0 0 0 0 0 0 0 0 0 0 0 0 0 0 0 0 0 0 0 0 1398 1373 1389 1357 1354 1324 1326 1349 1453 1410 0 0 0 0 0 0 0 0 0 0 0 0 0 0 0 0 0 0 0 0 0 0 0 0 0 0 0 0 0 0 0 0 0 0 0 0 0 0 0 0 0 0 0 0 0 0 0 0 0 0 0 0 0 0 0 0 0 0 0 0 0 0 0 0 0 0 0 0 0 0 0 0 1744 1707 0 1715 0 0 0 0 0 0 0 0 0 0 0
0 0 0 0 0 0 0 0 0 0 0 0 0 0 0 0 0 0 0 0 0 0 0 1383 1366 1405 1393 1378 1379 1339 1363 1422 1437 0 0 0 0 0 0 0 0 0 0 0 0 0 0 0 0 0 0 0 0 0 0 0 0 0 0 0 0 0 0 0 0 0 0 0 0 0 0 0 0 0 0 0 0 0 0 0 0 0 0 0 0 0 0 0 0 0 0 0 0 0 0 0 0 0 0 0 0 0 0 0 0 0 0 1739 1735 0 0 0 0 0 0 0 0 0 0 0
1234 1268 1260 1285 1268 1301 1329 0 0 0 0 0 0 0 0 0 0 0 0 0 0 0 0 0 1388 1360 1360 1386 1375 1364 1352 1424 1402 0 0 0 0 0 0 0 0 0 0 0 0 0 0 0 0 0 0 0 0 0 0 0 0 0 0 0 0 0 0 0 0 0 0 0 0 0 0 0 0 0 0 0 0 0 0 0 0 0 0 0 0 0 0 0 0 0 0 0 0 0 0 0 0 0 0 0 0 0 0 0 0 1762 1729 1735 1722 1709 0 0 0 0 0 0 0 0 0 0
1251 1258 1271 1266 1268 1296 1301 1302 1295 1301 1351 0 0 0 0 0 0 0 0 0 0 0 0 1372 1350 1357 1370 1348 1353 1354 1434 1415 1410 0 0 0 0 0 0 0 0 0 0 0 0 0 0 0 0 0 0 0 0 0 0 0 0 0 0 0 0 0 0 0 0 0 0 0 0 0 0 0 0 0 0 0 0 0 0 0 0 0 0 0 0 0 0 0 0 0 0 0 0 0 0 0 0 0 0 0 0 0 0 1753 1739 1791 1738 1767 1710 1678 1580 1622 0 0 0 0 0 0 0 0
1259 1263 1258 1286 1295 1298 1293 1296 1330 1334 1357 1348 1370 1392 1371 1405 0 0 0 0 0 0 0 0 0 1365 0 0 1358 0 0 1448 1425 0 0 0 0 0 0 0 0 0 0 0 0 0 0 0 0 0 0 0 0 0 0 0 0 0 0 0 0 0 0 0 0 0 0 0 0 0 0 0 0 0 0 0 0 0 0 0 0 0 0 0 0 0 0 0 0 0 0 0 0 0 0 0 0 0 0 0 0 0 0 1790 1780 1766 1721 1732 1739 1712 1628 1686 0 0 0 0 0 0 0 0
0 0 0 0 1289 1288 1301 1315 1304 1344 1332 1343 1377 1366 1397 1388 1427 1433 1454 1482 1467 0 0 0 0 0 0 0 0 0 0 1440 1434 1426 0 0 0 0 0 0 0 0 0 0 0 0 0 0 0 0 0 0 0 0 0 0 0 0 0 0 0 0 0 0 0 0 0 0 0 0 0 0 0 0 0 0 0 0 0 0 0 0 0 0 0 0 0 0 0 0 0 0 0 0 0 0 0 0 0 0 0 0 0 1753 1768 1716 1718 1667 1629 1639 0 0 0 0 0 0 0 0 0 0
0 0 0 0 0 0 0 0 0 1351 1357 1366 1380 1382 1380 1396 1408 1431 1415 1454 1488 1469 0 0 0 0 0 0 0 0 0 1433 1469 1488 0 0 0 0 0 0 0 0 0 0 0 0 0 0 0 0 0 0 0 0 0 0 0 0 0 0 0 0 0 0 0 0 0 0 0 0 0 0 0 0 0 0 0 0 0 0 0 0 0 0 0 0 0 0 0 0 0 0 0 0 0 0 0 0 0 0 0 1872 0 1772 1695 1647 1590 1591 1583 1598 1607 1588 1572 1600 1547 0 0 0 0 0
0 0 0 0 0 0 0 0 0 0 0 0 0 0 0 1397 1420 1444 1429 1455 1467 1477 0 0 0 0 0 0 0 0 0 0 1499 0 0 0 0 0 0 0 0 0 0 0 0 0 0 0 0 0 0 0 0 0 0 0 0 0 0 0 0 0 0 0 0 0 0 0 0 0 0 0 0 0 0 0 0 0 0 0 0 0 0 0 0 0 0 0 0 0 0 0 0 0 0 0 0 0 0 0 0 1786 1648 1607 1594 1614 1587 1595 1620 1591 1604 1567 1584 1592 1555 0 0 0 0 0
0 0 0 0 0 0 0 0 0 0 0 0 0 0 0 0 0 0 0 0 0 1430 0 0 0 0 0 0 0 0 0 0 0 0 0 0 0 0 0 0 0 0 0 0 0 0 0 0 0 0 0 0 0 0 0 0 0 0 0 0 0 0 0 0 0 0 0 0 0 0 0 0 0 0 0 0 0 0 0 0 0 0 0 0 0 0 0 0 0 0 0 0 0 0 0 0 0 0 0 0 0 1627 1612 1604 1627 1589 1597 1594 1591 1574 1592 1579 1571 1546 0 0 0 0 0 0
0 0 0 0 0 0 0 0 0 0 0 0 0 0 0 0 0 0 0 0 0 0 0 0 0 0 0 0 0 0 0 0 0 0 0 0 0 0 0 0 0 0 0 0 0 0 0 0 0 0 0 0 0 0 0 0 0 0 0 0 0 0 0 0 0 0 0 0 0 0 0 0 0 0 0 0 0 0 0 0 0 0 0 0 0 0 0 0 0 0 0 0 0 0 0 0 0 0 0 0 0 0 1627 1569 1595 1586 1616 1607 1598 1592 1559 1584 0 0 0 0 0 0 0 0
0 0 0 0 0 0 0 0 0 0 0 0 0 0 0 0 0 0 0 0 0 0 0 0 0 0 0 0 0 0 0 0 0 0 0 0 0 0 0 0 0 0 0 0 0 0 0 0 0 0 0 0 0 0 0 0 0 0 0 0 0 0 0 0 0 0 0 0 0 0 0 0 0 0 0 0 0 0 0 0 0 0 0 0 0 0 0 0 0 0 0 0 0 0 0 0 0 0 0 0 0 0 0 0 0 0 1604 1561 0 0 0 0 0 0 0 0 0 0 0 0
0 0 0 0 0 0 0 0 0 0 0 0 0 0 0 0 0 0 0 0 0 0 0 0 0 0 0 0 0 0 0 0 0 0 0 0 0 0 0 0 0 0 0 0 0 0 0 0 0 0 0 0 0 0 0 0 0 0 0 0 0 0 0 0 0 0 0 0 0 0 0 0 0 0 0 0 0 0 0 0 0 0 0 0 0 0 0 0 0 0 0 0 0 0 0 0 0 0 0 0 0 0 0 0 0 0 0 0 0 0 0 0 0 0 0 0 0 0 0 0
595 561 0 0 0 0 0 0 0 0 0 0 0 0 0 0 0 0 0 0 0 0 0 0 0 1859 1889 0 0 0 0 0 0 0 0 0 0 0 0 0 0 0 0 0 0 0 0 2921 2958 2937 2905 2887 2912 2874 2921 2927 2911 2897 2975 2867 2836 2873 2907 2876 2887 2945 0 0 0 0 0 0 0 0 0 0 0 0 0 0 0 0 0 0 0 0 0 0 0 0 0 0 0 0 0 0 1674 0 0 0 0 0 0 0 0 0 0 0 0 0 0 0 0 0 0 0 0 0 0 0
561 592 591 575 632 659 0 0 0 0 0 0 0 0 0 0 0 0 0 0 0 0 0 0 0 0 0 1953 1937 0 0 0 0 0 0 0 0 0 0 0 0 0 0 0 0 0 0 2895 2953 2889 2949 2976 2932 2903 2918 2927 2930 2931 2934 2892 2923 2919 2930 2907 2924 2877 0 0 0 0 0 0 0 0 0 0 0 0 0 0 0 0 0 0 0 0 0 0 0 0 0 0 0 0 0 0 0 0 0 0 0 0 0 0 0 0 0 0 0 0 0 0 0 0 0 0 0 0 0 0
585 573 571 582 615 633 631 636 648 0 0 0 0 0 0 0 0 0 0 0 0 0 0 0 0 0 0 0 0 0 0 0 0 0 0 0 0 0 0 0 0 0 0 0 0 0 0 2938 2958 2911 2952 2917 2869 2883 2891 2925 2896 2932 2908 2921 2923 2906 2873 2970 2958 0 0 0 0 0 0 0 0 0 0 0 0 0 0 0 0 0 0 0 0 0 0 0 0 0 0 0 0 0 0 0 0 0 0 0 0 0 0 0 0 0 0 0 0 0 0 0 0 0 0 0 0 0 0 0
582 582 579 601 623 632 629 643 651 676 670 699 0 0 0 0 0 0 0 0 0 0 0 0 0 0 0 0 0 0 0 0 0 0 0 0 0 0 0 0 0 0 0 0 0 0 0 2955 2889 2901 2921 2945 2915 2934 2862 2917 2926 2892 2905 2976 2888 2854 2884 2902 2897 2905 0 0 0 0 0 0 0 0 0 0 0 0 0 0 0 0 0 0 0 0 0 0 0 0 0 0 0 0 0 0 0 0 0 0 0 0 0 0 0 0 0 0 0 0 0 0 0 0 0 0 0 0 0 0
599 584 594 600 620 612 635 634 654 670 661 677 692 706 703 0 0 0 0 0 0 0 0 0 0 0 0 0 0 0 0 0 0 0 0 0 0 0 0 0 0 0 0 0 0 0 0 2887 2890 2920 2906 2882 2937 2955 2911 2926 2904 2938 2897 2918 2888 2922 2919 2852 2892 2954 0 0 0 0 0 0 0 0 0 0 0 0 0 0 0 0 0 0 0 0 0 0 0 0 0 0 0 0 0 0 0 0 0 0 0 0 0 0 0 0 0 0 0 0 1802 0 0 0 0 0 0 0 0 0
751 739 785 743 750 684 672 646 670 664 676 696 698 738 753 740 766 776 0 0 0 0 0 0 0 0 0 0 0 0 0 0 0 0 0 0 0 0 0 0 0 0 0 0 0 0 0 2898 2920 2937 2877 2931 2885 2919 2849 2885 2909 2917 2928 2901 2889 2890 2843 2887 2855 0 0 0 0 0 0 0 0 0 0 0 0 0 0 0 0 0 0 0 0 0 0 0 0 0 0 0 0 0 0 0 0 0 0 0 0 0 0 0 0 0 0 0 0 0 0 0 0 0 0 0 0 0 0 0
794 797 807 829 819 844 857 857 850 793 752 718 720 738 740 752 768 792 816 801 824 0 0 0 0 0 0 0 0 0 0 0 0 0 0 0 0 0 0 0 0 0 0 0 0 0 0 2910 2893 2937 2845 2897 2894 2900 2912 2939 2889 2908 2913 2893 2921 2891 2859 2874 2936 2853 0 0 0 0 0 0 0 0 0 0 0 0 0 0 0 0 0 0 0 0 0 0 0 0 0 0 0 0 0 0 0 0 0 0 0 0 0 0 0 0 0 0 0 0 0 0 0 0 0 0 0 0 0 0
779 813 810 840 851 856 879 877 902 940 908 945 933 903 860 799 753 774 791 822 837 861 855 919 0 0 0 0 0 0 0 0 0 0 0 0 0 0 0 0 0 0 0 0 0 0 0 2912 2866 2915 2922 2952 2887 2877 2911 2872 2877 2891 2902 2900 2876 2935 2881 2880 2908 2869 0 0 0 0 0 0 0 0 0 0 0 0 0 0 0 0 0 0 0 0 0 0 0 0 0 0 0 0 0 0 0 0 0 0 0 0 0 0 0 0 0 0 0 0 0 0 0 0 0 0 0 0 0 0
667 0 835 841 847 862 889 900 911 925 936 948 959 945 944 962 942 920 915 861 859 853 895 907 920 941 0 0 0 0 0 0 0 0 0 0 0 0 0 0 0 0 0 0 0 0 0 2895 2874 2925 2901 2921 2849 2890 2878 2848 2912 2886 2843 2915 2876 2875 2902 2884 2884 2882 0 0 0 0 0 0 0 0 0 0 0 0 0 0 0 0 0 0 0 0 0 0 0 0 0 0 0 0 0 0 0 0 0 0 0 0 0 0 0 0 0 0 0 0 0 0 0 0 0 0 0 0 0 0
690 956 950 948 937 950 917 942 913 904 923 944 955 944 952 950 958 947 950 947 952 924 916 903 920 932 974 986 1013 0 0 0 0 0 0 0 0 0 0 0 0 0 0 0 0 0 0 2914 2906 2902 2914 2948 2938 2929 2934 2935 2906 2941 2886 2864 2887 2901 2851 2876 2891 2860 0 0 0 0 0 0 0 0 0 0 0 0 0 0 0 0 0 0 0 0 0 0 0 0 0 0 0 0 0 0 0 0 0 0 0 0 0 0 0 0 0 0 0 0 0 0 0 0 0 0 0 0 0 0
594 0 0 0 0 0 0 0 0 0 957 988 988 990 990 984 979 950 963 965 953 967 955 927 965 968 960 1019 1015 1033 1069 0 0 0 0 0 0 0 0 0 0 0 0 0 0 0 0 2932 2898 2895 2900 2918 2913 2949 2897 2884 2970 2910 2912 2881 2875 2874 2896 2886 2919 2912 0 0 0 0 0 0 0 0 0 0 0 0 0 0 0 0 0 0 0 0 0 0 0 0 0 0 0 0 0 0 0 0 0 0 0 0 0 0 0 0 0 0 0 0 0 0 0 0 0 0 0 0 0 0
609 611 560 0 1123 1140 1141 1142 1143 1144 1143 1134 1134 1132 1141 1146 1112 1050 0 0 1016 1082 1068 984 985 1030 1109 1105 1104 1079 1091 0 0 0 0 0 0 0 0 0 0 0 0 0 0 0 0 2945 2978 2925 2877 2952 2991 2902 2901 2909 2910 2922 2915 2944 2868 2920 2938 2915 2878 2922 0 0 0 0 0 0 0 0 0 0 0 0 0 0 0 0 0 0 0 0 0 0 0 0 0 0 0 0 0 0 0 0 0 0 0 0 0 0 0 0 0 0 0 0 0 0 0 0 0 0 0 0 0 0
584 589 614 595 0 0 0 0 0 0 0 0 0 0 0 0 1426 1027 0 0 0 1188 1092 0 0 1126 1160 1159 1138 1150 1145 0 0 0 0 0 0 0 0 0 0 0 0 0 0 0 0 2913 2890 2936 2918 2914 2890 2932 2852 2910 2920 2895 2856 2881 2906 2863 2893 2890 2905 2875 0 0 0 0 0 0 0 0 0 0 0 0 0 0 0 0 0 0 0 0 0 0 0 0 0 0 0 0 0 0 0 0 0 0 0 0 0 0 0 0 0 0 0 0 0 0 0 0 0 0 0 0 0 0
610 606 584 608 621 0 0 0 0 0 0 0 0 0 0 0 0 970 945 0 0 0 0 0 0 0 0 0 0 0 0 0 0 0 0 0 0 0 0 0 0 0 0 0 0 0 0 2926 2909 2888 2927 2924 2946 2971 2935 2919 2936 2915 2878 2954 2923 2943 2897 2899 2904 0 0 0 0 0 0 0 0 0 0 0 0 0 0 0 0 0 0 0 0 0 0 0 0 0 0 0 0 0 0 0 0 0 0 0 0 0 0 0 0 0 0 0 0 0 0 0 0 0 0 0 0 0 0 0
588 604 636 608 614 651 0 0 0 0 0 0 0 0 0 0 0 0 0 0 0 0 0 0 0 0 0 0 0 0 0 0 0 0 0 0 0 0 0 0 0 0 0 0 0 0 0 2923 2888 2895 2909 2920 2884 2922 2875 2915 2887 2894 2911 2897 2908 2936 2875 2877 2864 0 0 0 0 0 0 0 0 0 0 0 0 0 0 0 0 0 0 0 0 0 0 0 0 0 0 0 0 0 0 0 0 0 0 0 0 0 0 0 0 0 0 0 0 0 0 0 0 0 0 0 0 0 0 0
567 571 619 618 598 609 0 0 0 0 0 0 0 0 0 0 0 0 0 0 0 0 0 0 0 0 0 0 0 0 0 0 0 0 0 0 0 0 0 0 0 0 0 0 0 0 0 2938 2929 2910 2911 2888 2912 2936 2940 2941 2886 2890 2930 2890 2928 2889 2914 2919 2906 2863 0 0 0 0 0 0 0 0 0 0 0 0 0 0 0 0 0 0 0 0 0 0 0 0 0 0 0 0 0 0 0 0 0 0 0 0 0 0 0 0 0 0 0 0 0 0 0 0 0 0 0 0 0 0
596 603 594 644 616 631 0 0 0 0 0 0 0 0 0 0 0 0 0 0 0 0 1000 0 0 0 0 0 0 0 0 0 0 0 0 0 0 0 0 0 0 0 0 0 0 0 0 2910 2884 2915 2919 2896 2896 2889 2933 2917 2873 2857 2891 2893 2884 2863 2882 2844 2920 0 0 0 0 0 0 0 0 0 0 0 0 0 0 0 0 0 0 0 0 0 0 0 0 0 0 0 0 0 0 0 0 0 0 0 0 0 0 0 0 0 0 0 0 0 0 0 0 0 0 0 0 0 0 0
570 586 590 607 605 583 658 0 0 0 0 0 0 0 0 0 0 0 0 0 0 0 968 0 0 0 0 0 0 0 0 0 0 0 0 0 0 0 0 0 0 0 0 0 0 0 0 2927 2892 2900 2853 2924 2907 2942 2923 2948 2923 2898 2916 2911 2901 2901 2914 2892 2890 2835 0 0 0 0 0 0 0 0 0 0 0 0 0 0 0 0 0 0 0 0 0 0 0 0 0 0 0 0 0 0 0 0 0 0 0 0 0 0 0 0 0 0 0 0 0 0 0 0 0 0 0 0 0 0
565 615 604 597 645 602 620 0 0 0 0 0 0 0 0 0 2251 0 0 0 0 0 956 982 0 0 0 0 0 0 0 0 0 0 0 0 0 0 0 0 0 0 0 0 0 0 0 2893 2929 2883 2900 2915 2865 2882 2853 2901 2913 2870 2886 2886 2928 2874 2866 2887 2893 2847 0 0 0 0 0 0 0 0 0 0 0 0 0 0 0 0 0 0 0 0 0 0 0 0 0 0 0 0 0 0 0 0 0 0 0 0 0 0 0 0 0 0 0 0 0 0 0 0 0 0 0 0 0 0
566 611 598 623 610 640 645 0 0 0 0 0 0 0 0 0 0 0 0 0 0 0 0 0 0 0 0 0 0 0 0 0 0 0 0 0 0 0 0 0 0 0 0 0 0 0 0 2850 2912 2889 2892 2888 2902 2910 2894 2868 2888 2851 2874 2863 2844 2876 2874 2855 2865 2848 0 0 0 0 0 0 0 0 0 0 0 0 0 0 0 0 0 0 0 0 0 0 0 0 0 0 0 0 0 0 0 0 0 0 0 0 0 0 0 0 0 0 0 0 0 0 0 0 0 0 0 0 0 0
590 581 638 619 618 621 0 0 0 0 0 0 0 0 0 0 0 0 0 0 0 0 0 0 0 0 0 0 0 0 0 0 0 0 0 0 0 0 0 0 0 0 0 0 0 0 0 0 0 0 0 0 0 0 0 0 0 0 0 0 0 0 3004 2885 2885 0 0 0 0 0 0 0 0 0 0 0 0 0 0 0 0 0 0 0 0 0 0 0 0 0 0 0 0 0 0 0 0 0 0 0 0 0 0 0 0 0 0 0 0 0 0 0 0 0 0 0 0 0 0 0
588 587 594 606 608 584 0 0 0 0 0 0 0 0 0 0 0 0 0 0 0 0 0 0 0 0 0 0 0 0 0 0 0 0 0 0 0 0 0 0 0 0 0 0 0 0 0 0 0 0 0 0 0 0 0 0 0 0 0 0 0 0 0 0 0 0 0 0 0 0 0 0 0 0 0 0 0 0 0 0 0 0 0 0 0 0 0 0 0 0 0 0 0 0 0 0 0 0 0 0 0 0 0 0 0 0 0 0 0 0 0 0 0 0 0 0 0 0 0 0
597 592 572 593 596 628 0 0 0 0 0 0 0 0 0 0 0 0 0 0 0 0 0 0 0 0 0 0 0 0 0 0 0 0 0 0 0 0 0 0 0 0 0 0 0 0 0 0 0 0 0 0 0 0 0 0 0 0 0 0 0 0 0 0 0 0 0 0 0 0 0 0 0 0 0 0 0 0 0 0 0 0 0 0 0 0 0 0 0 0 0 0 0 0 0 0 0 0 0 0 0 0 0 0 0 0 0 0 0 0 0 0 0 0 0 0 0 0 0 0
598 595 593 609 611 0 0 0 0 0 0 0 0 0 0 0 0 0 0 0 0 0 0 0 0 0 0 0 0 0 0 0 0 0 0 0 0 0 0 0 0 0 0 0 0 0 0 0 0 0 0 0 0 0 0 0 0 0 0 0 0 0 0 0 0 0 0 0 0 0 0 0 0 0 0 0 0 0 0 0 0 0 0 0 0 0 0 0 0 0 0 0 0 0 0 0 0 0 0 0 0 0 0 0 0 0 0 0 0 0 0 0 0 0 0 0 0 0 0 0
581 598 572 595 0 0 0 0 0 0 0 0 0 0 0 0 0 0 0 0 0 0 0 0 0 0 866 856 884 900 880 0 0 912 904 887 0 928 898 915 911 0 0 0 0 0 0 0 0 0 0 0 0 0 0 0 0 0 0 0 0 0 0 0 0 0 0 0 0 0 0 0 0 0 0 0 0 0 0 0 0 0 0 0 0 0 0 0 0 0 0 0 0 0 0 0 0 0 0 0 0 0 0 0 0 0 0 0 0 0 0 0 0 0 0 0 0 0 0 0
585 587 0 0 0 0 685 678 711 701 673 674 728 725 714 685 696 685 722 725 707 743 699 662 696 729 697 688 717 674 720 760 728 717 694 724 714 735 725 726 754 707 766 764 714 745 726 798 771 724 787 798 804 786 783 774 738 804 770 795 775 766 792 815 753 799 806 703 811 750 772 795 772 0 736 0 0 0 0 0 0 0 0 0 0 0 0 0 0 0 0 0 0 0 0 0 0 0 0 0 0 0 0 0 0 0 0 0 0 0 0 0 0 0 0 0 0 0 0 0
583 607 603 588 599 606 576 617 569 609 594 577 583 586 595 562 557 594 601 616 596 568 590 584 571 612 611 579 587 613 609 641 585 593 574 602 584 616 619 628 633 611 626 608 635 603 586 612 621 621 631 621 643 615 647 615 612 617 633 619 638 588 655 674 647 668 643 671 621 667 641 672 639 664 622 665 653 675 704 658 687 660 710 629 677 684 653 715 687 691 624 691 725 679 710 0 696 682 711 751 726 720 0 0 0 0 0 0 0 0 0 0 0 0 0 0 0 0 0 0
530 525 478 473 485 485 480 479 497 489 496 484 496 491 488 480 496 507 506 510 497 487 493 508 487 501 501 506 508 502 508 511 500 503 506 509 507 512 516 505 510 533 533 510 519 520 505 552 513 521 528 546 537 534 514 524 543 528 528 530 532 538 533 532 554 527 520 548 523 536 541 568 541 531 517 554 573 543 555 507 557 553 539 565 531 546 587 552 583 576 567 557 562 542 570 594 556 570 549 577 556 572 588 556 0 518 0 612 587 572 0 0 0 0 0 0 0 0 0 0
421 427 411 438 418 450 421 454 448 411 440 436 449 451 465 437 441 461 447 445 470 468 449 455 451 437 457 444 448 447 452 451 461 454 453 451 469 464 474 458 459 459 469 472 470 459 468 462 466 474 467 480 469 473 443 458 482 476 453 479 469 470 489 493 488 476 493 480 476 488 493 484 491 505 474 490 481 510 490 484 501 489 494 487 498 484 485 479 508 490 484 503 480 486 487 474 497 487 487 472 489 502 497 484 533 494 542 455 498 495 504 510 0 0 0 0 0 0 0 0
397 370 395 403 394 400 393 392 397 382 395 386 394 413 399 399 397 392 389 388 406 398 413 407 413 424 419 402 415 417 400 415 402 410 418 416 405 414 408 420 418 410 423 411 414 413 417 417 419 415 429 430 428 412 424 418 420 422 427 417 429 419 419 428 438 436 419 422 427 415 428 426 434 426 428 417 429 424 429 439 425 439 441 427 432 448 433 434 431 431 440 424 445 428 428 426 406 428 436 434 435 442 445 439 423 472 419 434 446 439 433 447 443 433 0 0 0 0 0 0
340 359 355 359 330 373 364 357 349 367 368 349 369 374 376 353 368 372 367 362 373 352 380 376 373 359 381 373 364 376 371 393 361 374 375 362 377 371 365 369 358 381 377 374 373 375 391 383 378 394 378 385 375 380 385 381 378 393 376 392 378 383 390 386 383 387 386 388 380 393 391 388 397 392 387 384 399 395 392 402 394 391 393 382 398 395 399 393 386 400 395 386 376 399 387 410 382 398 401 403 401 387 403 377 412 406 418 393 395 390 394 401 378 414 417 409 0 0 0 0
322 307 343 329 342 312 351 340 345 345 352 344 342 346 338 356 348 314 333 341 327 340 320 350 336 343 335 347 353 355 337 346 345 348 336 353 347 341 332 344 341 354 337 334 353 332 340 347 337 358 353 336 348 345 327 338 344 343 338 359 349 357 336 354 354 343 351 350 346 345 359 351 353 341 350 348 355 347 338 350 353 357 355 352 345 350 363 336 343 355 358 356 358 362 360 349 349 352 344 367 372 349 352 354 367 338 364 370 371 336 373 357 356 356 363 348 360 0 0 0
292 296 303 289 293 286 291 308 306 295 306 306 295 282 288 300 309 305 304 307 306 304 302 309 279 302 302 303 292 315 300 299 305 309 311 306 302 304 316 305 302 309 310 310 310 308 315 305 319 309 307 301 311 307 323 319 310 316 310 309 312 314 310 316 308 310 314 310 317 308 311 327 314 325 312 323 325 305 325 324 312 319 310 330 324 337 319 329 321 316 304 325 322 326 327 327 326 332 317 341 324 314 351 346 350 330 326 329 330 324 320 310 332 326 326 349 329 326 358 0
264 277 272 273 267 280 280 275 273 283 273 272 283 279 278 287 275 270 279 276 278 270 274 273 273 279 272 279 287 275 283 287 279 280 282 282 283 282 283 279 286 282 285 281 278 282 281 285 283 289 290 285 281 287 285 280 281 289 279 292 286 287 283 293 288 284 285 292 296 290 281 286 288 288 292 280 286 284 288 283 284 283 286 296 296 284 289 291 293 288 297 281 295 294 302 289 290 301 300 293 298 282 308 291 283 278 295 295 283 293 325 286 288 281 282 255 277 297 262 297
256 247 255 255 254 251 261 257 254 247 248 250 251 248 259 249 259 261 255 261 257 255 256 256 256 262 258 258 252 252 257 259 251 261 261 266 260 270 265 263 264 256 263 268 263 260 262 258 262 261 266 262 264 266 266 264 266 264 259 261 274 262 264 259 274 266 273 265 272 263 267 264 270 271 267 262 266 264 262 265 258 248 264 271 268 267 265 267 261 262 259 271 270 268 264 267 261 277 274 275 267 269 260 261 272 277 271 276 282 285 257 282 266 289 267 257 275 272 281 256
234 229 236 237 243 235 236 230 239 234 229 236 243 245 238 247 236 239 248 244 238 241 239 238 242 238 242 238 244 240 239 248 248 251 241 250 246 249 251 247 238 242 245 239 244 249 243 247 243 253 249 247 247 250 247 248 245 243 248 251 250 245 248 252 251 252 247 247 251 249 252 245 251 250 244 255 249 252 248 254 247 250 247 256 247 253 249 248 247 248 257 252 247 250 240 265 252 249 250 248 256 249 256 253 245 251 253 249 243 256 243 240 257 263 256 259 251 279 252 257
220 216 215 216 224 226 226 216 223 216 221 228 226 229 224 221 222 225 224 228 225 225 230 229 226 228 225 229 219 230 232 223 229 230 235 239 233 217 227 240 233 232 233 235 233 225 227 231 235 234 233 232 231 231 227 230 229 231 234 231 231 234 234 238 239 229 233 238 237 234 234 233 231 234 230 238 242 235 231 232 231 232 229 231 233 227 240 238 234 227 236 231 234 230 237 233 234 230 243 241 234 240 232 234 237 233 236 238 238 238 233 238 225 237 238 233 243 210 228 232
201 202 220 215 211 203 208 208 207 212 204 213 212 221 216 215 208 207 212 213 216 207 214 195 209 212 210 212 209 213 214 216 215 215 210 198 213 202 212 215 200 219 217 219 218 217 201 202 216 222 218 205 219 201 207 218 206 200 219 206 223 221 222 221 222 224 221 222 203 219 217 220 220 203 220 211 225 218 220 220 223 222 221 222 220 219 228 222 213 216 215 223 221 216 200 218 220 218 223 215 215 224 221 215 210 222 222 222 217 225 230 219 214 237 214 209 217 216 228 222
195 201 197 195 208 200 200 204 186 183 201 202 186 209 204 202 190 191 195 205 206 189 193 207 186 191 190 192 188 195 190 191 189 185 196 193 192 189 194 198 198 196 198 190 200 195 200 216 197 195 196 198 194 198 192 200 199 201 194 203 192 191 199 196 189 197 193 202 193 199 197 197 199 190 198 193 198 190 192 194 188 214 202 190 213 203 198 188 210 197 194 209 207 211 195 184 208 194 212 213 212 216 211 198 220 192 205 211 210 210 204 201 210 202 191 204 196 175 198 169
180 178 193 178 179 181 180 183 184 178 183 176 178 179 182 181 182 188 183 190 180 185 186 187 179 181 193 190 190 194 191 190 191 193 186 194 197 190 190 187 196 199 200 190 199 196 193 189 199 197 198 197 197 196 194 199 194 195 197 202 198 198 195 200 191 198 197 197 200 199 198 195 190 194 196 198 200 195 191 196 196 193 190 194 184 191 192 195 185 195 193 193 190 184 190 187 181 181 193 181 184 191 188 192 195 180 183 189 205 205 189 183 185 199 182 173 185 187 201 195
175 178 175 179 175 174 175 187 173 178 184 175 176 182 184 182 183 186 183 187 179 184 185 187 183 187 183 193 188 190 190 187 184 183 189 187 188 184 186 184 183 185 189 193 190 193 187 193 186 188 190 189 189 189 192 189 191 192 186 195 189 186 190 191 193 190 191 184 192 190 193 190 189 187 186 186 189 189 190 187 195 190 184 193 190 192 187 187 188 191 183 188 190 187 181 188 182 181 185 180 180 182 187 178 185 179 185 183 182 174 181 181 202 184 172 174 172 183 182 187
171 166 163 169 169 168 168 173 167 170 167 176 168 168 175 174 175 175 179 176 174 177 176 169 170 168 174 173 170 181 178 178 177 170 177 171 173 171 177 180 177 177 179 174 179 179 180 185 179 185 183 180 179 178 179 179 177 180 175 178 174 176 177 184 176 182 181 182 183 178 180 182 175 177 183 177 181 179 180 183 184 183 172 173 185 177 177 178 180 182 176 174 182 174 180 176 177 183 185 180 180 181 182 185 180 181 171 173 170 173 169 171 180 167 179 172 177 175 168 170
165 165 164 165 160 168 157 158 165 163 166 167 165 169 165 173 166 169 171 173 166 163 165 166 170 162 171 165 175 173 169 169 170 165 166 166 168 168 166 170 172 168 170 169 174 173 173 171 171 169 169 175 171 172 178 172 170 173 175 172 171 180 174 169 170 173 174 170 171 169 175 173 170 170 168 168 179 175 173 168 160 168 172 171 170 172 174 170 178 170 173 173 171 174 166 170 172 171 168 170 171 173 174 180 177 170 179 166 172 160 170 166 169 177 173 174 171 161 163 174
157 160 165 161 165 164 166 156 152 156 160 156 161 160 163 163 164 158 166 166 160 163 165 161 163 167 161 158 157 165 163 166 164 165 159 164 165 157 159 160 161 166 166 164 165 167 165 160 159 163 164 166 164 168 169 165 165 162 165 165 166 171 165 164 166 164 165 164 162 163 161 157 166 164 160 168 171 167 164 163 163 161 168 160 164 162 164 162 162 163 162 164 162 159 162 166 158 157 167 169 167 166 153 165 160 164 163 159 161 156 156 170 159 159 171 163 169 151 158 175
148 147 148 152 151 151 149 154 151 157 150 151 150 150 155 152 152 165 158 162 154 154 156 158 157 152 145 164 156 161 156 154 156 158 154 159 153 156 151 158 154 152 161 160 160 153 160 154 157 154 158 156 163 158 155 154 155 156 159 161 164 153 162 160 155 159 153 152 152 160 157 163 159 156 162 163 165 164 156 151 156 160 157 157 153 157 159 158 157 160 157 154 155 158 157 152 152 156 156 158 158 153 161 155 153 150 153 153 154 162 149 161 152 155 148 152 158 153 148 141
136 145 147 141 145 146 144 149 147 144 146 147 147 146 151 140 144 152 137 149 150 146 150 151 151 154 147 151 152 145 147 148 146 145 147 149 150 152 149 150 151 151 150 151 149 152 149 148 151 150 150 150 151 149 152 149 151 151 155 156 155 154 153 152 150 152 154 150 153 148 152 153 151 156 149 154 160 159 157 152 152 151 153 150 154 149 152 156 152 154 154 148 157 156 157 149 148 145 155 154 157 158 159 156 151 148 147 146 153 148 153 152 147 151 153 142 145 156 158 134
135 137 138 136 138 137 135 143 140 139 142 142 142 142 138 140 142 137 142 143 141 146 143 146 139 142 150 144 144 138 137 141 146 140 141 145 142 146 143 147 147 148 145 146 147 143 142 139 142 146 142 146 134 145 148 146 147 152 148 146 145 140 144 147 147 147 150 147 143 149 142 145 145 150 147 147 149 149 152 145 142 145 143 141 140 140 150 148 151 145 147 143 148 145 148 150 142 144 150 146 147 143 150 143 143 141 143 144 136 144 141 139 140 136 147 146 146 145 141 148
127 135 132 132 134 138 140 142 139 140 138 0 133 137 131 138 137 140 138 138 145 143 142 135 142 144 146 139 139 140 137 127 129 130 139 131 140 141 139 142 141 147 141 141 142 143 132 130 130 126 142 143 135 141 136 141 145 142 148 132 133 133 133 145 144 131 142 143 142 139 131 140 130 145 143 145 143 145 142 141 144 139 130 128 146 139 143 139 140 141 130 144 145 142 140 139 138 144 145 142 136 138 139 139 139 135 133 140 148 137 139 141 133 133 137 134 143 125 111 135
133 130 126 130 133 138 145 136 132 136 133 136 139 138 137 135 136 136 138 133 139 144 143 137 140 134 138 138 139 125 128 125 140 130 130 126 127 130 138 125 140 142 128 138 0 140 132 127 128 124 127 127 131 135 0 143 0 133 132 132 127 131 133 134 130 128 140 129 144 139 131 131 130 142 130 127 141 141 133 132 138 142 129 137 126 138 141 125 127 142 126 138 137 140 135 135 138 137 142 141 138 123 137 140 133 132 129 134 120 135 139 133 134 135 145 136 131 139 156 131
114 98 123 109 126 131 138 131 116 110 121 117 114 125 120 123 132 132 132 121 120 129 130 127 126 139 137 138 0 129 131 121 123 119 118 119 132 125 124 117 128 126 128 127 0 0 127 128 128 121 122 121 130 128 128 126 133 129 128 114 126 126 126 125 121 127 126 132 125 131 128 125 124 121 114 120 120 139 123 125 132 127 127 129 119 132 117 125 123 128 128 129 127 122 120 121 133 136 136 125 130 116 124 124 119 118 117 118 130 128 116 133 127 142 131 125 109 136 93 92
104 112 110 102 109 118 133 117 116 118 119 120 123 119 117 110 115 122 118 117 124 122 126 124 123 114 131 128 126 125 130 0 124 123 120 116 121 121 0 122 127 125 0 0 0 0 123 127 124 120 123 122 123 123 122 127 120 123 121 121 127 120 116 123 123 125 127 123 119 123 124 125 127 123 121 116 120 127 128 122 120 118 123 122 121 122 127 114 126 127 118 117 117 127 119 120 134 126 120 120 124 112 122 113 110 114 120 116 123 136 128 136 131 136 123 108 131 127 114 132
107 100 117 117 113 110 115 118 113 113 122 120 115 109 112 111 121 111 112 123 114 109 108 116 117 110 119 117 115 124 123 0 122 119 116 113 117 0 114 116 120 0 0 121 124 0 121 119 113 112 116 115 119 119 119 121 119 123 114 120 121 120 120 119 118 120 117 119 122 115 116 114 112 116 115 115 119 114 113 122 113 117 108 118 117 112 114 119 112 120 116 118 123 115 107 119 122 120 109 113 115 123 117 110 113 115 117 119 108 123 124 128 116 116 117 113 112 103 97 149
89 104 109 104 99 105 117 112 108 109 108 104 108 109 120 116 111 112 107 107 115 105 110 108 111 109 114 118 111 119 118 115 113 114 114 110 108 114 0 113 114 113 112 107 115 114 118 0 112 0 115 112 120 117 0 0 107 107 119 114 127 118 110 115 107 113 105 107 114 110 115 104 112 107 107 105 103 111 109 114 108 106 106 111 111 103 110 103 107 116 107 106 97 110 107 114 113 115 106 105 102 109 114 103 106 109 97 117 111 116 111 103 100 110 96 96 93 95 93 76
103 98 110 113 107 104 109 106 111 109 107 115 111 111 118 118 113 111 109 97 111 102 102 101 115 106 108 112 103 112 109 111 110 105 112 112 114 0 111 101 107 105 111 102 102 105 107 109 114 0 109 110 111 113 109 115 104 110 109 108 103 107 119 0 113 108 109 110 112 112 106 99 107 110 105 103 98 103 103 112 107 105 110 111 100 106 102 111 107 102 103 109 100 95 97 103 108 113 111 107 97 116 110 112 105 102 108 112 96 118 114 105 107 105 115 118 104 116 115 128
87 89 108 106 96 93 97 96 99 91 97 100 101 97 102 104 102 103 96 100 104 101 95 99 102 98 103 99 100 103 112 107 106 99 106 101 103 104 106 109 104 104 95 100 103 100 105 100 104 100 107 106 106 100 98 110 104 104 104 99 104 111 107 0 109 104 0 109 101 106 102 104 100 108 103 108 99 103 0 101 0 103 97 102 94 103 97 99 103 101 101 105 96 97 99 94 95 99 98 93 101 95 103 104 106 107 93 95 102 90 96 99 98 114 107 90 107 91 97 118
95 92 92 95 96 94 96 93 97 100 96 98 102 99 102 100 93 102 102 99 100 95 102 89 97 99 102 98 103 98 104 103 104 101 102 103 100 102 102 99 99 102 94 94 99 103 101 101 104 104 115 99 100 102 100 98 104 107 105 103 107 102 106 105 113 105 103 106 107 101 102 108 104 103 99 98 99 96 101 98 0 104 94 93 98 98 99 104 96 97 102 99 97 102 96 103 90 95 87 103 98 92 98 92 99 109 94 98 104 102 90 91 104 104 98 105 115 81 89 88
94 97 86 96 94 95 91 84 80 91 92 96 93 93 88 85 91 94 104 100 97 96 83 90 93 87 98 95 94 103 99 101 103 98 97 100 94 93 94 106 96 89 95 88 99 93 99 99 92 103 103 96 99 95 95 100 96 92 98 97 99 97 98 0 93 105 96 94 99 97 98 100 96 101 86 105 100 98 102 102 97 99 93 103 99 94 91 91 87 89 98 90 93 84 88 86 90 85 101 89 95 97 102 90 99 93 95 79 92 92 86 91 90 92 98 90 126 102 80 79
81 78 81 79 88 86 89 89 81 89 91 87 93 90 87 91 88 87 82 81 91 87 92 89 95 89 97 90 91 96 87 90 97 93 88 93 86 88 89 89 86 95 98 91 99 99 91 90 99 98 99 97 97 96 97 90 97 92 97 92 87 93 89 92 95 90 91 90 93 98 87 96 96 99 85 93 90 88 93 89 98 89 91 91 95 89 92 91 91 92 87 89 91 90 91 93 93 92 85 89 90 83 91 92 86 83 86 88 89 89 81 83 77 88 88 86 73 87 84 71
88 78 80 89 88 89 90 98 86 88 85 93 85 86 91 92 89 92 92 94 92 94 93 95 91 91 94 92 87 86 92 88 96 92 98 95 95 88 91 93 89 92 96 93 94 98 92 94 90 96 97 89 95 90 92 93 98 90 95 97 99 88 99 92 90 95 99 99 99 87 91 87 99 93 99 91 94 92 90 92 94 90 95 95 94 87 91 92 96 91 98 95 99 90 93 88 93 82 93 102 91 90 91 96 84 88 88 91 89 81 86 87 85 90 94 88 112 86 0 0
81 88 89 82 87 86 85 90 82 0 85 87 83 87 83 81 93 93 85 92 89 92 92 94 89 90 89 84 90 89 91 89 94 95 93 92 95 94 92 88 90 97 97 89 88 95 92 87 89 89 91 93 95 96 95 96 98 94 96 91 98 84 92 98 91 89 94 94 96 90 97 95 90 93 93 94 85 94 95 95 94 95 89 91 94 87 83 98 95 94 90 94 104 88 88 92 91 85 93 92 92 80 91 88 82 86 88 90 94 85 88 92 85 78 82 78 84 71 87 0
80 78 75 85 83 89 95 85 88 76 80 79 91 86 83 86 86 87 83 93 87 92 91 84 85 84 86 83 91 87 87 86 90 86 90 93 93 89 89 90 90 88 91 90 96 84 93 96 91 87 92 96 85 83 96 89 93 94 91 94 91 92 92 89 86 96 86 89 94 93 90 97 94 91 88 85 93 92 92 85 92 87 91 89 89 91 87 85 88 92 92 90 84 86 81 84 85 81 86 90 79 78 92 88 87 83 88 85 78 85 82 78 83 82 74 82 82 91 0 0
79 78 77 75 82 84 90 95 81 87 82 91 90 86 91 89 84 88 87 86 91 88 88 87 83 84 83 86 86 91 92 84 89 89 94 82 93 88 83 88 91 84 89 93 93 91 95 88 95 96 91 83 85 87 87 91 91 95 84 90 98 93 83 94 91 98 92 89 88 96 90 89 90 94 90 89 91 93 97 88 90 87 84 81 90 93 89 87 92 87 89 88 83 85 85 84 90 93 92 83 80 91 86 82 82 90 87 86 85 79 89 92 95 72 105 102 0 0 0 0
76 72 61 65 79 74 81 84 82 76 85 75 80 88 83 74 76 76 82 79 83 77 86 75 77 75 81 86 86 77 91 74 84 83 89 75 82 80 81 78 88 80 81 71 81 82 85 81 80 83 79 76 77 84 77 76 84 85 90 80 90 83 77 79 82 81 74 83 78 75 84 78 82 77 84 84 76 83 87 85 79 83 71 76 78 84 77 80 78 80 80 69 79 75 84 77 74 88 71 78 69 73 74 64 70 75 74 75 61 81 74 83 80 87 84 82 0 0 0 0
71 66 77 76 70 84 87 88 84 80 84 88 73 80 79 80 80 83 76 77 79 74 73 84 82 83 77 74 79 76 83 81 84 78 84 75 83 75 79 81 94 83 85 86 85 90 85 81 81 83 84 75 74 78 84 73 84 81 86 74 86 78 79 82 87 83 81 72 86 79 75 80 85 79 85 78 82 91 86 89 83 84 76 82 68 81 83 64 83 79 75 86 73 71 80 82 89 76 71 72 90 74 72 75 77 78 73 81 85 90 77 53 68 93 89 0 0 0 0 0
