0 0 0 0 0 0 0 0 0 0 0 0 0 0 0 0 0 0 0 0 0 0 0 0 0 0 0 0 0 0 0 0 0 0 0 0 0 0 0 0 0 0 0 0 0 0 0 0 0 0 0 0 0 0 0 0 0 0 0 0 0 0 0 0 0 0 0 0 0 0 0 0 0 0 0 0 0 0 0 0 0 0 0 0 0 0 0 0 0 0 0 0 0 0 0 0 0 0 0 0 0 0 0 0 0 0 0 0 0 0 0 0 0 0 0 0 0 0 0 0
0 0 0 0 0 0 0 0 0 0 0 0 0 0 0 0 0 0 0 0 0 0 0 0 0 0 0 0 0 0 0 0 0 0 0 0 0 0 0 0 0 0 0 0 0 0 0 0 0 0 0 0 0 0 0 0 0 0 0 0 0 0 0 0 0 0 0 0 0 0 0 0 0 0 0 0 0 0 0 0 0 0 0 0 0 0 0 0 0 0 0 0 0 0 0 0 0 0 0 0 0 0 0 0 0 0 0 0 0 0 0 0 0 0 0 0 0 0 0 0
0 0 0 0 0 0 0 0 0 0 0 0 0 0 0 0 0 1307 0 0 0 0 1300 0 0 0 0 0 0 0 0 0 0 0 0 0 0 0 0 0 0 0 0 0 0 0 0 0 0 0 0 0 0 0 0 0 0 0 0 0 0 0 0 0 0 0 0 0 0 0 0 0 0 0 0 0 0 0 0 0 0 0 0 0 0 0 0 0 0 0 0 0 0 0 0 0 0 0 0 0 0 0 0 0 0 0 0 0 0 0 0 0 0 0 0 0 0 0 0 0
0 0 0 0 0 0 0 0 0 0 0 1115 1126 1117 1140 0 1248 1248 0 0 0 0 1239 0 0 0 0 0 0 0 0 0 0 0 0 0 0 0 0 0 0 0 0 0 0 0 0 0 0 0 0 0 0 0 0 0 0 0 0 0 0 0 0 0 0 0 0 0 0 0 0 0 0 0 0 0 0 0 0 0 0 0 0 0 0 0 0 0 0 0 0 0 0 0 0 0 0 0 0 0 0 0 0 0 0 0 0 0 0 0 0 0 0 0 0 0 0 0 0 0
0 0 0 0 0 0 0 1133 1132 1135 1154 1133 1127 1162 1143 1152 1253 1280 1306 1311 1243 1267 1277 0 0 0 0 0 0 0 0 0 0 0 0 0 0 0 0 0 0 0 0 0 0 0 0 0 0 0 0 0 0 0 0 0 0 0 0 0 0 0 0 0 0 0 0 0 0 0 0 0 0 0 0 0 0 0 0 0 0 0 0 0 0 0 0 0 0 0 0 0 0 0 0 0 0 0 0 0 0 0 0 0 0 0 0 0 0 0 0 0 0 0 0 0 0 0 0 0
0 0 0 0 0 0 0 1127 1117 1137 0 0 1187 1162 1191 1231 1279 1278 1280 1262 1263 1262 1257 1261 0 0 0 0 0 0 0 0 0 0 0 0 0 0 0 0 0 0 0 0 0 0 0 0 0 0 0 0 0 0 0 0 0 0 0 0 0 0 0 0 0 0 0 0 0 0 0 0 0 0 0 0 0 0 0 0 0 0 0 0 0 0 0 0 0 0 0 0 0 0 0 0 0 0 0 0 0 0 0 0 0 0 0 0 0 0 0 0 0 0 0 0 0 0 0 0
0 0 0 0 0 0 0 0 0 0 0 0 1229 1247 1244 1236 1297 1320 1286 1293 1275 1270 1250 1266 1311 0 0 0 0 0 0 1415 0 0 0 0 0 0 0 0 0 0 0 0 0 0 0 0 0 0 0 0 0 0 0 0 0 0 0 0 0 0 0 0 0 0 0 0 0 0 0 0 0 0 0 0 0 0 0 0 0 0 0 0 0 0 0 0 0 0 0 0 0 0 0 0 0 0 0 0 0 0 0 0 0 0 0 0 0 0 0 0 0 0 0 0 0 0 0 0
0 0 0 0 0 0 0 0 0 0 0 0 1226 1265 1276 1270 1292 1278 1301 1283 1266 1278 1276 1289 1319 1335 1353 1381 1359 1351 0 1409 0 0 0 0 0 0 0 0 0 0 0 0 0 0 0 0 0 0 0 0 0 0 0 0 0 0 0 0 0 0 0 0 0 0 0 0 0 0 0 0 0 0 0 0 0 0 0 0 0 0 0 0 0 0 0 0 0 0 0 0 0 0 0 0 0 0 0 0 0 0 0 0 0 0 0 0 0 0 0 0 0 0 0 0 0 0 0 0
0 0 0 0 0 0 0 0 0 0 0 0 1263 1274 1269 1291 1295 1264 1277 1293 1283 1260 1261 1272 0 0 1347 1319 1345 1353 1373 1426 0 0 0 0 0 0 0 0 0 0 0 0 0 0 0 0 0 0 0 0 0 0 0 0 0 0 0 0 0 0 0 0 0 0 0 0 0 0 0 0 0 0 0 0 0 0 0 0 0 0 0 0 0 0 0 0 0 0 0 0 0 0 0 0 0 0 0 0 0 0 0 0 0 0 0 0 0 0 0 0 0 0 0 0 0 0 0 0
0 0 0 0 0 0 0 0 0 0 0 0 0 0 1274 1277 1278 1259 1284 1270 1267 1257 1241 1269 1266 0 1294 1340 1361 1389 1346 1405 0 0 0 0 0 0 0 0 0 0 0 0 0 0 0 0 0 0 0 0 0 0 0 0 0 0 0 0 0 0 0 0 0 0 0 0 0 0 0 0 0 0 0 0 0 0 0 0 0 0 0 0 0 0 0 0 0 0 0 0 0 0 0 0 0 0 0 0 0 0 0 0 0 0 0 0 0 0 0 0 0 0 0 0 0 0 0 0
0 0 0 0 0 0 0 0 0 0 0 0 0 0 0 0 0 0 0 0 0 1271 1260 1265 1234 0 0 1324 1365 1354 1367 1386 1407 0 0 0 0 0 0 0 0 0 0 0 0 0 0 0 0 0 0 0 0 0 0 0 0 0 0 0 0 0 0 0 0 0 0 0 0 0 0 0 0 0 0 0 0 0 0 0 0 0 0 0 0 0 0 0 0 0 0 0 0 0 0 0 0 0 0 0 0 0 0 0 0 0 0 0 0 0 0 0 0 0 0 0 0 0 0 0
0 0 0 0 0 0 0 0 0 0 0 0 0 0 0 0 0 0 0 0 0 0 0 1350 1317 0 0 1363 1353 1336 1344 1380 1379 0 0 0 0 0 0 0 0 0 0 0 0 0 0 0 0 0 0 0 0 0 0 0 0 0 0 0 0 0 0 0 0 0 0 0 0 0 0 0 0 0 0 0 0 0 0 0 0 0 0 0 0 0 0 0 0 0 0 0 0 0 0 0 0 0 0 0 0 0 0 0 0 0 0 1723 1686 0 0 0 0 0 0 0 0 0 0 0
0 0 0 0 0 0 0 0 0 0 0 0 0 0 0 0 0 0 0 0 0 0 0 1379 1364 1306 1315 0 1310 1373 1366 1408 1420 0 0 0 0 0 0 0 0 0 0 0 0 0 0 0 0 0 0 0 0 0 0 0 0 0 0 0 0 0 0 0 0 0 0 0 0 0 0 0 0 0 0 0 0 0 0 0 0 0 0 0 0 0 0 0 0 0 0 0 0 0 0 0 0 0 0 0 0 0 0 0 0 0 1785 1679 0 0 0 0 0 0 0 0 0 0 0 0
0 0 0 0 0 0 0 0 0 0 0 0 0 0 0 0 0 0 0 0 0 0 0 1410 1377 1383 1336 1312 1339 1346 1346 1403 1456 0 0 0 0 0 0 0 0 0 0 0 0 0 0 0 0 0 0 0 0 0 0 0 0 0 0 0 0 0 0 0 0 0 0 0 0 0 0 0 0 0 0 0 0 0 0 0 0 0 0 0 0 0 0 0 0 0 0 0 0 0 0 0 0 0 0 0 0 0 0 0 0 1746 1743 1717 1740 0 0 0 0 0 0 0 0 0 0 0
0 0 0 0 0 0 0 0 0 0 0 0 0 0 0 0 0 0 0 0 0 0 0 1359 1389 1360 1373 1335 1332 1367 1383 1412 1404 0 0 0 0 0 0 0 0 0 0 0 0 0 0 0 0 0 0 0 0 0 0 0 0 0 0 0 0 0 0 0 0 0 0 0 0 0 0 0 0 0 0 0 0 0 0 0 0 0 0 0 0 0 0 0 0 0 0 0 0 0 0 0 0 0 0 0 0 0 0 0 0 1763 1686 0 1685 0 0 0 0 0 0 0 0 0 0 0
0 0 0 0 0 0 0 0 0 0 0 0 0 0 0 0 0 0 0 0 0 0 0 1339 1346 1382 1381 1379 1382 1331 1365 1415 1423 0 0 0 0 0 0 0 0 0 0 0 0 0 0 0 0 0 0 0 0 0 0 0 0 0 0 0 0 0 0 0 0 0 0 0 0 0 0 0 0 0 0 0 0 0 0 0 0 0 0 0 0 0 0 0 0 0 0 0 0 0 0 0 0 0 0 0 0 0 0 0 0 1795 0 1742 1709 0 0 0 0 0 0 0 0 0 0 0
1274 1275 1277 1264 1278 1302 1288 0 0 0 0 0 0 0 0 0 0 0 0 0 0 0 0 0 1374 1373 1367 1380 1392 1387 1356 1418 1436 0 0 0 0 0 0 0 0 0 0 0 0 0 0 0 0 0 0 0 0 0 0 0 0 0 0 0 0 0 0 0 0 0 0 0 0 0 0 0 0 0 0 0 0 0 0 0 0 0 0 0 0 0 0 0 0 0 0 0 0 0 0 0 0 0 0 0 0 0 0 0 1781 1742 1739 1750 1738 1692 0 1644 0 0 0 0 0 0 0 0
1235 1246 1242 1278 1277 1271 1304 1322 1295 1333 1341 0 0 0 0 0 0 0 0 0 0 0 0 1358 1333 1349 1353 1370 1375 1353 1385 1417 1418 0 0 0 0 0 0 0 0 0 0 0 0 0 0 0 0 0 0 0 0 0 0 0 0 0 0 0 0 0 0 0 0 0 0 0 0 0 0 0 0 0 0 0 0 0 0 0 0 0 0 0 0 0 0 0 0 0 0 0 0 0 0 0 0 0 0 0 0 0 0 1816 1706 1776 1664 1716 1676 1667 0 1637 0 0 0 0 0 0 0 0
1237 1280 1264 1268 1295 1307 1287 1297 1312 1319 1312 1347 1356 1357 1403 1386 0 0 0 0 0 0 0 0 0 1362 0 0 1389 0 0 1443 1410 0 0 0 0 0 0 0 0 0 0 0 0 0 0 0 0 0 0 0 0 0 0 0 0 0 0 0 0 0 0 0 0 0 0 0 0 0 0 0 0 0 0 0 0 0 0 0 0 0 0 0 0 0 0 0 0 0 0 0 0 0 0 0 0 0 0 0 0 0 0 1773 1788 1730 1683 1746 1676 1697 1661 1683 0 0 0 0 0 0 0 0
0 0 0 0 1267 1299 1286 1316 1324 1329 1347 1342 1340 1396 1376 1380 1368 1421 1430 1427 0 0 0 0 0 0 0 0 0 0 0 1419 1434 1442 0 0 0 0 0 0 0 0 0 0 0 0 0 0 0 0 0 0 0 0 0 0 0 0 0 0 0 0 0 0 0 0 0 0 0 0 0 0 0 0 0 0 0 0 0 0 0 0 0 0 0 0 0 0 0 0 0 0 0 0 0 0 0 0 0 0 0 0 1747 1762 1754 1734 1702 1701 1686 1632 0 0 0 0 0 0 0 0 0 0
0 0 0 0 0 0 0 0 0 1314 1324 1379 1344 1393 1387 1401 1393 1418 1435 1425 1443 1482 0 0 0 0 0 0 0 0 0 1446 1467 1476 0 0 0 0 0 0 0 0 0 0 0 0 0 0 0 0 0 0 0 0 0 0 0 0 0 0 0 0 0 0 0 0 0 0 0 0 0 0 0 0 0 0 0 0 0 0 0 0 0 0 0 0 0 0 0 0 0 0 0 0 0 0 0 0 0 0 0 0 0 1770 1707 1688 1576 1590 1591 1561 1618 1612 1558 1530 0 0 0 0 0 0
0 0 0 0 0 0 0 0 0 0 0 0 0 0 0 1398 1408 1407 1443 1441 1450 1477 0 0 0 0 0 0 0 0 0 0 1523 0 0 0 0 0 0 0 0 0 0 0 0 0 0 0 0 0 0 0 0 0 0 0 0 0 0 0 0 0 0 0 0 0 0 0 0 0 0 0 0 0 0 0 0 0 0 0 0 0 0 0 0 0 0 0 0 0 0 0 0 0 0 0 0 0 0 0 0 1750 1612 1619 1610 1609 1592 1607 1570 1588 1582 1657 1609 1607 1536 0 0 0 0 0
0 0 0 0 0 0 0 0 0 0 0 0 0 0 0 0 0 0 0 0 0 1492 0 0 0 0 0 0 0 0 0 0 0 0 0 0 0 0 0 0 0 0 0 0 0 0 0 0 0 0 0 0 0 0 0 0 0 0 0 0 0 0 0 0 0 0 0 0 0 0 0 0 0 0 0 0 0 0 0 0 0 0 0 0 0 0 0 0 0 0 0 0 0 0 0 0 0 0 0 0 0 1577 1608 1606 1601 1580 1599 1612 1584 1621 1603 1533 1591 1597 0 0 0 0 0 0
0 0 0 0 0 0 0 0 0 0 0 0 0 0 0 0 0 0 0 0 0 0 0 0 0 0 0 0 0 0 0 0 0 0 0 0 0 0 0 0 0 0 0 0 0 0 0 0 0 0 0 0 0 0 0 0 0 0 0 0 0 0 0 0 0 0 0 0 0 0 0 0 0 0 0 0 0 0 0 0 0 0 0 0 0 0 0 0 0 0 0 0 0 0 0 0 0 0 0 0 0 0 1612 1573 1601 1574 1616 1603 1573 1567 1597 1592 0 0 0 0 0 0 0 0
0 0 0 0 0 0 0 0 0 0 0 0 0 0 0 0 0 0 0 0 0 0 0 0 0 0 0 0 0 0 0 0 0 0 0 0 0 0 0 0 0 0 0 0 0 0 0 0 0 0 0 0 0 0 0 0 0 0 0 0 0 0 0 0 0 0 0 0 0 0 0 0 0 0 0 0 0 0 0 0 0 0 0 0 0 0 0 0 0 0 0 0 0 0 0 0 0 0 0 0 0 0 0 0 0 0 1625 1599 0 0 0 0 0 0 0 0 0 0 0 0
0 0 0 0 0 0 0 0 0 0 0 0 0 0 0 0 0 0 0 0 0 0 0 0 0 0 0 0 0 0 0 0 0 0 0 0 0 0 0 0 0 0 0 0 0 0 0 0 0 0 0 0 0 0 0 0 0 0 0 0 0 0 0 0 0 0 0 0 0 0 0 0 0 0 0 0 0 0 0 0 0 0 0 0 0 0 0 0 0 0 0 0 0 0 0 0 0 0 0 0 0 0 0 0 0 0 0 0 0 0 0 0 0 0 0 0 0 0 0 0
594 603 0 0 0 0 0 0 0 0 0 0 0 0 0 0 0 0 0 0 0 0 0 0 0 1857 1917 0 0 0 0 0 0 0 0 0 0 0 0 0 0 0 0 0 0 0 0 2909 2873 2907 2888 2907 2911 2935 2905 2918 2914 2937 2850 2949 2897 2888 2855 2902 2859 2940 0 0 0 0 0 0 0 0 0 0 0 0 0 0 0 0 0 0 0 0 0 0 0 0 0 0 0 0 0 0 1673 0 0 0 0 0 0 0 0 0 0 0 0 0 0 0 0 0 0 0 0 0 0 0
550 579 594 585 620 621 0 0 0 0 0 0 0 0 0 0 0 0 0 0 0 0 0 0 0 0 1884 1865 1911 0 0 0 0 0 0 0 0 0 0 0 0 0 0 0 0 0 0 2907 2900 2917 2929 2880 2922 2900 2913 2913 2895 2883 2916 2961 2907 2918 2913 2922 2909 2883 0 0 0 0 0 0 0 0 0 0 0 0 0 0 0 0 0 0 0 0 0 0 0 0 0 0 0 0 0 0 0 0 0 0 0 0 0 0 0 0 0 0 0 0 0 0 0 0 0 0 0 0 0 0
576 582 599 588 607 635 638 642 679 0 0 0 0 0 0 0 0 0 0 0 0 0 0 0 0 0 0 0 0 0 0 0 0 0 0 0 0 0 0 0 0 0 0 0 0 0 0 2906 2963 2918 2910 2866 2906 2902 2889 2908 2897 2930 2877 2849 2857 2862 2885 2905 2916 0 0 0 0 0 0 0 0 0 0 0 0 0 0 0 0 0 0 0 0 0 0 0 0 0 0 0 0 0 0 0 0 0 0 0 0 0 0 0 0 0 0 0 0 0 0 0 0 0 0 0 0 0 0 0
581 579 608 609 619 633 638 652 655 681 689 756 0 0 0 0 0 0 0 0 0 0 0 0 0 0 0 0 0 0 0 0 0 0 0 0 0 0 0 0 0 0 0 0 0 0 0 2859 2934 2903 2923 2889 2932 2874 2884 2888 2897 2880 2868 2877 2895 2876 2888 2869 2921 0 0 0 0 0 0 0 0 0 0 0 0 0 0 0 0 0 0 0 0 0 0 0 0 0 0 0 0 0 0 0 0 0 0 0 0 0 0 0 0 0 0 0 0 0 0 0 0 0 0 0 0 0 0 0
599 577 577 600 638 615 652 649 654 667 670 674 699 716 785 0 0 0 0 0 0 0 0 0 0 0 0 0 0 0 0 0 0 0 0 0 0 0 0 0 0 0 0 0 0 0 0 2949 2955 2876 2923 2941 2939 2886 2891 2918 2928 2875 2896 2942 2877 2927 2872 2907 2893 2914 0 0 0 0 0 0 0 0 0 0 0 0 0 0 0 0 0 0 0 0 0 0 0 0 0 0 0 0 0 0 0 0 0 0 0 0 0 0 0 0 0 0 0 0 1746 0 0 0 0 0 0 0 0 0
763 802 775 761 715 671 624 646 661 678 673 707 700 728 752 739 777 758 0 0 0 0 0 0 0 0 0 0 0 0 0 0 0 0 0 0 0 0 0 0 0 0 0 0 0 0 0 2932 2907 2912 2948 2936 2950 2897 2908 2964 2878 2933 2947 2949 2921 2908 2929 2931 2928 0 0 0 0 0 0 0 0 0 0 0 0 0 0 0 0 0 0 0 0 0 0 0 0 0 0 0 0 0 0 0 0 0 0 0 0 0 0 0 0 0 0 0 0 0 0 0 0 0 0 0 0 0 0 0
806 813 812 834 812 857 841 880 833 797 744 762 749 730 730 768 781 762 811 830 825 0 0 0 0 0 0 0 0 0 0 0 0 0 0 0 0 0 0 0 0 0 0 0 0 0 0 2938 2898 2896 2917 2909 2901 2887 2914 2916 2866 2892 2875 2904 2851 2886 2880 2916 2907 2905 0 0 0 0 0 0 0 0 0 0 0 0 0 0 0 0 0 0 0 0 0 0 0 0 0 0 0 0 0 0 0 0 0 0 0 0 0 0 0 0 0 0 0 0 0 0 0 0 0 0 0 0 0 0
738 801 804 821 818 855 875 879 895 896 916 909 917 922 847 805 786 790 798 814 836 856 871 883 0 0 0 0 0 0 0 0 0 0 0 0 0 0 0 0 0 0 0 0 0 0 0 2920 2959 2901 2955 2932 2878 2938 2883 2905 2930 2927 2912 2923 2854 2883 2914 2915 2879 2899 0 0 0 0 0 0 0 0 0 0 0 0 0 0 0 0 0 0 0 0 0 0 0 0 0 0 0 0 0 0 0 0 0 0 0 0 0 0 0 0 0 0 0 0 0 0 0 0 0 0 0 0 0 0
674 0 838 841 859 884 862 890 908 928 943 953 961 948 945 955 941 924 889 869 820 847 871 896 912 963 0 0 0 0 0 0 0 0 0 0 0 0 0 0 0 0 0 0 0 0 0 2872 2956 2911 2900 2894 2945 2917 2916 2879 2909 2872 2867 2930 2914 2863 2880 2898 2861 2865 0 0 0 0 0 0 0 0 0 0 0 0 0 0 0 0 0 0 0 0 0 0 0 0 0 0 0 0 0 0 0 0 0 0 0 0 0 0 0 0 0 0 0 0 0 0 0 0 0 0 0 0 0 0
660 931 936 951 931 955 930 941 935 922 939 954 949 960 951 952 965 965 950 951 957 944 915 881 895 952 950 994 1009 0 0 0 0 0 0 0 0 0 0 0 0 0 0 0 0 0 0 2888 2885 2930 2890 2920 2911 2881 2938 2907 2878 2871 2905 2880 2881 2837 2846 2915 2899 2884 0 0 0 0 0 0 0 0 0 0 0 0 0 0 0 0 0 0 0 0 0 0 0 0 0 0 0 0 0 0 0 0 0 0 0 0 0 0 0 0 0 0 0 0 0 0 0 0 0 0 0 0 0 0
597 728 0 0 0 0 0 0 0 0 988 983 962 960 962 987 964 956 952 943 953 936 955 952 956 986 968 978 1010 1043 1058 0 0 0 0 0 0 0 0 0 0 0 0 0 0 0 0 2925 2882 2891 2907 2923 2883 2855 2867 2870 2924 2884 2888 2894 2856 2875 2864 2847 2869 0 0 0 0 0 0 0 0 0 0 0 0 0 0 0 0 0 0 0 0 0 0 0 0 0 0 0 0 0 0 0 0 0 0 0 0 0 0 0 0 0 0 0 0 0 0 0 0 0 0 0 0 0 0 0
604 607 598 0 1139 1125 1158 1156 1150 1140 1150 1136 1121 1150 1131 1152 1113 1060 0 0 1040 1086 1062 978 1007 1039 1134 1125 1083 1089 1072 0 0 0 0 0 0 0 0 0 0 0 0 0 0 0 0 2909 2911 2929 2874 2902 2906 2881 2922 2885 2949 2881 2892 2911 2874 2847 2875 2877 2931 2898 0 0 0 0 0 0 0 0 0 0 0 0 0 0 0 0 0 0 0 0 0 0 0 0 0 0 0 0 0 0 0 0 0 0 0 0 0 0 0 0 0 0 0 0 0 0 0 0 0 0 0 0 0 0
574 567 593 594 0 0 0 0 0 0 0 0 0 0 0 0 1375 1034 961 0 0 1137 1079 0 0 1085 1168 1176 1138 1143 1112 0 0 0 0 0 0 0 0 0 0 0 0 0 0 0 0 2957 2915 2923 2879 2898 2876 2904 2916 2924 2932 2893 2950 2884 2870 2851 2880 2959 2892 2894 0 0 0 0 0 0 0 0 0 0 0 0 0 0 0 0 0 0 0 0 0 0 0 0 0 0 0 0 0 0 0 0 0 0 0 0 0 0 0 0 0 0 0 0 0 0 0 0 0 0 0 0 0 0
603 592 596 585 604 0 0 0 0 0 0 0 0 0 0 0 0 944 971 0 0 0 0 0 0 0 0 0 0 0 0 0 0 0 0 0 0 0 0 0 0 0 0 0 0 0 0 2938 2911 2925 2889 2855 2951 2894 2853 2908 2915 2860 2924 2884 2891 2851 2882 2868 2900 2861 0 0 0 0 0 0 0 0 0 0 0 0 0 0 0 0 0 0 0 0 0 0 0 0 0 0 0 0 0 0 0 0 0 0 0 0 0 0 0 0 0 0 0 0 0 0 0 0 0 0 0 0 0 0
560 584 613 616 642 623 0 0 0 0 0 0 0 0 0 0 0 0 0 0 0 0 0 0 0 0 0 0 0 0 0 0 0 0 0 0 0 0 0 0 0 0 0 0 0 0 2871 2915 2937 2908 2926 2894 2928 2897 2913 2935 2891 2933 2885 2938 2890 2914 2902 2909 2863 0 0 0 0 0 0 0 0 0 0 0 0 0 0 0 0 0 0 0 0 0 0 0 0 0 0 0 0 0 0 0 0 0 0 0 0 0 0 0 0 0 0 0 0 0 0 0 0 0 0 0 0 0 0 0
602 607 583 621 604 601 0 0 0 0 0 0 0 0 0 0 0 0 0 0 0 0 958 0 0 0 0 0 0 0 0 0 0 0 0 0 0 0 0 0 0 0 0 0 0 0 0 2922 2898 2905 2870 2904 2883 2887 2922 2897 2907 2891 2941 2850 2913 2901 2897 2902 2914 2868 0 0 0 0 0 0 0 0 0 0 0 0 0 0 0 0 0 0 0 0 0 0 0 0 0 0 0 0 0 0 0 0 0 0 0 0 0 0 0 0 0 0 0 0 0 0 0 0 0 0 0 0 0 0
607 566 584 616 616 562 643 0 0 0 0 0 0 0 0 0 0 0 0 0 0 0 951 0 0 0 0 0 0 0 0 0 0 0 0 0 0 0 0 0 0 0 0 0 0 0 0 2958 2882 2914 2911 2919 2921 2888 2878 2980 2890 2900 2863 2862 2879 2922 2881 2883 2877 0 0 0 0 0 0 0 0 0 0 0 0 0 0 0 0 0 0 0 0 0 0 0 0 0 0 0 0 0 0 0 0 0 0 0 0 0 0 0 0 0 0 0 0 0 0 0 0 0 0 0 0 0 0 0
602 593 591 627 622 595 621 0 0 0 0 0 0 0 0 0 0 0 0 0 0 0 0 0 0 0 0 0 0 0 0 0 0 0 0 0 0 0 0 0 0 0 0 0 0 0 0 2886 2856 2867 2894 2873 2872 2885 2876 2898 2870 2885 2870 2890 2886 2865 2884 2856 2849 0 0 0 0 0 0 0 0 0 0 0 0 0 0 0 0 0 0 0 0 0 0 0 0 0 0 0 0 0 0 0 0 0 0 0 0 0 0 0 0 0 0 0 0 0 0 0 0 0 0 0 0 0 0 0
543 607 577 592 606 589 589 0 0 0 0 0 0 0 0 0 2283 0 0 0 903 0 900 927 0 0 0 0 0 0 0 0 0 0 0 0 0 0 0 0 0 0 0 0 0 0 0 2922 2903 2912 2889 2907 2907 2871 2881 2890 2900 2923 2914 2874 2893 2904 2890 2884 2856 2884 0 0 0 0 0 0 0 0 0 0 0 0 0 0 0 0 0 0 0 0 0 0 0 0 0 0 0 0 0 0 0 0 0 0 0 0 0 0 0 0 0 0 0 0 0 0 0 0 0 0 0 0 0 0
582 604 597 593 628 587 569 0 0 0 0 0 0 0 0 0 0 0 0 0 0 0 0 0 0 0 0 0 0 0 0 0 0 0 0 0 0 0 0 0 0 0 0 0 0 0 0 2887 2892 2901 2915 2910 2924 2924 2896 2931 2941 2892 2906 2871 2867 2891 2904 2903 2877 2846 0 0 0 0 0 0 0 0 0 0 0 0 0 0 0 0 0 0 0 0 0 0 0 0 0 0 0 0 0 0 0 0 0 0 0 0 0 0 0 0 0 0 0 0 0 0 0 0 0 0 0 0 0 0
581 609 605 609 603 604 0 0 0 0 0 0 0 0 0 0 0 0 0 0 0 0 0 0 0 0 0 0 0 0 0 0 0 0 0 0 0 0 0 0 0 0 0 0 0 0 0 0 0 0 0 0 0 0 0 0 0 0 0 0 0 2970 2995 2909 2904 0 0 0 0 0 0 0 0 0 0 0 0 0 0 0 0 0 0 0 0 0 0 0 0 0 0 0 0 0 0 0 0 0 0 0 0 0 0 0 0 0 0 0 0 0 0 0 0 0 0 0 0 0 0 0
586 619 618 631 607 600 0 0 0 0 0 0 0 0 0 0 0 0 0 0 0 0 0 0 0 0 0 0 0 0 0 0 0 0 0 0 0 0 0 0 0 0 0 0 0 0 0 0 0 0 0 0 0 0 0 0 0 0 0 0 0 0 0 0 0 0 0 0 0 0 0 0 0 0 0 0 0 0 0 0 0 0 0 0 0 0 0 0 0 0 0 0 0 0 0 0 0 0 0 0 0 0 0 0 0 0 0 0 0 0 0 0 0 0 0 0 0 0 0 0
610 597 611 592 594 0 0 0 0 0 0 0 0 0 0 0 0 0 0 0 0 0 0 0 0 0 0 0 0 0 0 0 0 0 0 0 0 0 0 0 0 0 0 0 0 0 0 0 0 0 0 0 0 0 0 0 0 0 0 0 0 0 0 0 0 0 0 0 0 0 0 0 0 0 0 0 0 0 0 0 0 0 0 0 0 0 0 0 0 0 0 0 0 0 0 0 0 0 0 0 0 0 0 0 0 0 0 0 0 0 0 0 0 0 0 0 0 0 0 0
609 581 591 597 555 0 0 0 0 0 0 0 0 0 0 0 0 0 0 0 0 0 0 0 0 0 0 0 0 0 0 0 0 0 0 0 0 0 0 0 0 0 0 0 0 0 0 0 0 0 0 0 0 0 0 0 0 0 0 0 0 0 0 0 0 0 0 0 0 0 0 0 0 0 0 0 0 0 0 0 0 0 0 0 0 0 0 0 0 0 0 0 0 0 0 0 0 0 0 0 0 0 0 0 0 0 0 0 0 0 0 0 0 0 0 0 0 0 0 0
602 568 584 582 0 0 0 0 0 0 0 0 0 0 0 0 0 0 0 0 0 0 0 0 0 0 0 0 847 878 875 0 0 880 0 894 0 903 906 932 0 0 0 0 0 0 0 0 0 0 0 0 0 0 0 0 0 0 0 0 0 0 0 0 0 0 0 0 0 0 0 0 0 0 0 0 0 0 0 0 0 0 0 0 0 0 0 0 0 0 0 0 0 0 0 0 0 0 0 0 0 0 0 0 0 0 0 0 0 0 0 0 0 0 0 0 0 0 0 0
614 589 586 0 0 0 693 677 690 688 702 700 708 717 720 703 702 747 729 702 699 700 676 761 687 707 738 694 709 739 736 714 744 715 753 678 788 714 775 735 720 714 750 728 769 786 750 782 793 780 793 747 728 770 774 766 774 742 769 789 751 779 792 775 820 823 770 762 785 784 789 776 804 0 799 0 0 0 0 0 0 0 0 0 0 0 0 0 0 0 0 0 0 0 0 0 0 0 0 0 0 0 0 0 0 0 0 0 0 0 0 0 0 0 0 0 0 0 0 0
585 527 583 595 565 593 548 569 585 589 579 621 610 587 614 583 618 579 585 609 576 635 555 588 593 608 593 610 621 590 613 612 628 619 614 636 605 630 625 625 611 632 620 620 627 628 616 661 624 677 631 663 621 635 625 655 638 658 661 638 619 639 639 606 648 630 616 663 675 670 690 648 668 687 695 659 682 683 634 672 672 712 711 703 653 724 687 644 687 723 695 677 754 714 700 746 741 732 659 725 678 0 0 0 0 0 0 0 0 0 0 0 0 0 0 0 0 0 0 0
494 442 481 502 507 489 521 501 514 522 501 505 510 515 513 513 501 507 487 525 511 499 506 516 511 515 500 506 512 515 533 507 530 511 491 514 516 537 532 493 497 512 522 507 539 543 528 532 539 544 539 526 524 551 523 537 549 533 543 534 522 537 517 542 551 557 534 567 550 566 554 531 557 552 571 554 564 538 559 537 539 560 558 545 585 566 581 533 591 554 571 582 537 616 583 566 586 566 558 589 588 588 584 583 0 0 0 628 626 560 0 0 0 0 0 0 0 0 0 0
419 441 443 441 404 419 440 445 455 432 438 456 466 444 435 427 437 454 451 441 468 450 455 470 448 426 443 444 443 466 462 452 457 449 468 448 460 458 454 469 460 448 477 460 472 460 464 466 472 463 462 470 473 465 485 462 469 489 476 469 484 475 478 469 464 483 482 459 481 488 476 469 486 469 485 494 482 487 514 477 496 492 492 485 477 499 483 483 508 492 501 514 474 463 502 520 478 478 487 494 498 504 518 520 485 474 490 500 470 518 498 536 0 0 0 0 0 0 0 0
381 411 389 400 393 393 399 403 393 393 409 388 396 409 396 418 395 409 400 402 398 414 419 404 406 415 408 414 412 423 400 426 405 417 420 401 414 405 416 419 418 406 426 420 424 419 420 423 416 424 421 447 415 430 427 422 415 430 432 422 424 416 415 426 432 430 410 439 433 436 426 428 424 434 432 422 423 444 436 421 437 437 433 430 442 440 449 440 403 426 429 442 429 438 443 431 427 426 439 451 450 451 452 442 435 443 452 437 434 437 452 430 438 451 0 0 0 0 0 0
352 346 369 349 352 363 360 355 354 351 384 357 361 375 357 368 360 371 358 368 357 362 367 364 362 358 370 363 366 359 371 372 371 372 371 361 381 378 368 365 385 378 369 370 371 373 378 369 370 389 367 378 380 390 375 366 377 373 378 386 380 373 385 369 376 380 392 390 387 366 393 381 393 387 392 376 402 389 387 391 368 368 396 396 385 397 379 385 396 387 385 398 385 373 387 387 385 401 396 392 382 384 373 389 363 400 388 397 396 399 389 370 397 384 405 387 0 0 0 0
322 326 335 323 316 341 345 335 341 344 352 345 345 339 380 340 357 339 350 340 335 351 339 355 373 329 335 339 349 352 343 346 345 346 339 339 346 341 337 337 344 346 353 359 328 338 343 344 351 338 350 335 349 341 338 342 353 332 350 343 350 350 334 347 352 351 349 359 340 351 357 350 345 356 348 358 356 342 350 337 344 346 357 355 331 347 347 353 358 357 351 350 352 359 348 351 352 355 359 350 368 358 353 368 356 364 369 361 361 360 362 342 361 372 376 323 372 0 0 0
296 287 280 284 291 287 303 314 297 310 314 296 289 276 301 296 308 305 299 311 295 302 304 299 296 313 306 302 299 310 304 301 308 303 305 307 312 301 310 302 311 313 297 308 315 314 317 316 319 309 314 307 311 318 319 316 316 314 306 315 315 317 306 315 304 314 314 316 326 313 317 320 318 314 304 317 326 310 320 320 324 317 312 312 313 326 326 326 327 321 326 331 323 312 318 336 332 312 326 342 322 339 350 333 352 322 334 326 320 331 315 318 304 340 338 331 324 315 358 0
267 266 283 284 289 280 284 283 280 286 278 276 276 289 281 280 277 273 282 280 285 272 275 281 274 273 289 277 280 272 291 282 281 274 283 275 286 285 280 294 287 279 281 285 283 289 289 286 281 289 290 279 292 285 282 301 281 283 289 287 285 293 292 290 287 290 284 282 291 299 286 290 292 293 291 287 288 289 294 290 283 291 282 300 284 292 289 291 299 310 295 296 294 296 299 301 291 297 302 295 291 304 288 290 288 300 290 292 307 297 299 302 280 306 271 271 325 322 315 309
253 244 255 244 258 251 249 248 249 252 256 247 251 253 264 251 255 263 257 248 261 249 257 255 259 261 262 262 253 258 254 258 262 257 259 268 260 266 258 263 262 263 264 264 262 265 268 262 263 268 262 271 268 261 273 258 269 264 266 273 261 267 283 267 279 267 269 269 268 266 263 273 261 266 265 265 268 266 266 264 254 261 267 275 268 266 267 260 271 261 263 267 272 271 269 274 278 269 270 280 267 263 275 272 288 277 269 274 271 275 264 270 281 269 287 252 259 270 287 278
233 236 235 233 235 237 235 231 240 235 234 233 248 250 242 248 243 240 252 246 240 245 241 239 244 240 244 239 238 247 243 241 241 241 246 250 244 245 250 250 249 246 246 244 248 247 247 249 243 250 244 253 251 251 252 242 247 245 251 251 254 253 255 251 248 250 250 254 256 252 249 247 252 251 250 248 251 254 255 251 246 250 246 252 253 252 259 252 247 252 252 253 251 251 252 255 248 248 252 257 246 246 248 250 250 254 265 251 254 246 247 254 260 258 242 255 271 278 273 253
218 216 220 218 220 226 222 218 222 214 221 228 223 231 223 227 222 219 232 224 225 225 224 227 229 223 227 226 230 223 232 228 227 224 235 235 233 230 229 234 227 225 228 234 230 234 229 238 234 237 232 233 233 236 229 236 231 233 234 232 234 229 238 235 236 242 234 237 234 233 240 233 234 234 228 227 238 228 225 228 231 229 228 229 241 229 234 239 237 225 227 231 237 237 230 226 236 229 239 234 239 234 239 231 242 237 238 242 237 238 230 228 245 245 238 230 243 237 211 241
212 207 219 218 211 207 210 208 213 217 213 213 210 214 212 213 214 211 208 216 213 207 212 210 208 214 217 219 216 215 212 218 210 214 212 214 218 217 212 217 215 201 211 214 221 200 218 222 221 220 217 216 223 218 224 204 222 217 224 223 226 222 226 227 203 222 223 216 223 216 223 225 220 219 215 221 218 220 220 222 219 223 225 230 222 227 221 223 216 221 225 218 219 215 221 217 220 214 226 225 216 213 225 236 223 230 222 221 226 236 223 227 229 241 225 230 226 226 215 223
195 197 195 200 207 202 204 200 185 200 184 180 204 193 190 189 193 204 193 191 187 191 196 206 187 187 185 189 188 192 191 190 188 184 194 191 185 197 189 197 196 195 196 188 201 192 200 193 197 195 197 200 202 194 191 199 197 197 196 195 196 195 198 201 193 199 192 193 192 196 192 197 200 191 193 191 194 198 192 192 192 192 199 198 214 200 198 185 212 216 210 192 210 207 194 184 193 192 209 209 212 207 208 193 206 210 210 211 201 213 214 209 216 214 201 203 198 200 203 216
175 193 196 190 177 176 181 182 199 183 180 180 177 186 185 180 184 187 188 189 179 188 182 186 192 181 191 191 184 193 192 187 192 192 194 195 195 187 190 188 196 195 199 194 197 194 198 197 197 196 195 194 196 200 193 196 201 199 200 201 199 201 201 199 199 201 192 200 196 194 188 193 197 190 193 197 191 195 197 192 194 195 196 185 187 192 188 190 193 182 191 194 190 178 182 180 183 182 188 185 188 190 183 189 188 187 186 201 191 190 202 183 181 196 184 180 183 178 201 170
177 174 177 175 177 172 178 177 173 179 182 183 182 176 182 182 185 187 184 180 187 188 180 182 182 185 186 182 185 194 188 180 185 184 186 183 183 187 187 181 181 187 186 188 189 193 186 193 185 188 184 189 185 187 186 187 189 187 187 186 184 184 190 187 187 190 185 188 187 189 192 189 189 186 189 187 191 186 186 186 184 192 191 183 187 191 184 188 185 187 180 190 189 186 191 188 185 190 188 181 181 179 187 184 176 179 184 184 185 181 172 174 183 180 178 169 170 184 172 178
176 168 156 168 161 170 169 174 169 171 171 176 172 172 174 173 171 172 181 183 172 178 173 175 166 163 176 176 171 182 181 179 175 176 175 167 179 174 176 177 175 182 178 174 181 175 178 179 177 180 179 180 174 177 179 178 183 183 178 176 177 175 182 181 184 178 184 184 180 178 178 177 177 181 181 178 181 184 175 180 177 187 176 177 173 179 178 181 178 184 179 173 174 172 178 178 179 185 181 180 179 182 180 175 186 177 168 171 167 179 179 174 174 170 170 167 177 169 169 154
160 166 165 166 163 164 159 159 169 165 167 165 166 161 165 171 174 171 171 173 169 167 168 167 167 162 174 167 173 169 176 167 171 166 166 168 169 170 172 168 173 170 171 171 175 176 165 175 172 168 169 171 170 171 172 171 174 176 175 172 172 171 176 171 177 175 171 171 167 167 173 172 167 171 170 172 171 173 172 172 167 169 173 174 170 173 178 170 177 172 170 172 170 178 169 168 174 174 171 176 169 167 177 170 179 170 171 173 165 171 172 169 174 171 170 173 179 174 173 171
156 158 163 164 163 164 163 155 157 159 161 164 155 158 158 163 162 165 167 163 162 161 168 165 162 160 163 157 162 163 163 167 161 165 159 161 161 159 156 162 157 161 164 162 167 165 165 161 159 165 163 163 162 164 163 166 160 162 167 166 162 164 163 162 162 165 168 165 167 167 161 161 166 166 166 170 169 166 168 169 164 161 166 167 161 163 163 165 165 164 159 163 164 164 164 162 161 156 165 167 168 161 160 169 164 161 161 158 155 155 161 164 168 161 172 154 165 165 165 172
144 149 151 145 152 148 152 150 153 156 150 149 149 151 150 148 150 163 155 154 160 154 155 152 155 151 151 156 154 162 158 153 155 151 153 159 151 155 152 158 155 152 160 160 155 152 157 153 157 158 159 155 157 157 157 151 157 160 159 161 158 155 161 159 160 158 154 156 158 158 158 161 157 163 162 161 164 162 160 153 154 158 163 155 150 158 156 159 159 152 154 160 156 155 156 157 157 156 153 155 156 158 151 152 159 153 156 154 155 158 148 166 156 157 159 152 149 161 157 121
135 138 147 143 148 148 146 152 143 142 145 152 149 147 153 144 147 152 139 151 153 150 151 146 151 148 153 154 148 148 148 143 148 143 148 146 149 155 149 150 154 153 149 148 148 151 150 148 152 153 146 149 149 151 151 151 154 154 152 155 156 152 154 151 147 151 153 154 155 151 150 152 149 155 153 152 160 157 154 152 150 155 150 146 153 151 151 155 155 151 149 152 156 154 155 146 150 148 154 153 156 156 154 153 146 148 146 146 155 147 151 154 155 148 153 157 148 154 156 143
133 137 134 135 138 135 141 142 138 139 144 143 140 140 135 139 142 138 139 146 142 145 142 148 144 145 146 144 144 142 138 143 137 148 141 139 146 148 147 145 140 145 147 147 146 145 143 140 151 142 132 146 143 146 150 145 147 147 147 145 133 145 145 148 146 143 148 146 144 148 148 147 145 140 148 146 152 151 152 147 143 144 141 138 143 138 148 146 151 144 149 144 146 143 147 152 141 144 153 148 145 148 147 142 135 145 142 139 144 148 141 139 147 141 148 143 134 141 130 138
127 132 130 132 137 140 138 143 136 139 137 0 131 135 133 137 136 139 140 140 144 139 142 138 144 144 0 138 138 139 126 129 142 129 130 130 140 129 139 138 129 142 141 143 140 139 139 130 137 121 129 141 140 141 144 142 148 141 144 143 130 132 146 148 130 131 131 141 142 128 140 140 133 144 142 142 144 140 139 145 144 142 129 131 143 144 141 142 142 143 128 140 143 146 145 142 143 141 142 145 140 139 134 140 135 143 128 139 144 138 137 134 125 129 131 128 138 126 136 131
136 135 126 131 134 135 141 131 134 135 132 134 138 136 134 132 134 139 137 124 140 141 141 140 139 138 140 128 139 124 126 127 126 127 125 126 128 126 130 128 139 138 139 128 0 142 130 130 127 126 128 122 130 134 0 141 0 133 126 140 131 127 143 134 130 127 142 129 142 129 123 130 128 141 131 130 141 124 131 130 139 139 127 129 123 137 137 127 140 139 126 140 139 138 128 124 136 139 142 139 128 121 134 141 125 123 130 131 129 132 144 121 130 133 129 133 138 144 143 127
116 108 123 112 123 119 136 132 115 113 124 118 120 124 127 125 124 131 131 121 121 127 127 127 124 139 138 137 0 136 127 120 118 122 122 121 127 126 125 124 122 129 125 130 0 0 128 124 129 121 119 121 123 126 123 128 132 129 128 117 121 119 123 127 121 127 129 130 125 128 123 126 121 125 121 120 124 127 124 126 127 123 118 121 120 130 123 127 124 125 129 123 135 121 118 116 132 138 125 131 116 116 121 124 115 114 118 117 129 130 125 133 136 136 139 133 113 113 137 101
110 112 109 123 106 113 127 112 126 116 116 115 118 121 117 120 109 125 131 123 125 126 126 120 125 124 131 131 123 126 132 0 127 119 115 114 121 117 0 119 129 124 0 0 0 0 123 128 126 119 122 125 126 123 123 124 120 123 124 124 127 124 113 121 122 123 125 126 119 120 122 120 124 122 122 116 122 127 127 121 120 117 123 123 119 118 124 121 124 121 123 121 121 121 118 120 126 121 117 115 119 119 122 120 111 128 116 115 122 132 118 135 132 130 101 131 118 124 112 155
106 99 112 115 113 105 115 118 112 113 123 116 106 110 115 118 118 118 115 119 114 110 109 117 118 115 120 118 115 125 122 0 117 120 113 110 116 0 116 117 121 0 0 121 124 0 119 118 114 115 114 117 119 119 119 120 118 120 116 116 122 123 123 117 124 117 118 121 116 114 118 119 117 116 116 119 120 114 116 115 113 119 116 117 115 115 120 117 120 120 118 113 121 114 107 120 121 120 112 120 115 118 111 108 110 116 129 120 110 128 114 129 114 129 118 120 131 112 94 151
96 101 103 104 101 101 117 108 103 112 104 103 108 109 123 119 113 113 105 101 116 107 112 103 110 107 114 115 117 118 118 116 112 109 111 113 106 114 0 113 115 113 113 108 110 120 116 0 115 0 113 110 120 116 0 0 108 109 116 114 124 114 103 114 106 115 110 111 118 113 115 112 107 104 107 109 105 108 110 111 113 105 104 112 111 108 112 106 109 120 109 108 98 118 112 116 112 116 108 105 107 110 120 110 106 108 105 112 114 119 111 115 104 113 91 103 111 91 104 135
105 102 112 113 102 104 109 108 112 108 99 109 110 103 115 119 109 112 115 101 104 98 103 104 116 109 109 108 103 117 110 107 103 105 111 112 114 0 105 110 111 108 114 94 102 109 109 108 114 0 111 113 109 113 106 112 105 110 108 112 107 111 116 0 114 109 105 113 111 105 103 105 106 108 102 103 103 103 101 107 105 105 108 106 101 104 98 110 104 104 101 107 100 101 92 101 109 106 109 102 105 111 107 113 101 101 102 115 96 109 106 105 124 108 108 106 98 113 132 98
83 92 108 105 97 95 94 96 96 92 106 101 101 99 101 104 95 102 102 102 104 100 93 98 104 102 106 101 99 105 107 106 102 102 103 98 102 106 103 103 107 104 100 96 95 100 105 102 104 99 108 104 105 100 103 105 98 100 103 101 102 111 106 0 109 109 0 110 105 104 101 104 97 105 102 106 98 103 0 101 0 103 93 101 95 103 98 98 100 101 102 101 96 92 101 91 91 95 104 98 97 97 95 100 99 100 109 92 91 87 89 91 99 95 101 92 99 118 95 113
88 92 83 88 92 96 93 91 96 93 95 102 101 98 103 94 102 95 110 97 96 92 93 90 96 95 102 97 105 95 105 102 101 101 100 98 102 103 97 96 101 99 92 93 99 101 102 104 107 105 105 97 98 99 92 98 101 105 102 99 100 101 107 100 116 104 106 108 105 101 100 102 106 96 99 94 104 99 100 97 0 103 92 92 103 96 99 110 92 96 104 104 98 100 94 103 86 94 85 104 99 94 98 89 100 102 104 91 105 92 89 94 101 79 87 109 111 109 82 107
90 94 94 93 92 93 86 92 84 93 93 96 91 89 92 87 90 93 104 107 102 92 91 100 94 88 99 94 92 105 99 95 102 95 95 99 93 89 95 98 96 92 94 95 101 94 96 97 91 99 104 92 85 88 91 102 94 94 97 101 96 95 98 0 96 103 94 95 100 97 97 99 105 100 85 107 97 98 102 104 92 94 85 105 98 90 92 94 92 96 93 93 98 95 91 89 93 90 108 90 86 102 99 93 100 92 95 76 90 94 88 91 87 91 92 87 99 96 82 113
85 80 81 84 77 82 89 86 87 90 85 89 95 91 86 82 91 88 93 92 92 94 90 90 87 88 100 86 90 94 85 87 96 94 94 96 86 95 93 97 90 97 87 97 92 95 99 91 91 90 92 91 92 98 96 89 86 91 97 86 91 95 98 91 92 87 96 89 95 98 88 88 89 89 84 96 90 91 87 94 88 90 95 91 85 86 91 90 92 94 94 90 95 90 91 92 93 92 92 85 92 82 89 79 87 90 92 88 78 82 80 77 86 87 79 83 86 81 84 95
93 84 80 82 95 86 90 102 90 92 86 88 89 90 91 87 89 92 95 94 82 91 92 86 94 88 94 91 89 84 87 89 96 89 100 86 92 94 87 97 91 96 97 96 96 96 93 92 89 94 97 98 95 97 95 92 92 89 96 89 93 98 93 90 88 96 88 89 86 92 88 86 93 94 93 90 92 95 88 94 92 91 96 92 88 87 94 89 92 90 93 97 96 85 93 90 88 93 92 99 89 84 91 94 84 93 86 84 86 80 91 87 89 79 88 86 88 99 0 0
82 88 88 82 90 83 84 88 83 0 82 89 82 82 91 92 91 85 91 92 92 84 93 94 87 89 88 87 95 95 87 91 94 84 94 91 94 90 91 92 97 87 95 86 89 97 89 95 91 96 89 96 95 90 92 87 98 96 89 90 92 84 92 92 87 99 86 91 97 98 97 97 91 91 91 90 88 92 97 90 96 93 91 93 95 85 83 93 100 91 86 97 99 84 93 86 91 89 92 90 91 81 88 83 89 86 91 89 87 84 86 85 74 79 82 77 100 103 86 0
78 80 79 85 87 89 88 82 83 79 82 82 82 87 88 86 85 88 84 92 86 90 90 88 87 83 89 84 92 86 87 90 89 92 86 88 89 89 88 90 93 87 92 97 87 87 92 94 93 91 93 94 95 86 95 88 87 94 96 98 89 91 92 89 86 97 87 86 93 94 90 94 89 95 96 86 85 93 93 87 92 89 92 90 86 87 93 87 87 88 92 90 87 86 84 82 83 86 88 90 77 78 87 91 90 84 84 81 67 84 79 83 86 86 67 86 87 57 0 0
79 73 77 79 87 84 90 96 81 86 81 85 83 80 77 87 83 87 85 88 91 92 87 81 79 82 85 88 89 91 89 88 88 91 91 85 89 87 88 87 90 86 92 95 91 87 91 89 91 97 92 88 88 87 86 94 92 95 86 93 97 94 86 94 88 91 86 85 91 92 88 87 90 85 95 86 93 92 96 84 92 88 92 83 91 87 88 91 87 91 89 92 80 87 90 87 87 84 90 86 83 88 88 80 80 87 83 86 86 78 89 93 89 72 66 80 0 0 0 0
82 66 67 62 74 76 88 79 81 75 78 73 75 87 87 78 79 76 78 79 85 77 85 75 69 74 82 80 83 79 85 72 79 87 84 76 81 76 86 76 88 82 78 69 78 80 74 86 85 83 88 78 75 85 79 79 90 86 85 73 86 83 81 84 76 84 77 81 83 78 84 83 77 77 86 79 74 87 87 89 76 75 76 77 75 80 76 80 79 85 87 70 82 77 76 84 68 84 69 80 69 75 74 64 73 69 74 74 67 77 78 80 54 57 83 38 0 0 0 0
76 73 77 85 69 79 86 87 86 79 80 86 72 80 83 77 82 85 79 80 77 86 72 78 91 87 76 69 81 84 83 78 75 85 82 73 75 80 77 82 88 76 87 86 84 86 83 76 84 80 84 75 72 76 81 82 83 74 79 68 91 81 79 75 80 79 81 77 84 70 77 85 79 81 80 84 84 85 85 86 80 78 79 84 72 78 87 65 79 86 72 83 69 74 85 78 87 77 72 76 89 73 76 68 70 77 77 83 74 86 74 76 73 90 64 0 0 0 0 0
