0 0 0 0 0 0 0 0 0 0 0 0 0 0 0 0 0 0 0 0 0 0 0 0 0 0 0 0 0 0 0 0 0 0 0 0 0 0 0 0 0 0 0 0 0 0 0 0 0 0 0 0 0 0 0 0 0 0 0 0 0 0 0 0 0 0 0 0 0 0 0 0 0 0 0 0 0 0 0 0 0 0 0 0 0 0 0 0 0 0 0 0 0 0 0 0 0 0 0 0 0 0 0 0 0 0 0 0 0 0 0 0 0 0 0 0 0 0 0 0
0 0 0 0 0 0 0 0 0 0 0 0 0 0 0 0 0 0 0 0 0 0 0 0 0 0 0 0 0 0 0 0 0 0 0 0 0 0 0 0 0 0 0 0 0 0 0 0 0 0 0 0 0 0 0 0 0 0 0 0 0 0 0 0 0 0 0 0 0 0 0 0 0 0 0 0 0 0 0 0 0 0 0 0 0 0 0 0 0 0 0 0 0 0 0 0 0 0 0 0 0 0 0 0 0 0 0 0 0 0 0 0 0 0 0 0 0 0 0 0
0 0 0 0 0 0 0 0 0 0 0 0 0 0 0 0 0 1283 0 0 0 0 0 0 0 0 0 0 0 0 0 0 0 0 0 0 0 0 0 0 0 0 0 0 0 0 0 0 0 0 0 0 0 0 0 0 0 0 0 0 0 0 0 0 0 0 0 0 0 0 0 0 0 0 0 0 0 0 0 0 0 0 0 0 0 0 0 0 0 0 0 0 0 0 0 0 0 0 0 0 0 0 0 0 0 0 0 0 0 0 0 0 0 0 0 0 0 0 0 0
0 0 0 0 0 0 0 0 0 0 0 1106 1135 1145 0 0 1283 1283 0 0 0 0 1239 0 0 0 0 0 0 0 0 0 0 0 0 0 0 0 0 0 0 0 0 0 0 0 0 0 0 0 0 0 0 0 0 0 0 0 0 0 0 0 0 0 0 0 0 0 0 0 0 0 0 0 0 0 0 0 0 0 0 0 0 0 0 0 0 0 0 0 0 0 0 0 0 0 0 0 0 0 0 0 0 0 0 0 0 0 0 0 0 0 0 0 0 0 0 0 0 0
0 0 0 0 0 0 0 0 1099 1129 1151 1143 1139 1174 1140 0 1252 1304 1292 0 1252 1270 1275 0 0 0 0 0 0 0 0 0 0 0 0 0 0 0 0 0 0 0 0 0 0 0 0 0 0 0 0 0 0 0 0 0 0 0 0 0 0 0 0 0 0 0 0 0 0 0 0 0 0 0 0 0 0 0 0 0 0 0 0 0 0 0 0 0 0 0 0 0 0 0 0 0 0 0 0 0 0 0 0 0 0 0 0 0 0 0 0 0 0 0 0 0 0 0 0 0
0 0 0 0 0 0 1108 1117 1132 1113 1164 0 1169 1170 1188 1205 1274 1256 1272 1276 1274 1265 1292 1285 0 0 0 0 0 0 0 0 0 0 0 0 0 0 0 0 0 0 0 0 0 0 0 0 0 0 0 0 0 0 0 0 0 0 0 0 0 0 0 0 0 0 0 0 0 0 0 0 0 0 0 0 0 0 0 0 0 0 0 0 0 0 0 0 0 0 0 0 0 0 0 0 0 0 0 0 0 0 0 0 0 0 0 0 0 0 0 0 0 0 0 0 0 0 0 0
0 0 0 0 0 0 0 0 0 0 0 0 1202 1240 1230 1305 1293 1270 1298 1275 1270 1242 1260 1236 0 0 0 0 0 0 0 1401 0 0 0 0 0 0 0 0 0 0 0 0 0 0 0 0 0 0 0 0 0 0 0 0 0 0 0 0 0 0 0 0 0 0 0 0 0 0 0 0 0 0 0 0 0 0 0 0 0 0 0 0 0 0 0 0 0 0 0 0 0 0 0 0 0 0 0 0 0 0 0 0 0 0 0 0 0 0 0 0 0 0 0 0 0 0 0 0
0 0 0 0 0 0 0 0 0 0 0 0 1258 1279 1266 1297 1271 1275 1290 1254 1270 1240 1284 1285 0 1324 1356 1380 1366 0 0 1440 0 0 0 0 0 0 0 0 0 0 0 0 0 0 0 0 0 0 0 0 0 0 0 0 0 0 0 0 0 0 0 0 0 0 0 0 0 0 0 0 0 0 0 0 0 0 0 0 0 0 0 0 0 0 0 0 0 0 0 0 0 0 0 0 0 0 0 0 0 0 0 0 0 0 0 0 0 0 0 0 0 0 0 0 0 0 0 0
0 0 0 0 0 0 0 0 0 0 0 0 1271 1285 1252 1291 1250 1281 1238 1245 1251 1273 1255 1256 0 0 1323 1334 1357 1337 1320 1413 0 0 0 0 0 0 0 0 0 0 0 0 0 0 0 0 0 0 0 0 0 0 0 0 0 0 0 0 0 0 0 0 0 0 0 0 0 0 0 0 0 0 0 0 0 0 0 0 0 0 0 0 0 0 0 0 0 0 0 0 0 0 0 0 0 0 0 0 0 0 0 0 0 0 0 0 0 0 0 0 0 0 0 0 0 0 0 0
0 0 0 0 0 0 0 0 0 0 0 0 0 0 1295 1257 1301 1287 1305 1289 1250 1280 1270 1308 1277 0 0 1371 1379 1358 1397 1407 0 0 0 0 0 0 0 0 0 0 0 0 0 0 0 0 0 0 0 0 0 0 0 0 0 0 0 0 0 0 0 0 0 0 0 0 0 0 0 0 0 0 0 0 0 0 0 0 0 0 0 0 0 0 0 0 0 0 0 0 0 0 0 0 0 0 0 0 0 0 0 0 0 0 0 0 0 0 0 0 0 0 0 0 0 0 0 0
0 0 0 0 0 0 0 0 0 0 0 0 0 0 0 0 0 0 0 0 0 1273 1274 1270 1268 0 0 1322 1340 1349 1368 1386 1440 0 0 0 0 0 0 0 0 0 0 0 0 0 0 0 0 0 0 0 0 0 0 0 0 0 0 0 0 0 0 0 0 0 0 0 0 0 0 0 0 0 0 0 0 0 0 0 0 0 0 0 0 0 0 0 0 0 0 0 0 0 0 0 0 0 0 0 0 0 0 0 0 0 0 0 0 0 0 0 0 0 0 0 0 0 0 0
0 0 0 0 0 0 0 0 0 0 0 0 0 0 0 0 0 0 0 0 0 0 0 1336 1330 0 0 0 1335 1335 1355 1389 1390 0 0 0 0 0 0 0 0 0 0 0 0 0 0 0 0 0 0 0 0 0 0 0 0 0 0 0 0 0 0 0 0 0 0 0 0 0 0 0 0 0 0 0 0 0 0 0 0 0 0 0 0 0 0 0 0 0 0 0 0 0 0 0 0 0 0 0 0 0 0 0 0 0 0 1734 0 0 0 0 0 0 0 0 0 0 0 0
0 0 0 0 0 0 0 0 0 0 0 0 0 0 0 0 0 0 0 0 0 0 0 1430 1399 1323 1335 1300 1319 1357 1372 1396 1432 0 0 0 0 0 0 0 0 0 0 0 0 0 0 0 0 0 0 0 0 0 0 0 0 0 0 0 0 0 0 0 0 0 0 0 0 0 0 0 0 0 0 0 0 0 0 0 0 0 0 0 0 0 0 0 0 0 0 0 0 0 0 0 0 0 0 0 0 0 0 0 0 0 1786 1747 0 0 0 0 0 0 0 0 0 0 0 0
0 0 0 0 0 0 0 0 0 0 0 0 0 0 0 0 0 0 0 0 0 0 0 1392 1371 1393 1315 1314 1328 1335 1338 1402 1403 0 0 0 0 0 0 0 0 0 0 0 0 0 0 0 0 0 0 0 0 0 0 0 0 0 0 0 0 0 0 0 0 0 0 0 0 0 0 0 0 0 0 0 0 0 0 0 0 0 0 0 0 0 0 0 0 0 0 0 0 0 0 0 0 0 0 0 0 0 0 0 0 0 1718 0 1689 0 0 0 0 0 0 0 0 0 0 0
0 0 0 0 0 0 0 0 0 0 0 0 0 0 0 0 0 0 0 0 0 0 0 1387 1363 1360 1362 1334 1333 1366 1361 1410 1427 0 0 0 0 0 0 0 0 0 0 0 0 0 0 0 0 0 0 0 0 0 0 0 0 0 0 0 0 0 0 0 0 0 0 0 0 0 0 0 0 0 0 0 0 0 0 0 0 0 0 0 0 0 0 0 0 0 0 0 0 0 0 0 0 0 0 0 0 0 0 0 0 1792 1741 0 0 0 0 0 0 0 0 0 0 0 0 0
0 0 0 0 0 0 0 0 0 0 0 0 0 0 0 0 0 0 0 0 0 0 0 1362 1382 1391 1386 1367 1365 1342 1344 1427 1426 0 0 0 0 0 0 0 0 0 0 0 0 0 0 0 0 0 0 0 0 0 0 0 0 0 0 0 0 0 0 0 0 0 0 0 0 0 0 0 0 0 0 0 0 0 0 0 0 0 0 0 0 0 0 0 0 0 0 0 0 0 0 0 0 0 0 0 0 0 0 0 0 0 0 1753 1737 0 0 0 0 0 0 0 0 0 0 0
1263 1262 1288 1273 1266 1294 1281 0 0 0 0 0 0 0 0 0 0 0 0 0 0 0 0 0 1363 1377 1370 1377 1384 1392 1375 1427 1418 0 0 0 0 0 0 0 0 0 0 0 0 0 0 0 0 0 0 0 0 0 0 0 0 0 0 0 0 0 0 0 0 0 0 0 0 0 0 0 0 0 0 0 0 0 0 0 0 0 0 0 0 0 0 0 0 0 0 0 0 0 0 0 0 0 0 0 0 0 0 0 1793 1770 1680 1703 1703 1722 0 0 0 0 0 0 0 0 0 0
1263 1272 1271 1270 1277 1288 1307 1352 1315 1376 1353 0 0 0 0 0 0 0 0 0 0 0 0 1378 1356 1374 1362 1368 1371 1367 1362 1420 1412 0 0 0 0 0 0 0 0 0 0 0 0 0 0 0 0 0 0 0 0 0 0 0 0 0 0 0 0 0 0 0 0 0 0 0 0 0 0 0 0 0 0 0 0 0 0 0 0 0 0 0 0 0 0 0 0 0 0 0 0 0 0 0 0 0 0 0 0 0 0 1744 1837 1738 1770 1745 1694 1709 1668 1712 0 0 0 0 0 0 0 0
1215 1253 1269 1283 1286 1300 1303 1305 1312 1341 1327 1343 1358 1374 1415 1386 0 0 0 0 0 0 0 0 0 1393 0 0 1380 0 0 1423 1439 0 0 0 0 0 0 0 0 0 0 0 0 0 0 0 0 0 0 0 0 0 0 0 0 0 0 0 0 0 0 0 0 0 0 0 0 0 0 0 0 0 0 0 0 0 0 0 0 0 0 0 0 0 0 0 0 0 0 0 0 0 0 0 0 0 0 0 0 0 0 1799 1807 1742 1750 1715 1721 1654 1670 1598 0 0 0 0 0 0 0 0
0 0 0 0 1243 1300 1295 1306 1329 1312 1332 1339 1361 1379 1378 1394 1412 1432 1459 1459 0 0 0 0 0 0 0 0 0 0 0 1439 1450 1462 0 0 0 0 0 0 0 0 0 0 0 0 0 0 0 0 0 0 0 0 0 0 0 0 0 0 0 0 0 0 0 0 0 0 0 0 0 0 0 0 0 0 0 0 0 0 0 0 0 0 0 0 0 0 0 0 0 0 0 0 0 0 0 0 0 0 0 0 1821 1787 1797 1708 1745 1666 1695 1656 0 0 0 0 0 0 0 0 0 0
0 0 0 0 0 0 0 0 0 1330 1362 1353 1338 1379 1390 1395 1389 1409 1441 1454 1455 1486 0 0 0 0 0 0 0 0 0 1489 1464 1459 0 0 0 0 0 0 0 0 0 0 0 0 0 0 0 0 0 0 0 0 0 0 0 0 0 0 0 0 0 0 0 0 0 0 0 0 0 0 0 0 0 0 0 0 0 0 0 0 0 0 0 0 0 0 0 0 0 0 0 0 0 0 0 0 0 0 0 0 0 0 1703 1650 1637 1631 1579 1590 1621 1565 1578 1543 0 0 0 0 0 0
0 0 0 0 0 0 0 0 0 0 0 0 0 0 0 1379 1399 1405 1430 1432 1439 1458 0 0 0 0 0 0 0 0 0 0 1467 0 0 0 0 0 0 0 0 0 0 0 0 0 0 0 0 0 0 0 0 0 0 0 0 0 0 0 0 0 0 0 0 0 0 0 0 0 0 0 0 0 0 0 0 0 0 0 0 0 0 0 0 0 0 0 0 0 0 0 0 0 0 0 0 0 0 0 0 0 1664 1620 1608 1579 1586 1586 1572 1561 1540 1606 1558 1563 1579 0 0 0 0 0
0 0 0 0 0 0 0 0 0 0 0 0 0 0 0 0 0 0 0 0 0 1432 0 0 0 0 0 0 0 0 0 0 0 0 0 0 0 0 0 0 0 0 0 0 0 0 0 0 0 0 0 0 0 0 0 0 0 0 0 0 0 0 0 0 0 0 0 0 0 0 0 0 0 0 0 0 0 0 0 0 0 0 0 0 0 0 0 0 0 0 0 0 0 0 0 0 0 0 0 0 0 1595 1596 1579 1578 1574 1560 1570 1580 1595 1569 1547 1570 1524 0 0 0 0 0 0
0 0 0 0 0 0 0 0 0 0 0 0 0 0 0 0 0 0 0 0 0 0 0 0 0 0 0 0 0 0 0 0 0 0 0 0 0 0 0 0 0 0 0 0 0 0 0 0 0 0 0 0 0 0 0 0 0 0 0 0 0 0 0 0 0 0 0 0 0 0 0 0 0 0 0 0 0 0 0 0 0 0 0 0 0 0 0 0 0 0 0 0 0 0 0 0 0 0 0 0 0 0 0 1593 1589 1563 1577 1612 1577 1609 1552 1593 0 0 0 0 0 0 0 0
0 0 0 0 0 0 0 0 0 0 0 0 0 0 0 0 0 0 0 0 0 0 0 0 0 0 0 0 0 0 0 0 0 0 0 0 0 0 0 0 0 0 0 0 0 0 0 0 0 0 0 0 0 0 0 0 0 0 0 0 0 0 0 0 0 0 0 0 0 0 0 0 0 0 0 0 0 0 0 0 0 0 0 0 0 0 0 0 0 0 0 0 0 0 0 0 0 0 0 0 0 0 0 0 0 0 0 1547 0 0 0 0 0 0 0 0 0 0 0 0
0 0 0 0 0 0 0 0 0 0 0 0 0 0 0 0 0 0 0 0 0 0 0 0 0 0 0 0 0 0 0 0 0 0 0 0 0 0 0 0 0 0 0 0 0 0 0 0 0 0 0 0 0 0 0 0 0 0 0 0 0 0 0 0 0 0 0 0 0 0 0 0 0 0 0 0 0 0 0 0 0 0 0 0 0 0 0 0 0 0 0 0 0 0 0 0 0 1610 0 0 0 0 0 0 0 0 0 0 0 0 0 0 0 0 0 0 0 0 0 0
568 560 0 0 0 0 0 0 0 0 0 0 0 0 0 0 0 0 0 0 0 0 0 0 0 1894 1861 0 0 0 0 0 0 0 0 0 0 0 0 0 0 0 0 0 0 0 0 2901 2922 2938 2930 2893 2961 2926 2901 2950 2938 2961 2931 2884 2910 2958 2965 2895 2907 2884 0 0 0 0 0 0 0 0 0 0 0 0 0 0 0 0 0 0 0 0 0 0 0 0 0 0 0 0 0 1795 1738 0 0 0 0 0 0 0 0 0 0 0 0 0 0 0 0 0 0 0 0 0 0 0
573 598 596 600 636 587 0 0 0 0 0 0 0 0 0 0 0 0 0 0 0 0 0 0 0 0 0 1931 1855 0 0 0 0 0 0 0 0 0 0 0 0 0 0 0 0 0 0 2898 2903 2936 2959 2931 2877 2916 2917 2965 2934 2899 2912 2911 2913 2887 2913 2919 2917 2893 0 0 0 0 0 0 0 0 0 0 0 0 0 0 0 0 0 0 0 0 0 0 0 0 0 0 0 0 0 0 0 0 0 0 0 0 0 0 0 0 0 0 0 0 0 0 0 0 0 0 0 0 0 0
584 575 591 593 592 639 631 650 640 0 0 0 0 0 0 0 0 0 0 0 0 0 0 0 0 0 0 0 0 0 0 0 0 0 0 0 0 0 0 0 0 0 0 0 0 0 0 2950 2909 2909 2906 2896 2939 2891 2875 2908 2878 2897 2924 2939 2944 2916 2915 2931 2906 0 0 0 0 0 0 0 0 0 0 0 0 0 0 0 0 0 0 0 0 0 0 0 0 0 0 0 0 0 0 0 0 0 0 0 0 0 0 0 0 0 0 0 0 0 0 0 0 0 0 0 0 0 0 0
561 569 572 616 609 640 637 625 657 653 686 707 0 0 0 0 0 0 0 0 0 0 0 0 0 0 0 0 0 0 0 0 0 0 0 0 0 0 0 0 0 0 0 0 0 0 0 2914 2927 2906 2915 2911 2946 2946 2928 2933 2913 2898 2901 2881 2880 2890 2908 2885 2948 2898 0 0 0 0 0 0 0 0 0 0 0 0 0 0 0 0 0 0 0 0 0 0 0 0 0 0 0 0 0 0 0 0 0 0 0 0 0 0 0 0 0 0 0 0 0 0 0 0 0 0 0 0 0 0
577 607 608 592 621 636 616 630 650 666 696 705 680 720 759 0 0 0 0 0 0 0 0 0 0 0 0 0 0 0 0 0 0 0 0 0 0 0 0 0 0 0 0 0 0 0 0 2952 2906 2936 2919 2883 2878 2882 2919 2912 2887 2924 2913 2887 2908 2895 2933 2910 2905 2832 0 0 0 0 0 0 0 0 0 0 0 0 0 0 0 0 0 0 0 0 0 0 0 0 0 0 0 0 0 0 0 0 0 0 0 0 0 0 0 0 0 0 0 0 0 0 0 0 0 0 0 0 0 0
746 772 776 731 731 661 648 658 671 651 677 694 689 744 745 749 793 803 0 0 0 0 0 0 0 0 0 0 0 0 0 0 0 0 0 0 0 0 0 0 0 0 0 0 0 0 0 2909 2921 2933 2901 2948 2908 2952 2909 2898 2873 2903 2877 2897 2940 2872 2869 2903 2915 2932 0 0 0 0 0 0 0 0 0 0 0 0 0 0 0 0 0 0 0 0 0 0 0 0 0 0 0 0 0 0 0 0 0 0 0 0 0 0 0 0 0 0 0 0 0 0 0 0 0 0 0 0 0 0
783 798 828 822 839 836 834 855 825 791 750 727 727 752 696 756 768 785 788 793 831 0 0 0 0 0 0 0 0 0 0 0 0 0 0 0 0 0 0 0 0 0 0 0 0 0 0 2916 2976 2921 2956 2970 2897 2900 2899 2927 2941 2921 2893 2893 2881 2897 2885 2865 2870 2940 0 0 0 0 0 0 0 0 0 0 0 0 0 0 0 0 0 0 0 0 0 0 0 0 0 0 0 0 0 0 0 0 0 0 0 0 0 0 0 0 0 0 0 0 0 0 0 0 0 0 0 0 0 0
776 808 821 824 829 846 879 888 887 905 919 924 920 894 843 784 772 782 800 805 841 852 865 924 0 0 0 0 0 0 0 0 0 0 0 0 0 0 0 0 0 0 0 0 0 0 0 2903 2916 2950 2923 2873 2898 2878 2919 2919 2917 2921 2888 2921 2900 2885 2856 2891 2908 2916 0 0 0 0 0 0 0 0 0 0 0 0 0 0 0 0 0 0 0 0 0 0 0 0 0 0 0 0 0 0 0 0 0 0 0 0 0 0 0 0 0 0 0 0 0 0 0 0 0 0 0 0 0 0
654 0 867 846 855 845 853 854 911 913 917 948 940 943 943 939 943 930 909 855 834 850 856 885 904 935 920 0 0 0 0 0 0 0 0 0 0 0 0 0 0 0 0 0 0 0 0 2935 2922 2912 2896 2917 2925 2970 2941 2902 2879 2959 2906 2947 2911 2911 2870 2916 2903 2914 0 0 0 0 0 0 0 0 0 0 0 0 0 0 0 0 0 0 0 0 0 0 0 0 0 0 0 0 0 0 0 0 0 0 0 0 0 0 0 0 0 0 0 0 0 0 0 0 0 0 0 0 0 0
643 935 944 934 926 912 932 896 915 904 933 960 945 951 940 949 952 958 950 951 934 925 894 912 895 936 930 1010 1031 0 0 0 0 0 0 0 0 0 0 0 0 0 0 0 0 0 0 2894 2918 2871 2933 2911 2904 2922 2942 2925 2857 2875 2933 2911 2920 2890 2909 2887 2929 2940 0 0 0 0 0 0 0 0 0 0 0 0 0 0 0 0 0 0 0 0 0 0 0 0 0 0 0 0 0 0 0 0 0 0 0 0 0 0 0 0 0 0 0 0 0 0 0 0 0 0 0 0 0 0
613 705 0 0 0 0 0 0 0 0 998 977 969 963 962 974 961 964 980 958 975 951 949 943 926 944 964 1008 1020 1013 1075 0 0 0 0 0 0 0 0 0 0 0 0 0 0 0 0 2881 2880 2869 2881 2914 2891 2876 2933 2943 2913 2877 2870 2878 2920 2897 2920 2890 2938 2857 0 0 0 0 0 0 0 0 0 0 0 0 0 0 0 0 0 0 0 0 0 0 0 0 0 0 0 0 0 0 0 0 0 0 0 0 0 0 0 0 0 0 0 0 0 0 0 0 0 0 0 0 0 0
590 572 577 0 1107 1146 1176 1141 1130 1145 1150 1142 1150 1139 1143 1121 1125 1057 0 0 1030 1053 1044 952 981 1033 1106 1116 1105 1077 1037 0 0 0 0 0 0 0 0 0 0 0 0 0 0 0 0 2915 2936 2918 2886 2916 2937 2867 2949 2847 2901 2864 2903 2945 2867 2947 2894 2923 2882 2897 0 0 0 0 0 0 0 0 0 0 0 0 0 0 0 0 0 0 0 0 0 0 0 0 0 0 0 0 0 0 0 0 0 0 0 0 0 0 0 0 0 0 0 0 0 0 0 0 0 0 0 0 0 0
583 579 609 612 0 0 0 0 0 0 0 0 0 0 0 0 1383 1023 987 0 0 1157 1101 0 0 1102 1160 1166 1130 1145 1148 0 0 0 0 0 0 0 0 0 0 0 0 0 0 0 0 2909 2846 2887 2905 2897 2904 2881 2910 2925 2915 2870 2881 2879 2837 2880 2879 2940 2867 2856 0 0 0 0 0 0 0 0 0 0 0 0 0 0 0 0 0 0 0 0 0 0 0 0 0 0 0 0 0 0 0 0 0 0 0 0 0 0 0 0 0 0 0 0 0 0 0 0 0 0 0 0 0 0
602 601 613 606 645 0 0 0 0 0 0 0 0 0 0 0 0 1005 975 0 0 0 0 0 0 0 0 0 0 0 0 0 0 0 0 0 0 0 0 0 0 0 0 0 0 0 0 2880 2918 2919 2938 2876 2933 2929 2889 2940 2859 2877 2918 2868 2869 2936 2894 2868 2926 2847 0 0 0 0 0 0 0 0 0 0 0 0 0 0 0 0 0 0 0 0 0 0 0 0 0 0 0 0 0 0 0 0 0 0 0 0 0 0 0 0 0 0 0 0 0 0 0 0 0 0 0 0 0 0
582 579 607 641 594 651 0 0 0 0 0 0 0 0 0 0 0 0 0 0 0 0 0 0 0 0 0 0 0 0 0 0 0 0 0 0 0 0 0 0 0 0 0 0 0 0 0 2914 2933 2909 2887 2923 2939 2915 2906 2891 2901 2970 2868 2952 2873 2903 2904 2881 2884 0 0 0 0 0 0 0 0 0 0 0 0 0 0 0 0 0 0 0 0 0 0 0 0 0 0 0 0 0 0 0 0 0 0 0 0 0 0 0 0 0 0 0 0 0 0 0 0 0 0 0 0 0 0 0
575 596 624 651 607 597 0 0 0 0 0 0 0 0 0 0 0 0 0 0 0 0 963 0 0 0 0 0 0 0 0 0 0 0 0 0 0 0 0 0 0 0 0 0 0 0 0 2877 2910 2925 2882 2898 2903 2899 2905 2905 2888 2893 2910 2869 2901 2864 2896 2882 2886 0 0 0 0 0 0 0 0 0 0 0 0 0 0 0 0 0 0 0 0 0 0 0 0 0 0 0 0 0 0 0 0 0 0 0 0 0 0 0 0 0 0 0 0 0 0 0 0 0 0 0 0 0 0 0
587 603 626 574 608 585 0 0 0 0 0 0 0 0 0 0 0 0 0 0 0 0 0 0 0 0 0 0 0 0 0 0 0 0 0 0 0 0 0 0 0 0 0 0 0 0 0 2931 2932 2967 2924 2933 2902 2901 2928 2913 2902 2914 2925 2887 2944 2889 2892 2868 2932 0 0 0 0 0 0 0 0 0 0 0 0 0 0 0 0 0 0 0 0 0 0 0 0 0 0 0 0 0 0 0 0 0 0 0 0 0 0 0 0 0 0 0 0 0 0 0 0 0 0 0 0 0 0 0
592 593 606 582 581 589 590 0 0 0 0 0 0 0 0 0 0 0 0 0 0 0 0 0 0 0 0 0 0 0 0 0 0 0 0 0 0 0 0 0 0 0 0 0 0 0 0 2915 2925 2928 2934 2903 2901 2951 2936 2873 2946 2898 2935 2918 2901 2888 2895 2925 2898 2893 0 0 0 0 0 0 0 0 0 0 0 0 0 0 0 0 0 0 0 0 0 0 0 0 0 0 0 0 0 0 0 0 0 0 0 0 0 0 0 0 0 0 0 0 0 0 0 0 0 0 0 0 0 0
560 619 609 625 605 606 632 0 0 0 0 0 0 0 0 0 2268 0 0 0 0 0 973 966 0 0 0 0 0 0 0 0 0 0 0 0 0 0 0 0 0 0 0 0 0 0 0 2880 2914 2934 2887 2918 2934 2879 2884 2882 2914 2844 2893 2876 2909 2889 2896 2886 2859 2889 0 0 0 0 0 0 0 0 0 0 0 0 0 0 0 0 0 0 0 0 0 0 0 0 0 0 0 0 0 0 0 0 0 0 0 0 0 0 0 0 0 0 0 0 0 0 0 0 0 0 0 0 0 0
581 572 608 643 619 622 647 0 0 0 0 0 0 0 0 0 0 0 0 0 0 0 0 0 0 0 0 0 0 0 0 0 0 0 0 0 0 0 0 0 0 0 0 0 0 0 0 2905 2883 2913 2903 2919 2917 2931 2893 2905 2859 2883 2878 2898 2909 2932 2895 2887 2878 2869 0 0 0 0 0 0 0 0 0 0 0 0 0 0 0 0 0 0 0 0 0 0 0 0 0 0 0 0 0 0 0 0 0 0 0 0 0 0 0 0 0 0 0 0 0 0 0 0 0 0 0 0 0 0
596 586 577 586 602 613 0 0 0 0 0 0 0 0 0 0 0 0 0 0 0 0 0 0 0 0 0 0 0 0 0 0 0 0 0 0 0 0 0 0 0 0 0 0 0 0 0 0 0 0 0 0 0 0 0 0 0 0 0 0 0 2946 2973 2900 2909 0 0 0 0 0 0 0 0 0 0 0 0 0 0 0 0 0 0 0 0 0 0 0 0 0 0 0 0 0 0 0 0 0 0 0 0 0 0 0 0 0 0 0 0 0 0 0 0 0 0 0 0 0 0 0
586 588 594 613 591 588 0 0 0 0 0 0 0 0 0 0 0 0 0 0 0 0 0 0 0 0 0 0 0 0 0 0 0 0 0 0 0 0 0 0 0 0 0 0 0 0 0 0 0 0 0 0 0 0 0 0 0 0 0 0 0 0 0 0 0 0 0 0 0 0 0 0 0 0 0 0 0 0 0 0 0 0 0 0 0 0 0 0 0 0 0 0 0 0 0 0 0 0 0 0 0 0 0 0 0 0 0 0 0 0 0 0 0 0 0 0 0 0 0 0
594 588 600 605 590 0 0 0 0 0 0 0 0 0 0 0 0 0 0 0 0 0 0 0 0 0 0 0 0 0 0 0 0 0 0 0 0 0 0 0 0 0 0 0 0 0 0 0 0 0 0 0 0 0 0 0 0 0 0 0 0 0 0 0 0 0 0 0 0 0 0 0 0 0 0 0 0 0 0 0 0 0 0 0 0 0 0 0 0 0 0 0 0 0 0 0 0 0 0 0 0 0 0 0 0 0 0 0 0 0 0 0 0 0 0 0 0 0 0 0
585 596 603 612 648 0 0 0 0 0 0 0 0 0 0 0 0 0 0 0 0 0 0 0 0 0 0 0 0 0 0 0 0 0 0 0 0 0 0 0 0 0 0 0 0 0 0 0 0 0 0 0 0 0 0 0 0 0 0 0 0 0 0 0 0 0 0 0 0 0 0 0 0 0 0 0 0 0 0 0 0 0 0 0 0 0 0 0 0 0 0 0 0 0 0 0 0 0 0 0 0 0 0 0 0 0 0 0 0 0 0 0 0 0 0 0 0 0 0 0
589 621 601 585 0 0 0 0 0 0 0 0 0 0 0 0 0 0 0 0 0 0 0 0 0 0 892 909 900 922 909 867 0 927 913 912 0 914 932 881 0 924 0 0 0 0 0 0 0 0 0 0 0 0 0 0 0 0 0 0 0 0 0 0 0 0 0 0 0 0 0 0 0 0 0 0 0 0 0 0 0 0 0 0 0 0 0 0 0 0 0 0 0 0 0 0 0 0 0 0 0 0 0 0 0 0 0 0 0 0 0 0 0 0 0 0 0 0 0 0
579 574 608 0 0 0 0 664 704 669 667 686 677 700 733 722 704 663 693 711 685 708 675 689 723 659 712 663 687 700 714 716 723 718 686 740 702 748 757 748 726 788 806 802 722 779 752 784 709 774 749 784 752 787 722 768 745 710 825 736 760 738 777 815 754 784 797 728 737 786 804 797 806 0 0 0 0 0 0 0 0 0 0 0 0 0 0 0 0 0 0 0 0 0 0 0 0 0 0 0 0 0 0 0 0 0 0 0 0 0 0 0 0 0 0 0 0 0 0 0
575 592 575 548 615 586 570 548 560 574 585 604 595 602 565 601 603 570 573 597 623 604 609 557 585 597 574 587 594 620 611 620 617 598 593 600 599 633 626 601 592 643 617 639 608 596 617 652 630 618 618 635 623 644 631 595 632 647 654 599 621 645 633 679 674 711 611 658 692 635 619 670 668 656 665 654 690 670 672 716 652 679 685 690 711 660 716 703 661 700 718 676 726 707 0 730 0 690 640 753 770 0 0 0 0 0 0 0 0 0 0 0 0 0 0 0 0 0 0 0
498 493 493 503 528 477 476 495 524 508 507 520 523 500 509 520 480 509 525 517 502 512 507 492 526 513 517 507 501 495 520 505 526 510 532 520 511 525 508 507 531 553 511 521 523 544 538 519 513 547 529 529 546 542 543 539 537 522 553 545 542 551 533 529 530 575 533 542 535 534 532 521 556 578 573 558 548 572 574 561 567 534 590 554 565 540 583 602 583 532 579 576 562 602 600 583 590 576 569 622 593 562 641 609 0 658 0 630 582 544 611 0 0 0 0 0 0 0 0 0
430 409 410 412 436 428 419 428 432 437 427 449 449 462 453 437 441 441 450 454 459 457 451 450 466 454 442 457 459 461 450 458 462 454 459 471 437 465 456 462 474 458 473 458 484 473 462 462 473 471 478 473 465 470 479 475 479 489 496 469 470 474 483 473 476 491 477 491 484 474 500 477 491 475 501 493 470 505 473 498 464 479 490 487 459 494 484 489 528 487 497 475 481 489 500 495 492 489 473 472 517 501 496 501 510 483 485 501 505 499 526 540 0 0 0 0 0 0 0 0
394 395 392 397 396 398 388 399 405 386 404 395 409 397 397 409 402 399 398 409 396 403 400 408 416 407 404 417 405 404 409 434 427 423 421 425 407 421 437 415 420 424 426 411 405 415 417 428 426 419 414 427 433 438 425 416 423 432 428 422 415 429 420 436 432 425 418 433 439 426 434 419 436 440 436 419 420 448 409 441 434 433 454 441 436 444 444 439 431 433 433 434 431 451 415 434 421 447 450 440 441 428 451 431 439 441 429 438 439 428 420 457 443 389 0 0 0 0 0 0
342 363 366 343 368 381 364 360 348 362 360 358 373 377 371 368 359 367 368 366 368 367 354 378 358 364 371 378 358 362 364 370 363 376 382 371 374 360 367 367 371 372 374 375 375 377 388 377 372 378 380 381 380 391 372 378 369 391 384 393 385 381 379 386 378 376 391 396 392 385 393 390 387 384 387 405 389 390 387 413 407 389 397 387 388 386 389 392 389 390 386 413 399 395 400 387 393 413 392 406 399 393 398 383 385 403 408 389 397 407 390 390 394 377 363 396 0 0 0 0
320 327 324 320 320 309 337 338 336 338 333 349 328 348 324 330 333 344 343 323 349 349 338 329 345 342 347 336 341 344 330 347 348 353 331 344 354 335 323 350 349 344 335 335 343 336 337 352 351 342 360 345 354 350 351 341 340 336 335 352 354 345 338 342 352 339 336 347 353 345 352 351 336 352 355 356 351 338 347 347 342 348 355 346 345 356 339 342 349 359 354 351 370 344 359 352 345 339 352 376 363 352 343 367 351 370 346 365 368 352 367 361 373 380 346 351 357 0 0 0
285 293 288 289 300 288 299 310 294 312 306 292 307 290 290 286 290 293 303 298 289 294 302 309 292 306 306 298 310 299 285 296 305 300 304 305 304 311 303 306 313 315 311 304 304 304 302 299 309 304 306 303 308 305 315 310 317 309 319 310 314 303 307 316 303 323 312 312 315 304 307 302 317 311 300 316 312 313 307 325 311 309 305 308 320 319 324 325 324 318 321 315 332 323 317 327 327 313 312 338 315 323 316 334 321 324 316 315 304 319 316 303 319 286 344 311 300 299 319 0
283 262 276 272 293 287 263 277 287 285 278 274 285 270 282 286 279 277 281 279 285 285 286 272 277 279 287 283 282 285 277 274 284 279 281 284 285 277 282 283 279 284 286 287 287 287 280 281 282 283 284 280 281 283 286 291 285 288 291 290 284 286 285 299 286 284 286 289 283 288 292 293 286 290 288 287 286 292 286 296 298 294 288 291 294 297 289 295 287 284 293 293 295 307 302 291 280 299 302 295 292 298 298 297 300 295 288 313 301 284 296 304 297 302 305 269 275 291 296 292
256 253 256 249 248 259 247 249 262 256 253 253 254 260 262 247 259 261 259 255 254 265 257 255 253 257 254 261 257 254 257 264 261 261 264 263 256 268 267 262 261 256 265 263 262 264 259 263 267 266 267 272 262 261 270 263 261 261 260 260 263 262 274 268 280 267 267 272 267 269 265 270 268 269 261 266 268 264 264 267 272 267 266 272 265 266 270 259 269 273 267 258 267 267 263 260 278 272 275 283 260 268 274 267 278 276 262 274 273 279 245 277 268 267 294 285 256 276 261 239
237 231 239 238 240 235 243 233 239 235 234 233 248 245 242 243 235 236 242 238 238 235 237 240 242 242 241 238 239 250 245 247 237 243 244 247 247 260 254 252 248 241 245 248 248 252 252 246 248 258 250 250 248 248 251 250 246 254 247 253 249 248 252 253 253 249 252 248 251 252 252 252 245 246 258 257 248 253 250 256 250 250 250 248 252 254 257 251 254 246 253 255 252 254 253 255 255 248 256 253 249 246 262 251 247 254 265 246 251 241 244 242 242 274 249 237 242 253 220 231
218 216 221 219 220 227 228 213 222 215 220 225 225 226 226 224 224 227 227 224 228 225 228 232 234 221 227 235 232 232 226 224 233 234 233 231 229 234 228 228 232 237 223 228 233 228 226 232 238 233 236 230 234 239 221 229 225 230 240 233 239 231 234 233 236 230 235 232 234 233 235 232 233 235 227 231 233 225 231 232 242 234 244 232 235 227 236 238 225 226 233 234 232 236 239 227 238 237 247 227 239 240 232 240 228 230 234 234 234 229 224 243 246 248 232 237 233 200 207 227
208 208 222 216 216 203 209 206 211 220 210 209 211 215 218 210 217 210 210 221 215 208 219 211 214 213 213 200 214 214 221 220 213 217 219 200 216 203 217 220 228 218 196 219 223 219 219 223 224 224 216 221 216 222 199 219 221 201 227 207 220 222 221 227 221 221 223 218 224 218 219 223 223 219 219 220 218 222 220 220 221 229 227 226 222 217 227 214 221 221 230 210 217 221 220 224 215 219 225 224 217 214 223 228 216 232 217 222 225 235 221 220 219 231 214 232 213 228 215 243
192 184 196 203 203 201 204 207 189 199 207 200 186 206 205 206 193 193 191 194 189 190 197 192 188 189 189 189 185 210 192 196 190 192 199 195 196 198 199 192 195 196 190 192 198 201 196 198 193 198 197 196 197 202 195 198 198 197 201 196 200 197 199 201 195 202 194 195 201 196 198 196 197 202 195 192 195 202 199 196 192 199 200 199 197 214 194 187 198 211 210 198 213 215 210 207 189 209 208 209 215 209 206 196 215 212 216 208 202 211 209 222 211 215 208 178 202 202 196 212
177 179 178 195 191 176 181 188 183 180 182 175 186 178 181 182 185 187 187 188 191 183 181 186 192 182 189 194 194 194 192 188 195 190 196 192 194 193 195 194 191 198 195 197 199 195 190 200 198 196 197 196 191 192 195 199 203 198 198 201 198 198 200 202 199 196 195 192 196 199 199 199 198 198 194 198 195 194 197 188 193 188 187 186 198 185 193 190 194 194 191 185 190 191 182 192 186 192 190 186 181 190 188 205 185 183 184 208 193 205 188 181 205 174 184 197 176 171 205 190
169 173 179 180 175 179 175 182 183 179 184 174 184 184 183 180 184 188 184 178 183 189 190 185 185 189 188 189 185 189 185 183 184 189 187 178 191 187 188 185 188 190 193 189 190 191 188 189 192 186 191 188 187 190 191 190 194 192 189 188 184 187 188 192 191 191 192 189 188 185 193 193 187 190 190 189 192 189 190 187 191 190 189 191 190 195 192 192 193 190 187 194 186 185 186 185 180 189 187 182 178 184 176 182 186 184 184 182 177 180 180 180 180 177 194 173 193 202 168 206
174 166 161 169 166 168 167 174 169 168 168 181 172 171 179 176 172 175 180 182 173 172 175 173 171 177 178 174 179 179 177 181 177 179 174 175 176 175 179 179 177 179 177 184 182 186 177 181 183 181 184 185 178 178 179 181 177 178 182 181 183 184 187 179 180 180 183 183 178 177 181 182 178 176 179 184 179 184 180 183 178 180 177 173 180 177 178 182 179 182 180 179 179 177 181 172 174 182 180 180 176 179 176 181 177 174 179 179 178 181 176 175 175 170 176 173 175 166 171 175
165 166 167 162 161 168 161 159 168 165 170 171 165 171 165 172 169 169 172 170 171 168 169 169 169 162 168 171 174 172 176 171 166 166 168 167 173 171 173 170 167 170 172 174 175 172 172 171 176 172 172 173 175 176 179 172 174 173 176 173 175 176 173 171 175 178 175 172 176 173 173 170 172 173 175 177 174 177 174 170 169 173 169 172 163 169 180 173 176 168 172 173 172 172 166 173 172 171 167 171 172 174 169 174 179 171 173 167 165 171 172 171 167 179 178 179 173 180 172 177
158 158 169 171 165 166 163 156 158 157 163 160 162 159 162 169 167 168 170 171 162 167 167 163 162 168 164 158 162 163 166 169 163 165 162 163 159 165 161 162 169 165 169 163 168 166 164 162 167 169 166 168 166 166 168 167 164 166 165 171 166 171 174 163 170 167 168 168 167 165 166 165 169 163 170 169 175 168 167 167 169 167 170 166 167 172 164 165 165 161 165 163 173 162 162 165 161 156 167 170 168 167 160 167 166 167 167 162 164 161 163 181 165 169 168 151 165 167 162 164
147 148 151 148 155 150 148 151 151 160 149 153 149 155 152 154 158 161 162 164 156 154 158 156 153 156 152 161 158 158 161 157 155 157 154 157 152 150 154 159 157 157 160 157 156 155 156 155 158 154 157 157 160 159 155 155 159 156 162 157 162 157 157 157 157 160 160 158 160 155 160 161 155 157 160 163 163 156 160 159 156 162 156 158 151 155 157 162 156 160 158 159 156 161 159 153 154 156 156 156 152 154 156 161 162 152 150 155 158 158 155 156 156 160 157 148 161 166 153 139
135 143 146 147 149 140 149 152 148 142 150 147 147 150 151 144 147 153 142 151 156 152 161 150 150 147 152 152 151 147 152 148 150 149 149 147 150 154 147 151 152 149 154 157 149 144 154 153 147 152 154 154 151 148 153 151 150 157 156 158 153 152 152 151 145 154 146 153 149 156 152 154 151 159 151 155 157 161 156 152 151 156 150 148 152 148 156 153 154 150 154 154 157 152 151 150 150 148 156 160 155 153 162 158 159 149 153 149 152 150 149 161 153 152 157 153 150 157 141 142
139 133 138 140 139 139 142 137 139 139 144 144 143 145 142 138 145 141 142 148 142 144 148 152 143 142 151 145 145 145 141 133 146 144 143 147 143 142 145 147 147 144 144 146 148 146 132 143 146 146 132 143 134 143 147 148 145 149 149 146 151 146 128 146 147 148 148 148 147 145 134 145 152 146 148 149 151 151 151 149 143 143 143 144 143 144 149 147 153 148 145 146 144 145 150 146 141 147 155 148 147 145 148 141 141 143 145 144 140 147 135 149 138 154 146 162 167 148 137 143
134 131 132 134 136 136 140 137 140 141 140 0 132 141 134 138 141 138 139 141 146 142 141 141 145 144 149 140 139 139 137 130 145 130 133 131 133 131 140 139 144 148 140 142 141 141 129 128 130 140 144 144 143 142 136 144 143 144 145 131 136 133 144 149 143 131 144 135 145 142 144 143 136 142 140 144 147 131 147 145 149 140 141 132 141 129 144 144 141 143 128 141 145 146 141 139 141 145 145 142 139 143 142 137 139 137 134 144 140 142 142 131 134 136 144 141 132 128 150 112
136 133 129 133 133 136 143 135 139 136 136 133 139 138 138 136 129 139 137 137 142 142 140 142 138 137 140 138 139 124 128 125 129 131 128 127 127 129 125 131 140 140 141 130 0 141 128 140 128 125 127 129 130 133 0 143 0 130 131 142 134 127 142 135 141 127 142 127 143 131 129 125 126 140 131 128 143 132 133 128 126 143 128 127 129 129 128 128 129 144 136 138 139 137 138 126 140 147 141 141 135 132 140 143 137 131 133 131 138 138 129 129 137 137 130 149 131 144 128 125
119 106 128 111 123 126 139 125 110 111 121 109 120 121 123 126 121 132 123 121 122 126 130 136 126 139 137 137 0 126 126 122 120 122 117 120 127 127 124 122 127 126 125 131 0 0 127 128 130 121 123 122 130 126 127 127 132 127 127 122 129 122 126 125 125 128 129 132 126 130 126 125 121 124 124 122 118 128 119 127 130 123 124 128 126 127 119 127 123 127 123 125 135 138 124 121 135 137 134 130 119 122 124 122 113 117 111 120 133 133 118 136 137 135 120 136 108 148 135 84
109 119 109 111 115 117 128 118 129 116 125 130 119 123 117 115 115 125 124 125 126 127 127 125 125 123 131 127 126 126 129 0 125 125 122 113 121 121 0 123 130 125 0 0 0 0 123 128 126 121 124 123 125 117 123 123 124 121 126 119 127 120 114 121 127 127 128 126 123 121 124 122 127 117 121 121 121 129 126 123 123 123 125 124 117 121 125 123 125 123 116 122 122 120 120 124 135 134 121 127 122 120 122 116 114 121 120 119 123 136 131 135 130 136 110 133 118 114 114 134
106 103 118 120 112 111 113 118 115 109 121 117 119 107 111 107 120 111 115 122 116 112 111 119 115 111 120 117 122 126 121 0 118 121 117 112 117 0 118 117 120 0 0 121 127 0 120 116 112 117 120 117 119 121 118 122 122 122 117 116 124 123 118 118 119 122 116 123 117 114 114 120 118 115 118 113 123 112 114 121 119 114 115 118 120 112 121 113 111 118 118 118 120 120 107 118 125 120 113 119 116 120 121 110 112 110 117 113 111 118 133 114 129 131 130 131 126 113 99 129
96 105 106 107 101 100 114 113 103 115 108 105 110 109 124 118 112 113 103 105 115 107 113 106 112 110 112 116 117 114 115 117 112 114 116 108 105 114 112 116 116 112 111 110 110 118 117 0 116 0 116 111 116 115 0 0 110 107 121 112 125 114 105 111 107 112 105 109 121 108 113 104 109 102 107 111 109 107 111 112 108 104 111 114 114 105 109 111 108 117 105 108 100 118 107 112 118 108 107 107 103 111 112 108 110 114 108 113 112 117 107 109 95 109 97 98 104 87 106 102
102 100 110 108 105 102 111 106 109 110 106 108 115 112 118 117 107 113 108 100 111 99 98 109 118 109 112 113 105 122 110 110 111 108 115 112 113 0 105 111 110 106 110 101 105 108 107 109 120 0 109 110 107 112 108 112 105 107 114 105 110 112 118 0 115 112 104 115 113 112 103 102 108 112 101 103 105 106 106 111 111 102 109 107 97 108 102 107 112 105 112 110 106 101 102 110 104 105 109 109 106 114 107 123 106 104 104 108 91 113 112 100 112 111 127 105 92 127 109 117
87 86 108 106 96 97 100 92 99 91 100 99 99 102 100 104 100 106 105 105 98 100 94 103 106 101 108 100 101 106 107 106 110 105 105 100 105 104 106 112 103 102 99 96 100 102 107 100 107 102 108 106 106 104 102 106 101 101 107 104 104 104 107 0 110 104 0 112 104 108 103 104 99 108 102 106 99 104 0 100 0 102 98 97 95 100 98 99 98 104 99 103 97 98 97 100 96 100 103 99 98 103 97 101 102 103 101 89 94 91 91 99 100 110 107 98 113 110 98 126
91 91 87 94 93 94 96 94 94 93 99 97 101 103 101 103 97 105 109 98 97 95 92 96 96 94 102 99 104 95 107 103 105 102 101 101 102 102 100 99 103 101 98 97 103 104 100 101 105 100 109 100 100 103 97 95 102 105 102 100 104 101 108 101 115 102 104 109 106 101 100 107 105 102 96 95 104 96 100 96 0 105 94 91 98 97 97 109 97 98 102 100 96 104 96 104 92 95 87 104 102 88 100 90 92 101 93 100 103 93 90 88 104 88 94 106 115 86 97 129
93 100 95 97 92 95 93 87 89 93 94 94 98 93 92 86 92 95 106 104 103 94 94 92 95 92 102 93 92 102 97 98 102 96 94 105 99 94 97 107 96 96 93 92 101 94 102 103 93 101 102 96 87 91 94 100 91 97 100 93 97 97 103 0 101 102 99 95 100 99 95 96 102 106 87 106 99 100 103 105 97 99 89 105 99 94 91 91 98 97 91 94 98 82 93 90 95 89 102 91 94 95 98 100 99 99 100 81 86 88 87 98 93 93 96 84 129 104 89 82
84 80 80 82 90 86 87 91 81 91 92 87 94 90 86 81 91 92 88 94 93 93 90 95 93 86 97 92 87 97 92 91 94 97 87 98 86 98 89 94 88 85 98 88 99 99 90 100 94 97 93 90 97 94 99 99 97 100 97 92 89 94 89 91 91 89 96 93 93 95 99 94 98 88 99 93 93 91 90 96 95 98 95 95 97 90 88 95 93 93 95 92 93 89 91 89 91 93 91 94 89 83 93 78 88 92 92 84 87 86 75 85 83 84 85 105 86 58 66 82
92 83 83 84 93 84 88 99 86 94 88 85 89 87 89 90 90 84 93 91 83 92 90 95 91 89 93 88 89 90 91 95 100 88 102 87 90 92 97 93 90 96 90 90 96 96 94 93 88 93 100 90 90 90 98 96 95 98 93 95 95 91 98 92 90 92 90 93 89 94 90 89 95 93 96 97 97 99 88 92 94 99 93 91 90 93 91 96 95 92 96 98 102 86 91 90 90 91 87 99 90 92 92 97 86 99 91 79 88 86 87 89 90 90 90 86 89 83 0 0
81 89 88 87 88 85 82 87 84 0 84 83 91 88 81 81 92 91 94 89 94 94 90 97 91 89 95 87 90 97 90 95 94 95 91 92 94 93 95 96 98 91 92 87 98 88 92 87 99 98 89 95 94 96 93 97 96 97 97 95 96 85 95 98 91 88 99 94 97 94 97 84 98 96 95 90 87 94 88 97 94 94 92 94 97 92 82 99 99 93 87 98 105 89 91 94 91 90 89 88 86 87 90 93 89 87 87 90 94 84 90 89 85 81 87 87 89 80 76 0
80 86 83 90 86 84 96 85 89 80 83 84 85 87 85 87 83 90 85 93 87 84 94 87 90 87 88 95 92 86 86 91 88 92 93 89 92 89 94 90 90 87 95 98 88 82 97 95 91 94 99 96 86 87 89 88 94 87 96 97 91 98 96 89 91 92 92 90 90 95 89 91 95 85 92 89 91 93 91 87 87 89 91 91 90 87 91 90 89 88 93 87 84 86 85 86 88 87 85 89 76 80 91 83 88 89 87 88 76 87 81 94 90 86 86 84 90 67 0 0
76 75 79 80 86 82 92 97 86 83 83 91 88 84 83 90 85 85 87 91 93 90 89 87 84 84 86 88 91 94 91 89 94 95 92 86 88 92 88 93 92 85 85 92 91 88 96 89 94 94 91 88 87 84 88 89 90 94 93 92 95 88 88 97 90 96 84 91 90 94 91 87 96 96 94 91 88 93 88 87 91 88 88 86 95 94 95 93 91 91 83 92 81 85 93 87 85 83 92 88 85 92 88 78 79 92 88 90 86 79 86 87 98 85 108 107 0 0 0 0
77 69 67 62 75 82 82 84 85 76 86 79 80 90 87 81 83 81 85 78 89 78 77 82 80 80 82 86 84 76 91 79 78 77 86 76 83 83 88 81 83 81 80 76 84 83 82 85 90 79 88 82 76 88 89 84 87 90 87 78 87 78 81 80 82 85 77 87 85 77 83 77 85 77 82 81 78 86 86 89 77 83 75 73 80 86 83 81 81 88 83 73 88 77 81 78 78 87 64 89 62 75 79 60 73 75 79 75 82 84 80 89 68 69 89 92 0 0 0 0
69 72 79 80 71 80 86 89 82 79 83 89 78 81 77 82 85 88 76 81 77 81 78 85 84 85 80 79 85 88 88 81 80 81 85 75 82 75 82 81 90 82 84 88 87 90 85 77 83 84 83 78 78 76 84 88 82 76 86 70 86 79 83 86 83 82 85 74 91 76 80 79 88 85 85 81 80 86 84 89 81 80 78 79 76 84 80 80 84 86 76 74 77 74 83 82 85 80 70 82 92 74 78 71 69 78 72 89 68 88 91 53 85 83 87 0 0 0 0 0
