0 0 0 0 0 0 0 0 0 0 0 0 0 0 0 0 0 0 0 0 0 0 0 0 0 0 0 0 0 0 0 0 0 0 0 0 0 0 0 0 0 0 0 0 0 0 0 0 0 0 0 0 0 0 0 0 0 0 0 0 0 0 0 0 0 0 0 0 0 0 0 0 0 0 0 0 0 0 0 0 0 0 0 0 0 0 0 0 0 0 0 0 0 0 0 0 0 0 0 0 0 0 0 0 0 0 0 0 0 0 0 0 0 0 0 0 0 0 0 0
0 0 0 0 0 0 0 0 0 0 0 0 0 0 0 0 0 0 0 0 0 0 0 0 0 0 0 0 0 0 0 0 0 0 0 0 0 0 0 0 0 0 0 0 0 0 0 0 0 0 0 0 0 0 0 0 0 0 0 0 0 0 0 0 0 0 0 0 0 0 0 0 0 0 0 0 0 0 0 0 0 0 0 0 0 0 0 0 0 0 0 0 0 0 0 0 0 0 0 0 0 0 0 0 0 0 0 0 0 0 0 0 0 0 0 0 0 0 0 0
0 0 0 0 0 0 0 0 0 0 0 0 0 0 0 0 0 1316 0 0 0 0 0 0 0 0 0 0 0 0 0 0 0 0 0 0 0 0 0 0 0 0 0 0 0 0 0 0 0 0 0 0 0 0 0 0 0 0 0 0 0 0 0 0 0 0 0 0 0 0 0 0 0 0 0 0 0 0 0 0 0 0 0 0 0 0 0 0 0 0 0 0 0 0 0 0 0 0 0 0 0 0 0 0 0 0 0 0 0 0 0 0 0 0 0 0 0 0 0 0
0 0 0 0 0 0 0 0 0 0 0 1151 1126 1159 0 0 1308 1277 0 0 0 1287 1269 0 0 0 0 0 0 0 0 0 0 0 0 0 0 0 0 0 0 0 0 0 0 0 0 0 0 0 0 0 0 0 0 0 0 0 0 0 0 0 0 0 0 0 0 0 0 0 0 0 0 0 0 0 0 0 0 0 0 0 0 0 0 0 0 0 0 0 0 0 0 0 0 0 0 0 0 0 0 0 0 0 0 0 0 0 0 0 0 0 0 0 0 0 0 0 0 0
0 0 0 0 0 0 0 0 1126 1154 1174 1142 1130 1180 1189 0 1307 1301 1294 0 1269 1267 1281 0 0 0 0 0 0 0 0 0 0 0 0 0 0 0 0 0 0 0 0 0 0 0 0 0 0 0 0 0 0 0 0 0 0 0 0 0 0 0 0 0 0 0 0 0 0 0 0 0 0 0 0 0 0 0 0 0 0 0 0 0 0 0 0 0 0 0 0 0 0 0 0 0 0 0 0 0 0 0 0 0 0 0 0 0 0 0 0 0 0 0 0 0 0 0 0 0
0 0 0 0 0 0 0 1161 1137 1148 0 0 1168 1156 1202 1224 1291 1295 1256 1275 1284 1266 1279 1250 0 0 0 0 0 0 0 0 0 0 0 0 0 0 0 0 0 0 0 0 0 0 0 0 0 0 0 0 0 0 0 0 0 0 0 0 0 0 0 0 0 0 0 0 0 0 0 0 0 0 0 0 0 0 0 0 0 0 0 0 0 0 0 0 0 0 0 0 0 0 0 0 0 0 0 0 0 0 0 0 0 0 0 0 0 0 0 0 0 0 0 0 0 0 0 0
0 0 0 0 0 0 0 0 0 0 0 0 1191 1239 1221 1284 1244 1274 1270 1264 1245 1281 1251 1260 1268 0 0 0 0 0 0 1357 0 0 0 0 0 0 0 0 0 0 0 0 0 0 0 0 0 0 0 0 0 0 0 0 0 0 0 0 0 0 0 0 0 0 0 0 0 0 0 0 0 0 0 0 0 0 0 0 0 0 0 0 0 0 0 0 0 0 0 0 0 0 0 0 0 0 0 0 0 0 0 0 0 0 0 0 0 0 0 0 0 0 0 0 0 0 0 0
0 0 0 0 0 0 0 0 0 0 0 0 1252 1285 1281 1290 1286 1282 1247 1276 1278 1270 1274 1251 1281 1331 1370 1351 1381 1372 0 1431 0 0 0 0 0 0 0 0 0 0 0 0 0 0 0 0 0 0 0 0 0 0 0 0 0 0 0 0 0 0 0 0 0 0 0 0 0 0 0 0 0 0 0 0 0 0 0 0 0 0 0 0 0 0 0 0 0 0 0 0 0 0 0 0 0 0 0 0 0 0 0 0 0 0 0 0 0 0 0 0 0 0 0 0 0 0 0 0
0 0 0 0 0 0 0 0 0 0 0 0 1272 1264 1281 1280 1276 1265 1270 1245 1277 1261 1276 1253 0 0 1353 1343 1361 1338 1374 1366 0 0 0 0 0 0 0 0 0 0 0 0 0 0 0 0 0 0 0 0 0 0 0 0 0 0 0 0 0 0 0 0 0 0 0 0 0 0 0 0 0 0 0 0 0 0 0 0 0 0 0 0 0 0 0 0 0 0 0 0 0 0 0 0 0 0 0 0 0 0 0 0 0 0 0 0 0 0 0 0 0 0 0 0 0 0 0 0
0 0 0 0 0 0 0 0 0 0 0 0 0 0 1257 1269 1279 1263 1280 1250 1267 1265 1256 1277 1266 0 0 1359 1359 1347 1384 1405 1441 0 0 0 0 0 0 0 0 0 0 0 0 0 0 0 0 0 0 0 0 0 0 0 0 0 0 0 0 0 0 0 0 0 0 0 0 0 0 0 0 0 0 0 0 0 0 0 0 0 0 0 0 0 0 0 0 0 0 0 0 0 0 0 0 0 0 0 0 0 0 0 0 0 0 0 0 0 0 0 0 0 0 0 0 0 0 0
0 0 0 0 0 0 0 0 0 0 0 0 0 0 0 0 0 0 0 0 0 1289 1280 1275 1243 0 0 1361 1349 1361 1374 1415 1417 0 0 0 0 0 0 0 0 0 0 0 0 0 0 0 0 0 0 0 0 0 0 0 0 0 0 0 0 0 0 0 0 0 0 0 0 0 0 0 0 0 0 0 0 0 0 0 0 0 0 0 0 0 0 0 0 0 0 0 0 0 0 0 0 0 0 0 0 0 0 0 0 0 0 0 0 0 0 0 0 0 0 0 0 0 0 0
0 0 0 0 0 0 0 0 0 0 0 0 0 0 0 0 0 0 0 0 0 0 0 1349 1304 0 0 0 1367 1356 1368 1392 1432 0 0 0 0 0 0 0 0 0 0 0 0 0 0 0 0 0 0 0 0 0 0 0 0 0 0 0 0 0 0 0 0 0 0 0 0 0 0 0 0 0 0 0 0 0 0 0 0 0 0 0 0 0 0 0 0 0 0 0 0 0 0 0 0 0 0 0 0 0 0 0 0 0 0 1755 0 0 0 0 0 0 0 0 0 0 0 0
0 0 0 0 0 0 0 0 0 0 0 0 0 0 0 0 0 0 0 0 0 0 0 1382 1374 1303 1320 1318 1344 1376 1337 1369 1393 0 0 0 0 0 0 0 0 0 0 0 0 0 0 0 0 0 0 0 0 0 0 0 0 0 0 0 0 0 0 0 0 0 0 0 0 0 0 0 0 0 0 0 0 0 0 0 0 0 0 0 0 0 0 0 0 0 0 0 0 0 0 0 0 0 0 0 0 0 0 0 0 0 1747 1793 1673 0 0 0 0 0 0 0 0 0 0 0
0 0 0 0 0 0 0 0 0 0 0 0 0 0 0 0 0 0 0 0 0 0 0 1386 1391 1347 1352 1316 1328 1348 1358 1389 1417 0 0 0 0 0 0 0 0 0 0 0 0 0 0 0 0 0 0 0 0 0 0 0 0 0 0 0 0 0 0 0 0 0 0 0 0 0 0 0 0 0 0 0 0 0 0 0 0 0 0 0 0 0 0 0 0 0 0 0 0 0 0 0 0 0 0 0 0 0 0 0 0 1734 1727 1741 1722 0 0 0 0 0 0 0 0 0 0 0
0 0 0 0 0 0 0 0 0 0 0 0 0 0 0 0 0 0 0 0 0 0 0 1362 1363 1381 1366 1342 1324 1309 1357 1417 1430 0 0 0 0 0 0 0 0 0 0 0 0 0 0 0 0 0 0 0 0 0 0 0 0 0 0 0 0 0 0 0 0 0 0 0 0 0 0 0 0 0 0 0 0 0 0 0 0 0 0 0 0 0 0 0 0 0 0 0 0 0 0 0 0 0 0 0 0 0 0 0 0 1720 1739 0 0 0 0 0 0 0 0 0 0 0 0 0
0 0 0 0 0 0 0 0 0 0 0 0 0 0 0 0 0 0 0 0 0 0 0 1409 1362 1383 1380 1366 1376 1342 1355 1427 1421 0 0 0 0 0 0 0 0 0 0 0 0 0 0 0 0 0 0 0 0 0 0 0 0 0 0 0 0 0 0 0 0 0 0 0 0 0 0 0 0 0 0 0 0 0 0 0 0 0 0 0 0 0 0 0 0 0 0 0 0 0 0 0 0 0 0 0 0 0 0 0 0 1789 0 1712 1694 0 0 0 0 0 0 0 0 0 0 0
1231 1250 1247 1295 1300 1274 1290 0 0 0 0 0 0 0 0 0 0 0 0 0 0 0 0 0 1354 1367 1365 1377 1372 1366 1343 1418 1411 0 0 0 0 0 0 0 0 0 0 0 0 0 0 0 0 0 0 0 0 0 0 0 0 0 0 0 0 0 0 0 0 0 0 0 0 0 0 0 0 0 0 0 0 0 0 0 0 0 0 0 0 0 0 0 0 0 0 0 0 0 0 0 0 0 0 0 0 0 0 0 0 1770 1700 1699 1721 1716 0 0 0 0 0 0 0 0 0 0
1245 1264 1258 1255 1297 1286 1301 1307 1323 1377 1327 0 0 0 0 0 0 0 0 0 0 0 0 1329 1339 1352 1362 1386 1386 1374 1390 1412 1423 0 0 0 0 0 0 0 0 0 0 0 0 0 0 0 0 0 0 0 0 0 0 0 0 0 0 0 0 0 0 0 0 0 0 0 0 0 0 0 0 0 0 0 0 0 0 0 0 0 0 0 0 0 0 0 0 0 0 0 0 0 0 0 0 0 0 0 0 0 0 1777 1755 1713 1770 1763 1682 1728 1659 1689 0 0 0 0 0 0 0 0
1279 1255 1267 1273 1293 1308 1312 1310 1343 1338 1360 1386 1374 1376 1383 1424 0 0 0 0 0 0 0 0 1417 1376 1398 0 1405 0 0 1417 1450 0 0 0 0 0 0 0 0 0 0 0 0 0 0 0 0 0 0 0 0 0 0 0 0 0 0 0 0 0 0 0 0 0 0 0 0 0 0 0 0 0 0 0 0 0 0 0 0 0 0 0 0 0 0 0 0 0 0 0 0 0 0 0 0 0 0 0 0 0 0 1752 1780 1763 1703 1755 1722 1682 1687 1728 0 0 0 0 0 0 0 0
0 0 0 0 1320 1298 1306 1336 1308 1341 1333 1335 1365 1384 1376 1367 1411 1419 1421 1456 0 0 0 0 0 0 0 0 0 0 0 1422 1404 1404 0 0 0 0 0 0 0 0 0 0 0 0 0 0 0 0 0 0 0 0 0 0 0 0 0 0 0 0 0 0 0 0 0 0 0 0 0 0 0 0 0 0 0 0 0 0 0 0 0 0 0 0 0 0 0 0 0 0 0 0 0 0 0 0 0 0 0 0 1794 1851 1759 1793 1713 1652 1702 1725 0 0 0 0 0 0 0 0 0 0
0 0 0 0 0 0 0 0 0 1324 1349 1365 1358 1368 1373 1418 1408 1441 1436 1452 1472 1459 0 0 0 0 0 0 0 0 0 1469 1477 1465 0 0 0 0 0 0 0 0 0 0 0 0 0 0 0 0 0 0 0 0 0 0 0 0 0 0 0 0 0 0 0 0 0 0 0 0 0 0 0 0 0 0 0 0 0 0 0 0 0 0 0 0 0 0 0 0 0 0 0 0 0 0 0 0 0 0 0 0 0 1722 1696 1679 1655 1606 1584 1596 1590 1591 1588 1590 0 0 0 0 0 0
0 0 0 0 0 0 0 0 0 0 0 0 0 0 0 1358 1417 1412 1418 1442 1453 1497 0 0 0 0 0 0 0 0 0 0 1466 0 0 0 0 0 0 0 0 0 0 0 0 0 0 0 0 0 0 0 0 0 0 0 0 0 0 0 0 0 0 0 0 0 0 0 0 0 0 0 0 0 0 0 0 0 0 0 0 0 0 0 0 0 0 0 0 0 0 0 0 0 0 0 0 0 0 0 0 1769 1665 1607 1594 1577 1587 1580 1583 1589 1596 1613 1576 1600 1549 0 0 0 0 0
0 0 0 0 0 0 0 0 0 0 0 0 0 0 0 0 0 0 0 0 0 1436 0 0 0 0 0 0 0 0 0 0 0 0 0 0 0 0 0 0 0 0 0 0 0 0 0 0 0 0 0 0 0 0 0 0 0 0 0 0 0 0 0 0 0 0 0 0 0 0 0 0 0 0 0 0 0 0 0 0 0 0 0 0 0 0 0 0 0 0 0 0 0 0 0 0 0 0 0 0 0 1552 1563 1573 1582 1573 1605 1576 1568 1551 1573 1586 1584 1615 0 0 0 0 0 0
0 0 0 0 0 0 0 0 0 0 0 0 0 0 0 0 0 0 0 0 0 0 0 0 0 0 0 0 0 0 0 0 0 0 0 0 0 0 0 0 0 0 0 0 0 0 0 0 0 0 0 0 0 0 0 0 0 0 0 0 0 0 0 0 0 0 0 0 0 0 0 0 0 0 0 0 0 0 0 0 0 0 0 0 0 0 0 0 0 0 0 0 0 0 0 0 0 0 0 0 0 0 0 1602 1611 1611 1587 1592 1590 1595 1597 1617 0 0 0 0 0 0 0 0
0 0 0 0 0 0 0 0 0 0 0 0 0 0 0 0 0 0 0 0 0 0 0 0 0 0 0 0 0 0 0 0 0 0 0 0 0 0 0 0 0 0 0 0 0 0 0 0 0 0 0 0 0 0 0 0 0 0 0 0 0 0 0 0 0 0 0 0 0 0 0 0 0 0 0 0 0 0 0 0 0 0 0 0 0 0 0 0 0 0 0 0 0 0 0 0 0 0 0 0 0 0 0 0 0 0 0 1563 0 0 0 0 0 0 0 0 0 0 0 0
0 0 0 0 0 0 0 0 0 0 0 0 0 0 0 0 0 0 0 0 0 0 0 0 0 0 0 0 0 0 0 0 0 0 0 0 0 0 0 0 0 0 0 0 0 0 0 0 0 0 0 0 0 0 0 0 0 0 0 0 0 0 0 0 0 0 0 0 0 0 0 0 0 0 0 0 0 0 0 0 0 0 0 0 0 0 0 0 0 0 0 0 0 0 0 0 0 0 0 0 0 0 0 0 0 0 0 0 0 0 0 0 0 0 0 0 0 0 0 0
590 600 0 0 0 0 0 0 0 0 0 0 0 0 0 0 0 0 0 0 0 0 0 0 0 1868 1910 0 0 0 0 0 0 0 0 0 0 0 0 0 0 0 0 0 0 0 0 2934 2913 2858 2875 2907 2905 2875 2889 2911 2917 2922 2901 2889 2899 2912 2935 2851 2924 2870 0 0 0 0 0 0 0 0 0 0 0 0 0 0 0 0 0 0 0 0 0 0 0 0 0 0 0 0 0 0 1739 0 0 0 0 0 0 0 0 0 0 0 0 0 0 0 0 0 0 0 0 0 0 0
589 566 587 594 605 643 0 0 0 0 0 0 0 0 0 0 0 0 0 0 0 0 0 0 0 0 0 1899 0 0 0 0 0 0 0 0 0 0 0 0 0 0 0 0 0 0 0 2915 2910 2910 2893 2920 2904 2908 2916 2912 2918 2917 2883 2934 2933 2966 2927 2885 2914 2966 0 0 0 0 0 0 0 0 0 0 0 0 0 0 0 0 0 0 0 0 0 0 0 0 0 0 0 0 0 0 0 0 0 0 0 0 0 0 0 0 0 0 0 0 0 0 0 0 0 0 0 0 0 0
581 596 588 608 602 625 647 683 712 0 0 0 0 0 0 0 0 0 0 0 0 0 0 0 0 0 0 0 0 0 0 0 0 0 0 0 0 0 0 0 0 0 0 0 0 0 0 2928 2911 2948 2877 2882 2909 2878 2916 2900 2940 2922 2876 2877 2882 2911 2900 2883 2898 0 0 0 0 0 0 0 0 0 0 0 0 0 0 0 0 0 0 0 0 0 0 0 0 0 0 0 0 0 0 0 0 0 0 0 0 0 0 0 0 0 0 0 0 0 0 0 0 0 0 0 0 0 0 0
585 590 605 619 639 650 644 648 663 664 682 730 0 0 0 0 0 0 0 0 0 0 0 0 0 0 0 0 0 0 0 0 0 0 0 0 0 0 0 0 0 0 0 0 0 0 0 2908 2924 2909 2980 2909 2952 2872 2922 2890 2947 2900 2917 2899 2937 2894 2888 2908 2864 2911 0 0 0 0 0 0 0 0 0 0 0 0 0 0 0 0 0 0 0 0 0 0 0 0 0 0 0 0 0 0 0 0 0 0 0 0 0 0 0 0 0 0 0 0 0 0 0 0 0 0 0 0 0 0
574 590 589 593 611 615 620 667 647 672 677 672 716 716 761 0 0 0 0 0 0 0 0 0 0 0 0 0 0 0 0 0 0 0 0 0 0 0 0 0 0 0 0 0 0 0 0 2956 2901 2910 2899 2906 2933 2940 2921 2964 2894 2914 2897 2903 2896 2918 2886 2910 2948 2903 0 0 0 0 0 0 0 0 0 0 0 0 0 0 0 0 0 0 0 0 0 0 0 0 0 0 0 0 0 0 0 0 0 0 0 0 0 0 0 0 0 0 0 0 0 0 0 0 0 0 0 0 0 0
786 754 765 747 728 669 641 651 638 672 683 686 722 717 718 755 751 783 0 0 0 0 0 0 0 0 0 0 0 0 0 0 0 0 0 0 0 0 0 0 0 0 0 0 0 0 0 2911 2976 2885 2888 2953 2903 2882 2933 2893 2922 2886 2900 2924 2893 2947 2952 2908 2924 0 0 0 0 0 0 0 0 0 0 0 0 0 0 0 0 0 0 0 0 0 0 0 0 0 0 0 0 0 0 0 0 0 0 0 0 0 0 0 0 0 0 0 0 0 0 0 0 0 0 0 0 0 0 0
775 787 810 805 812 817 816 839 784 784 744 711 711 706 733 750 759 744 755 796 779 0 0 0 0 0 0 0 0 0 0 0 0 0 0 0 0 0 0 0 0 0 0 0 0 0 0 2924 2943 2954 2916 2945 2974 2905 2953 2932 2931 2885 2963 2899 2907 2909 2967 2895 2935 2930 0 0 0 0 0 0 0 0 0 0 0 0 0 0 0 0 0 0 0 0 0 0 0 0 0 0 0 0 0 0 0 0 0 0 0 0 0 0 0 0 0 0 0 0 0 0 0 0 0 0 0 0 0 0
768 812 815 833 829 848 883 885 890 901 912 920 911 898 834 798 770 770 799 802 853 847 857 883 0 0 0 0 0 0 0 0 0 0 0 0 0 0 0 0 0 0 0 0 0 0 0 2893 2896 2924 2905 2875 2876 2935 2922 2928 2902 2921 2880 2887 2902 2888 2874 2922 2881 2836 0 0 0 0 0 0 0 0 0 0 0 0 0 0 0 0 0 0 0 0 0 0 0 0 0 0 0 0 0 0 0 0 0 0 0 0 0 0 0 0 0 0 0 0 0 0 0 0 0 0 0 0 0 0
640 0 889 840 849 864 871 894 914 917 936 956 953 946 944 953 951 930 910 868 839 861 851 880 951 930 993 0 0 0 0 0 0 0 0 0 0 0 0 0 0 0 0 0 0 0 0 2887 2901 2897 2883 2876 2865 2905 2932 2953 2905 2879 2906 2880 2908 2860 2865 2927 2876 2870 0 0 0 0 0 0 0 0 0 0 0 0 0 0 0 0 0 0 0 0 0 0 0 0 0 0 0 0 0 0 0 0 0 0 0 0 0 0 0 0 0 0 0 0 0 0 0 0 0 0 0 0 0 0
636 930 921 930 929 915 897 914 918 930 936 950 960 957 948 942 971 955 946 955 937 937 911 915 916 941 962 1007 1002 0 0 0 0 0 0 0 0 0 0 0 0 0 0 0 0 0 0 2912 2909 2916 2850 2932 2927 2867 2853 2933 2907 2893 2974 2934 2903 2879 2891 2853 2894 2880 0 0 0 0 0 0 0 0 0 0 0 0 0 0 0 0 0 0 0 0 0 0 0 0 0 0 0 0 0 0 0 0 0 0 0 0 0 0 0 0 0 0 0 0 0 0 0 0 0 0 0 0 0 0
588 744 0 0 0 0 0 0 0 0 981 1009 990 979 973 1006 989 952 946 981 965 954 960 961 928 951 989 1025 1034 1065 0 0 0 0 0 0 0 0 0 0 0 0 0 0 0 0 0 2908 2915 2915 2903 2911 2913 2845 2865 2891 2852 2878 2913 2854 2862 2906 2865 2882 2875 2849 0 0 0 0 0 0 0 0 0 0 0 0 0 0 0 0 0 0 0 0 0 0 0 0 0 0 0 0 0 0 0 0 0 0 0 0 0 0 0 0 0 0 0 0 0 0 0 0 0 0 0 0 0 0
576 572 625 0 1141 1135 1145 1137 1124 1146 1141 1124 1161 1156 1147 1142 1131 1031 0 0 1013 1067 1068 981 1033 1051 1135 1123 1106 1087 1100 0 0 0 0 0 0 0 0 0 0 0 0 0 0 0 0 2930 2901 2895 2888 2885 2904 2860 2945 2879 2914 2854 2891 2907 2878 2899 2898 2892 2924 0 0 0 0 0 0 0 0 0 0 0 0 0 0 0 0 0 0 0 0 0 0 0 0 0 0 0 0 0 0 0 0 0 0 0 0 0 0 0 0 0 0 0 0 0 0 0 0 0 0 0 0 0 0 0
575 590 601 598 0 0 0 0 0 0 0 0 0 0 0 0 1398 1021 978 0 0 1184 1088 0 0 1120 1127 1129 1136 1139 1120 0 0 0 0 0 0 0 0 0 0 0 0 0 0 0 0 2893 2893 2939 2934 2946 2898 2949 2901 2870 2896 2899 2893 2939 2885 2916 2907 2896 2904 2900 0 0 0 0 0 0 0 0 0 0 0 0 0 0 0 0 0 0 0 0 0 0 0 0 0 0 0 0 0 0 0 0 0 0 0 0 0 0 0 0 0 0 0 0 0 0 0 0 0 0 0 0 0 0
574 576 612 602 590 0 0 0 0 0 0 0 0 0 0 0 0 1021 959 0 0 0 0 0 0 0 0 0 0 0 0 0 0 0 0 0 0 0 0 0 0 0 0 0 0 0 0 2877 2893 2880 2884 2893 2903 2886 2904 2855 2868 2888 2905 2891 2876 2882 2902 2876 2913 0 0 0 0 0 0 0 0 0 0 0 0 0 0 0 0 0 0 0 0 0 0 0 0 0 0 0 0 0 0 0 0 0 0 0 0 0 0 0 0 0 0 0 0 0 0 0 0 0 0 0 0 0 0 0
571 598 584 626 595 563 0 0 0 0 0 0 0 0 0 0 0 0 0 0 0 0 0 0 0 0 0 0 0 0 0 0 0 0 0 0 0 0 0 0 0 0 0 0 0 0 0 2933 2948 2906 2918 2902 2912 2928 2956 2936 2883 2923 2889 2970 2925 2920 2924 2934 2889 0 0 0 0 0 0 0 0 0 0 0 0 0 0 0 0 0 0 0 0 0 0 0 0 0 0 0 0 0 0 0 0 0 0 0 0 0 0 0 0 0 0 0 0 0 0 0 0 0 0 0 0 0 0 0
590 591 633 627 581 644 0 0 0 0 0 0 0 0 0 0 0 0 0 0 0 0 0 0 0 0 0 0 0 0 0 0 0 0 0 0 0 0 0 0 0 0 0 0 0 0 0 2939 2890 2918 2910 2925 2900 2934 2928 2897 2901 2891 2897 2930 2885 2889 2898 2871 2897 2884 0 0 0 0 0 0 0 0 0 0 0 0 0 0 0 0 0 0 0 0 0 0 0 0 0 0 0 0 0 0 0 0 0 0 0 0 0 0 0 0 0 0 0 0 0 0 0 0 0 0 0 0 0 0
594 589 598 598 609 595 0 0 0 0 0 0 0 0 0 0 0 0 0 0 0 0 956 0 0 0 0 0 0 0 0 0 0 0 0 0 0 0 0 0 0 0 0 0 0 0 0 2933 2897 2900 2880 2866 2884 2911 2903 2891 2922 2903 2909 2903 2916 2870 2880 2861 2911 0 0 0 0 0 0 0 0 0 0 0 0 0 0 0 0 0 0 0 0 0 0 0 0 0 0 0 0 0 0 0 0 0 0 0 0 0 0 0 0 0 0 0 0 0 0 0 0 0 0 0 0 0 0 0
577 606 606 617 625 604 633 0 0 0 0 0 0 0 0 0 0 0 0 0 0 0 0 0 0 0 0 0 0 0 0 0 0 0 0 0 0 0 0 0 0 0 0 0 0 0 0 2876 2917 2887 2931 2912 2889 2901 2901 2889 2931 2914 2895 2878 2916 2917 2861 2888 2863 2850 0 0 0 0 0 0 0 0 0 0 0 0 0 0 0 0 0 0 0 0 0 0 0 0 0 0 0 0 0 0 0 0 0 0 0 0 0 0 0 0 0 0 0 0 0 0 0 0 0 0 0 0 0 0
598 606 624 597 621 612 620 0 0 0 0 0 0 0 0 0 2301 0 0 0 0 0 995 1007 0 0 0 0 0 0 0 0 0 0 0 0 0 0 0 0 0 0 0 0 0 0 0 2897 2912 2910 2907 2884 2897 2897 2920 2871 2902 2890 2910 2897 2900 2886 2892 2886 2893 2867 0 0 0 0 0 0 0 0 0 0 0 0 0 0 0 0 0 0 0 0 0 0 0 0 0 0 0 0 0 0 0 0 0 0 0 0 0 0 0 0 0 0 0 0 0 0 0 0 0 0 0 0 0 0
579 578 599 597 609 605 603 0 0 0 0 0 0 0 0 0 0 0 0 0 0 0 0 0 0 0 0 0 0 0 0 0 0 0 0 0 0 0 0 0 0 0 0 0 0 0 0 2883 2907 2912 2847 2856 2891 2899 2873 2889 2885 2922 2882 2907 2887 2897 2877 2920 2889 2844 0 0 0 0 0 0 0 0 0 0 0 0 0 0 0 0 0 0 0 0 0 0 0 0 0 0 0 0 0 0 0 0 0 0 0 0 0 0 0 0 0 0 0 0 0 0 0 0 0 0 0 0 0 0
584 609 589 592 590 599 0 0 0 0 0 0 0 0 0 0 0 0 0 0 0 0 0 0 0 0 0 0 0 0 0 0 0 0 0 0 0 0 0 0 0 0 0 0 0 0 0 0 0 0 0 0 0 0 0 0 0 0 0 0 0 2940 2997 2908 2921 0 0 0 0 0 0 0 0 0 0 0 0 0 0 0 0 0 0 0 0 0 0 0 0 0 0 0 0 0 0 0 0 0 0 0 0 0 0 0 0 0 0 0 0 0 0 0 0 0 0 0 0 0 0 0
585 581 591 606 611 602 0 0 0 0 0 0 0 0 0 0 0 0 0 0 0 0 0 0 0 0 0 0 0 0 0 0 0 0 0 0 0 0 0 0 0 0 0 0 0 0 0 0 0 0 0 0 0 0 0 0 0 0 0 0 0 0 0 0 0 0 0 0 0 0 0 0 0 0 0 0 0 0 0 0 0 0 0 0 0 0 0 0 0 0 0 0 0 0 0 0 0 0 0 0 0 0 0 0 0 0 0 0 0 0 0 0 0 0 0 0 0 0 0 0
585 593 590 568 619 0 0 0 0 0 0 0 0 0 0 0 0 0 0 0 0 0 0 0 0 0 0 0 0 0 0 0 0 0 0 0 0 0 0 0 0 0 0 0 0 0 0 0 0 0 0 0 0 0 0 0 0 0 0 0 0 0 0 0 0 0 0 0 0 0 0 0 0 0 0 0 0 0 0 0 0 0 0 0 0 0 0 0 0 0 0 0 0 0 0 0 0 0 0 0 0 0 0 0 0 0 0 0 0 0 0 0 0 0 0 0 0 0 0 0
607 593 586 585 581 0 0 0 0 0 0 0 0 0 0 0 0 0 0 0 0 0 0 0 0 0 0 0 0 0 0 0 0 0 0 0 0 0 0 0 0 0 0 0 0 0 0 0 0 0 0 0 0 0 0 0 0 0 0 0 0 0 0 0 0 0 0 0 0 0 0 0 0 0 0 0 0 0 0 0 0 0 0 0 0 0 0 0 0 0 0 0 0 0 0 0 0 0 0 0 0 0 0 0 0 0 0 0 0 0 0 0 0 0 0 0 0 0 0 0
616 601 614 639 0 0 0 0 0 0 0 0 0 0 0 0 0 0 0 0 0 0 0 0 0 0 0 855 920 922 914 877 0 888 914 900 0 974 951 944 896 0 0 0 0 0 0 0 0 0 0 0 0 0 0 0 0 0 0 0 0 0 0 0 0 0 0 0 0 0 0 0 0 0 0 0 0 0 0 0 0 0 0 0 0 0 0 0 0 0 0 0 0 0 0 0 0 0 0 0 0 0 0 0 0 0 0 0 0 0 0 0 0 0 0 0 0 0 0 0
568 586 624 0 0 0 0 694 683 695 715 714 785 712 697 748 717 707 701 669 691 715 677 680 708 730 755 726 732 740 752 730 727 700 731 709 760 741 721 758 720 758 728 749 801 762 832 767 811 782 803 755 820 796 814 759 736 749 793 803 759 821 760 801 828 750 814 754 778 818 833 813 771 0 0 0 0 0 0 0 0 0 0 0 0 0 0 0 0 0 0 0 0 0 0 0 0 0 0 0 0 0 0 0 0 0 0 0 0 0 0 0 0 0 0 0 0 0 0 0
575 572 578 572 587 581 609 587 576 589 595 621 596 595 583 565 563 601 602 626 582 609 585 586 580 600 605 610 612 603 601 598 609 629 606 622 635 633 604 614 595 635 621 639 642 586 653 645 647 656 678 645 622 640 627 663 627 642 622 621 661 638 652 644 717 658 655 630 656 722 658 657 682 647 697 649 663 679 678 673 699 673 667 703 679 711 716 695 679 709 659 660 702 680 728 0 715 699 746 725 745 694 0 0 0 0 0 0 0 0 0 0 0 0 0 0 0 0 0 0
516 497 474 497 498 522 494 507 491 512 494 499 514 495 516 513 500 523 494 528 512 513 511 506 519 519 515 491 491 530 494 529 531 529 499 518 522 531 523 511 519 513 529 528 548 534 538 518 527 535 537 539 547 548 555 546 535 542 534 548 532 546 553 549 545 540 538 531 524 553 540 566 553 543 541 557 556 560 554 583 563 550 564 572 539 580 567 574 551 568 556 575 568 591 595 594 593 560 574 574 586 600 608 582 0 579 0 563 606 642 0 0 0 0 0 0 0 0 0 0
429 418 392 438 462 413 422 434 436 445 440 439 448 440 446 424 430 452 438 437 463 456 444 454 451 452 444 445 444 450 457 462 457 462 454 475 460 464 477 465 463 460 469 477 466 467 454 455 478 459 463 496 483 475 486 460 473 495 462 487 472 467 479 477 469 469 483 479 484 482 462 481 482 475 468 485 469 475 480 500 493 477 492 479 492 480 478 504 442 486 478 486 486 496 472 472 473 487 495 479 483 490 477 487 471 493 506 503 530 484 493 495 0 0 0 0 0 0 0 0
406 377 382 385 407 403 396 400 405 377 391 393 399 396 393 408 396 410 398 394 402 402 399 404 420 410 403 407 412 414 409 418 419 414 411 411 418 417 409 418 411 420 408 417 411 411 416 422 412 427 422 430 404 421 421 417 430 420 430 434 417 431 435 435 433 434 414 442 425 435 424 430 421 419 437 418 421 432 428 418 434 422 438 434 447 443 428 432 426 427 437 437 432 426 442 424 434 430 449 454 431 444 406 465 439 462 457 457 450 452 454 449 452 482 0 0 0 0 0 0
359 356 340 348 368 354 371 368 358 359 355 353 362 359 354 358 365 379 370 370 371 375 377 372 361 375 377 371 373 362 385 387 369 364 368 362 386 371 380 370 376 373 369 379 374 374 385 365 382 355 386 390 379 383 385 379 381 383 386 388 373 383 383 403 385 403 392 394 385 387 393 391 392 389 387 384 393 394 387 386 397 398 394 401 401 393 399 387 387 391 403 399 391 390 408 406 398 397 388 396 401 406 394 391 382 386 395 399 404 382 391 390 371 393 379 425 0 0 0 0
308 338 339 315 320 338 349 331 332 345 337 348 338 342 330 347 371 328 338 342 334 328 339 355 354 362 341 337 348 346 342 342 350 349 334 341 349 343 331 339 333 351 340 342 345 340 336 347 333 366 355 338 338 340 356 339 355 336 348 357 348 347 348 343 341 350 348 353 347 357 356 357 348 349 346 355 358 363 339 350 354 355 358 357 351 355 343 349 331 353 362 354 347 349 360 352 338 348 371 357 364 352 357 371 370 358 359 358 373 357 373 375 377 375 375 366 344 0 0 0
302 316 303 298 296 303 303 306 306 311 315 301 294 308 304 321 314 305 320 300 311 299 317 320 293 322 310 304 300 316 306 306 308 309 305 313 320 310 311 319 310 306 328 308 307 316 314 317 316 313 313 312 307 313 312 303 322 316 321 321 316 321 320 323 302 322 323 324 324 310 318 324 317 318 306 316 321 318 333 325 326 319 317 337 319 329 330 329 334 328 322 326 328 330 331 329 323 327 353 340 336 333 336 334 351 345 334 331 347 341 331 354 324 346 360 354 364 381 377 0
283 266 271 275 297 288 284 277 286 281 284 274 288 282 282 292 284 278 286 284 279 289 276 277 283 281 284 280 279 282 283 278 280 276 286 278 283 279 280 293 296 277 289 287 289 282 291 293 290 287 288 284 288 283 286 291 281 286 286 291 291 287 283 288 287 293 293 282 292 295 290 287 290 291 298 291 287 293 291 299 282 291 289 286 293 289 291 294 294 308 287 297 296 287 312 303 296 298 294 297 292 297 305 297 297 294 303 303 287 303 297 297 281 313 290 303 339 308 283 325
260 252 249 261 256 258 257 256 255 264 255 246 259 255 254 252 256 264 269 257 255 256 268 250 262 256 256 265 254 253 263 263 261 247 260 258 268 267 269 264 272 266 267 274 269 268 271 264 263 267 257 267 268 268 270 265 265 266 259 268 267 263 262 262 266 261 270 269 278 265 265 272 275 270 265 271 271 267 266 266 267 268 262 275 278 269 267 274 268 261 267 268 268 265 273 272 270 276 274 290 266 275 279 272 289 279 287 285 281 280 274 286 277 278 282 286 260 261 276 292
235 235 232 233 243 231 235 237 229 238 235 238 247 246 245 244 246 241 243 239 240 240 242 241 240 238 247 233 245 248 241 247 244 243 242 245 245 243 253 245 246 249 242 247 245 249 245 246 245 255 249 241 246 250 249 247 247 246 249 251 254 251 252 254 245 248 252 250 252 252 250 247 257 252 249 248 252 251 250 257 244 248 251 258 254 258 257 256 247 245 252 246 252 246 250 258 249 255 257 259 260 243 264 255 245 249 250 246 251 257 259 268 251 257 247 250 261 269 259 250
216 222 222 211 213 221 225 219 217 217 214 227 223 219 221 224 223 223 229 231 230 220 222 233 229 228 228 229 230 220 221 224 226 227 228 233 239 233 235 226 232 230 224 228 227 236 225 242 228 226 235 233 233 228 226 232 228 228 233 232 241 236 236 231 242 233 232 233 239 232 237 239 228 228 228 235 232 231 232 231 229 232 237 228 236 228 226 239 237 229 228 229 233 236 231 231 234 242 245 237 237 233 235 229 234 241 236 238 232 247 233 244 236 237 232 238 229 219 236 224
208 211 221 214 216 208 204 214 210 221 210 215 217 225 215 208 215 210 212 218 217 214 212 210 211 213 215 213 215 216 214 218 211 214 212 222 221 199 195 203 217 224 217 212 224 217 221 217 220 217 216 207 217 223 222 220 229 221 219 226 224 220 222 224 225 222 221 224 222 219 224 227 226 221 202 222 227 223 225 220 221 230 232 232 223 228 229 227 222 226 219 213 224 223 220 235 226 226 227 236 220 220 227 231 227 231 227 228 243 238 230 226 222 228 217 228 239 229 218 243
194 184 194 199 204 200 204 204 185 184 198 201 185 191 204 190 191 191 207 207 186 192 195 191 187 186 188 194 187 189 198 188 192 187 198 197 196 188 188 197 193 197 200 199 197 194 200 198 196 199 193 198 191 193 193 203 201 194 195 198 198 195 202 199 194 204 200 200 198 196 195 193 201 194 194 195 197 196 199 192 186 197 199 199 216 199 201 185 198 194 209 196 208 190 195 184 194 196 213 198 206 205 208 188 215 194 189 206 211 212 213 212 211 201 208 177 194 214 176 216
183 180 198 191 178 192 182 183 196 181 183 179 176 187 186 184 183 187 181 190 179 188 187 186 181 183 191 185 187 185 193 189 194 191 195 197 198 189 194 197 192 197 193 191 188 199 199 197 189 196 199 194 195 191 195 197 201 199 197 202 196 200 197 201 201 197 199 198 199 199 199 193 198 200 198 195 199 194 187 198 196 196 196 188 189 196 192 191 188 190 195 189 191 182 178 182 190 181 192 186 184 190 190 205 191 182 186 185 193 184 199 184 186 194 184 187 183 175 175 196
173 176 168 177 182 175 173 178 183 183 184 175 185 183 183 181 188 187 185 190 182 187 186 191 180 185 184 194 189 186 185 188 187 181 186 187 186 183 188 185 190 186 195 190 189 187 191 191 190 190 188 186 189 190 189 192 187 190 190 192 181 188 185 195 191 190 187 189 193 191 189 191 190 192 189 192 191 191 186 190 188 188 186 188 190 196 192 187 188 192 190 193 189 192 180 191 185 191 188 189 186 181 188 177 178 181 185 180 182 178 182 173 202 183 175 177 175 181 172 181
167 167 165 164 169 169 171 175 167 171 173 174 171 167 177 175 173 183 176 182 172 177 173 167 172 173 180 174 173 175 171 178 178 179 178 180 173 173 176 179 172 175 183 178 181 183 183 176 181 183 184 184 181 183 180 183 179 182 181 179 178 178 181 181 177 180 180 183 180 182 179 181 176 184 180 176 182 187 181 183 183 186 182 176 185 178 177 181 180 185 180 180 176 178 182 177 178 185 186 181 182 179 180 182 183 175 181 173 173 177 168 174 179 178 171 176 176 174 182 172
165 163 165 161 158 167 159 160 170 168 169 167 170 168 167 170 167 174 173 173 169 168 173 172 168 165 173 171 168 172 172 166 169 167 170 167 175 171 173 169 169 173 172 168 176 174 167 167 179 170 176 171 171 171 172 170 175 176 177 171 173 176 172 173 173 175 176 172 171 171 171 173 169 173 175 175 171 183 177 170 171 174 175 172 170 169 179 175 179 168 175 175 167 167 171 172 176 175 171 181 171 173 179 171 186 176 172 172 171 169 169 176 172 171 175 178 176 172 169 193
154 157 161 164 161 159 165 155 158 157 166 163 162 160 167 157 160 166 166 166 158 162 168 163 164 166 162 161 162 166 166 172 163 168 161 162 159 160 160 158 167 167 168 163 162 171 164 162 163 168 162 165 169 167 166 167 163 168 170 167 166 163 170 165 166 164 167 162 164 162 167 162 163 167 161 167 170 165 161 164 166 164 165 168 168 164 169 164 162 165 162 164 165 163 163 166 162 162 163 168 167 165 160 172 169 164 168 167 158 159 158 164 167 158 180 163 174 171 170 186
140 147 156 144 152 153 148 151 157 158 144 149 154 149 152 152 152 161 159 162 155 156 161 155 149 157 150 153 159 153 160 155 156 157 155 152 147 159 151 156 154 155 159 157 158 155 158 153 154 158 158 155 161 157 163 158 158 154 163 161 163 155 160 162 159 160 160 158 151 154 159 158 158 159 160 161 161 158 157 158 162 159 157 151 154 155 157 159 160 160 157 161 153 159 157 157 155 154 154 157 156 154 154 161 157 146 157 151 151 148 149 158 152 157 149 146 151 152 166 139
139 144 147 143 148 145 142 149 146 146 148 151 147 151 146 147 143 148 139 147 153 155 150 150 155 149 150 156 151 147 151 150 150 147 149 153 148 151 148 156 150 155 151 151 147 150 150 153 152 152 149 154 147 146 156 150 152 150 157 158 155 147 156 157 155 156 150 155 152 151 156 156 152 154 153 153 158 157 156 153 150 153 150 146 151 154 151 156 153 151 155 153 158 152 156 149 151 149 156 156 152 157 159 157 155 148 152 151 154 156 154 154 157 148 167 158 147 159 177 130
137 137 138 141 135 136 136 139 139 142 143 144 141 144 140 142 145 141 141 149 143 145 142 151 143 144 151 145 143 143 139 147 141 145 140 145 141 150 147 142 146 145 144 143 146 146 147 140 149 144 144 146 148 146 146 142 146 148 147 147 143 142 145 149 147 135 148 145 148 146 146 147 150 148 149 150 149 152 150 148 146 144 146 141 142 140 148 145 151 146 148 147 145 146 148 145 147 144 154 147 145 149 150 139 142 145 138 143 144 148 148 142 148 144 142 159 148 150 146 140
132 133 132 130 130 140 140 137 137 136 136 0 132 137 124 139 136 139 137 141 147 143 141 141 142 146 146 141 129 131 140 139 132 130 139 139 130 127 129 141 131 145 138 140 139 131 143 141 130 130 134 140 133 144 143 145 146 136 143 134 133 135 129 144 142 129 141 140 134 139 131 129 133 142 144 144 140 141 143 145 145 130 127 130 145 142 140 142 140 141 129 141 141 145 139 140 142 142 143 145 139 138 139 142 140 136 133 144 145 141 132 135 129 129 134 134 131 127 145 135
131 130 126 138 131 137 138 134 138 136 131 133 139 139 137 132 134 141 137 137 139 141 141 139 140 139 138 139 136 125 129 136 129 127 124 129 127 130 125 128 142 130 139 130 0 141 130 131 128 125 127 129 130 133 0 142 0 131 131 130 131 131 133 142 131 131 142 131 144 132 125 125 128 140 133 127 134 133 142 126 137 142 138 126 129 137 140 127 131 146 137 142 141 141 138 135 139 138 140 141 140 134 126 135 128 125 133 135 136 134 131 134 130 142 140 136 135 143 134 139
116 108 116 109 126 116 137 129 112 111 117 113 123 124 123 132 124 132 120 118 121 126 129 125 123 129 138 139 0 131 129 123 123 121 119 118 131 124 125 121 125 130 124 133 0 0 130 127 129 123 121 124 130 127 124 131 132 129 128 123 126 126 126 127 125 127 126 131 122 131 117 126 122 126 117 120 119 127 122 126 130 125 124 127 118 139 118 126 129 123 125 129 126 125 122 121 133 139 134 123 121 124 124 124 114 125 120 122 128 128 118 130 139 130 116 127 125 136 127 129
109 116 106 112 112 131 121 117 127 113 113 121 132 123 123 115 115 124 131 121 124 120 124 122 125 118 128 128 125 130 129 0 122 121 116 114 124 122 0 121 126 126 0 0 0 0 125 127 124 119 128 128 125 122 125 127 116 125 122 121 125 124 117 123 125 122 127 122 123 123 123 122 124 121 118 115 123 127 128 122 120 120 127 124 122 120 119 117 125 123 117 118 121 121 122 123 137 126 117 128 121 122 123 115 111 125 124 118 118 136 127 136 128 133 128 134 134 106 109 124
109 99 115 116 114 116 112 116 113 111 120 119 113 112 113 117 120 112 119 121 115 114 109 124 113 114 119 118 116 123 124 0 119 120 116 115 114 0 113 117 119 0 0 122 124 0 123 117 116 119 117 119 119 120 120 120 120 119 118 117 122 122 128 118 118 120 120 123 119 114 117 120 114 116 117 118 113 112 118 120 114 118 118 118 118 119 118 119 120 123 125 112 120 113 107 121 122 122 112 119 120 122 119 110 110 113 128 115 108 120 129 127 132 108 129 131 115 110 92 149
95 103 106 102 97 103 111 110 102 112 109 105 109 111 124 116 118 113 106 101 112 106 116 109 113 110 114 115 115 121 118 117 116 109 112 109 107 114 113 115 117 114 113 109 115 119 116 0 112 0 116 112 121 116 0 0 106 108 117 112 125 115 109 108 106 113 109 107 118 114 116 112 109 103 107 111 106 107 104 111 113 110 106 110 111 109 113 110 108 114 113 114 99 120 106 119 115 111 105 113 105 109 113 108 111 113 105 108 105 110 106 106 103 111 101 114 110 104 114 130
108 101 115 110 103 106 104 108 107 107 106 116 111 114 115 115 109 111 113 103 110 103 108 104 114 112 105 110 106 116 106 109 110 104 109 111 114 0 106 110 108 106 112 101 107 106 112 109 115 0 109 111 110 114 110 116 109 109 113 111 104 110 114 0 118 108 105 111 107 105 106 101 107 112 106 104 100 103 102 109 111 102 108 108 100 106 103 107 105 111 105 109 103 103 98 106 103 107 108 106 109 110 113 122 105 106 110 112 103 112 99 94 120 111 112 121 97 138 137 124
95 92 107 110 97 94 99 98 92 92 104 103 100 96 101 102 98 99 108 105 103 103 93 103 103 100 107 104 101 107 103 106 100 100 102 103 104 105 103 106 108 105 99 104 103 100 105 99 105 105 108 108 102 107 107 107 101 101 105 102 103 103 106 0 110 102 0 112 106 105 103 102 99 107 103 107 100 102 0 103 0 106 98 102 100 101 96 101 103 103 106 102 97 97 96 95 103 96 100 97 105 99 95 103 100 105 96 98 101 93 94 98 85 106 101 90 90 100 102 117
87 90 80 93 94 94 93 93 97 92 98 97 99 103 104 96 96 97 104 98 102 92 96 94 98 94 103 102 103 99 104 103 106 104 102 102 99 102 105 99 101 99 100 92 100 101 103 105 106 103 105 100 96 102 98 100 99 107 101 105 102 106 116 101 108 101 104 104 104 101 100 104 101 98 94 95 103 96 100 96 0 102 95 94 99 97 97 109 90 105 103 96 100 99 93 102 86 98 87 105 102 88 102 91 98 104 101 102 97 92 88 90 109 95 85 112 98 89 89 108
94 97 91 96 93 91 92 88 84 92 93 96 97 90 95 91 95 95 107 106 102 94 86 92 91 88 101 98 94 99 99 101 104 96 100 103 100 94 92 104 94 95 96 94 103 96 96 101 92 98 105 94 87 95 95 103 95 96 95 100 95 98 103 0 97 100 97 96 100 97 97 99 101 102 88 108 100 99 105 107 96 103 92 106 96 95 91 91 95 96 96 98 102 82 93 93 97 91 102 90 96 98 97 95 98 97 94 83 90 91 92 89 96 89 86 94 136 109 126 79
86 78 79 84 77 82 82 92 84 90 85 87 96 88 85 81 89 88 82 81 94 93 93 92 91 87 98 89 91 94 91 91 99 93 93 88 87 90 91 94 88 88 98 98 92 85 92 90 99 100 94 91 98 91 97 98 96 90 98 93 99 92 97 92 89 89 99 91 96 99 98 92 91 89 97 94 92 99 99 98 88 93 88 90 97 83 92 97 92 92 95 91 96 92 91 91 94 93 91 88 93 86 84 78 87 82 92 91 84 88 80 86 81 86 96 84 86 85 76 86
91 79 86 85 93 86 94 102 86 87 87 92 92 86 92 89 89 89 93 94 86 93 93 88 90 92 94 94 91 85 90 92 93 93 100 84 95 96 91 98 90 95 98 89 96 97 96 94 91 94 98 99 90 92 96 92 96 98 91 95 93 89 92 94 91 94 89 99 89 91 99 85 94 94 98 91 94 96 89 94 101 93 97 90 95 87 96 92 91 92 101 97 100 88 92 90 87 89 88 102 89 88 93 93 87 98 101 80 85 87 89 84 88 84 95 92 80 94 0 0
80 88 87 89 86 85 85 88 85 0 82 84 91 83 90 80 90 95 89 91 88 92 91 100 87 91 90 84 88 94 90 93 88 84 90 93 87 91 93 94 84 88 95 85 99 89 91 98 91 98 99 97 94 92 92 100 91 93 98 87 95 97 97 98 87 90 96 96 95 88 98 95 94 91 93 90 86 91 97 93 95 92 92 93 93 95 96 94 100 86 90 100 105 88 85 88 86 93 91 87 82 93 84 91 89 88 91 87 87 78 88 82 83 86 76 86 84 84 66 0
80 81 76 84 82 82 90 88 88 81 85 80 87 88 83 91 81 89 83 91 91 93 90 91 91 87 89 84 92 89 88 91 89 86 88 97 93 90 92 93 93 88 93 95 87 87 94 92 95 91 96 97 91 87 98 96 90 90 96 98 93 98 94 85 84 95 85 88 89 98 90 91 89 96 95 86 91 95 95 89 94 92 94 88 89 92 92 89 86 86 92 87 82 88 82 85 86 88 88 89 81 85 85 89 90 88 87 88 78 84 79 97 82 86 83 80 83 94 0 0
78 72 79 85 86 84 89 95 81 88 81 89 90 85 92 90 86 91 92 91 85 93 87 86 77 94 88 92 90 93 93 85 93 94 93 84 87 91 86 88 95 85 88 89 95 86 92 88 94 94 92 87 87 86 80 94 86 94 83 95 92 92 83 86 90 94 87 88 91 95 90 91 92 86 97 87 90 92 96 84 92 90 84 81 91 88 92 88 90 89 89 89 85 86 90 80 90 92 100 85 83 89 83 82 85 90 85 89 88 82 85 84 85 100 77 95 0 0 0 0
77 68 65 64 76 81 86 84 82 73 81 76 82 89 80 79 81 80 78 76 87 77 83 78 68 77 82 80 80 84 92 75 80 88 85 80 82 82 83 75 87 80 81 71 81 84 83 88 85 76 87 78 73 82 83 78 87 88 85 80 85 81 83 77 83 78 77 79 83 81 87 86 81 79 86 78 78 84 88 86 84 85 77 81 74 86 75 78 78 80 90 72 85 78 79 84 71 85 70 79 69 79 77 66 77 72 77 76 71 90 77 72 81 62 79 56 0 0 0 0
67 66 79 78 70 84 85 84 82 79 82 87 76 81 82 81 85 86 76 78 77 84 73 77 93 85 75 73 81 78 86 81 78 90 84 74 80 75 83 79 93 83 86 87 84 90 82 79 87 89 85 78 77 81 88 91 81 82 80 81 90 78 83 83 86 73 81 78 86 73 83 78 85 83 84 81 82 86 85 90 81 81 82 80 76 84 82 71 89 86 71 77 72 72 87 76 93 75 69 71 82 71 74 73 71 80 72 82 85 88 84 82 77 78 84 0 0 0 0 0
