0 0 0 0 0 0 0 0 0 0 0 0 0 0 0 0 0 0 0 0 0 0 0 0 0 0 0 0 0 0 0 0 0 0 0 0 0 0 0 0 0 0 0 0 0 0 0 0 0 0 0 0 0 0 0 0 0 0 0 0 0 0 0 0 0 0 0 0 0 0 0 0 0 0 0 0 0 0 0 0 0 0 0 0 0 0 0 0 0 0 0 0 0 0 0 0 0 0 0 0 0 0 0 0 0 0 0 0 0 0 0 0 0 0 0 0 0 0 0 0
0 0 0 0 0 0 0 0 0 0 0 0 0 0 0 0 0 0 0 0 0 0 0 0 0 0 0 0 0 0 0 0 0 0 0 0 0 0 0 0 0 0 0 0 0 0 0 0 0 0 0 0 0 0 0 0 0 0 0 0 0 0 0 0 0 0 0 0 0 0 0 0 0 0 0 0 0 0 0 0 0 0 0 0 0 0 0 0 0 0 0 0 0 0 0 0 0 0 0 0 0 0 0 0 0 0 0 0 0 0 0 0 0 0 0 0 0 0 0 0
0 0 0 0 0 0 0 0 0 0 0 0 0 0 0 0 0 1296 0 0 0 0 0 0 0 0 0 0 0 0 0 0 0 0 0 0 0 0 0 0 0 0 0 0 0 0 0 0 0 0 0 0 0 0 0 0 0 0 0 0 0 0 0 0 0 0 0 0 0 0 0 0 0 0 0 0 0 0 0 0 0 0 0 0 0 0 0 0 0 0 0 0 0 0 0 0 0 0 0 0 0 0 0 0 0 0 0 0 0 0 0 0 0 0 0 0 0 0 0 0
0 0 0 0 0 0 0 0 0 0 0 1109 1111 1104 0 0 1257 1267 1237 0 0 1214 1245 0 0 0 0 0 0 0 0 0 0 0 0 0 0 0 0 0 0 0 0 0 0 0 0 0 0 0 0 0 0 0 0 0 0 0 0 0 0 0 0 0 0 0 0 0 0 0 0 0 0 0 0 0 0 0 0 0 0 0 0 0 0 0 0 0 0 0 0 0 0 0 0 0 0 0 0 0 0 0 0 0 0 0 0 0 0 0 0 0 0 0 0 0 0 0 0 0
0 0 0 0 0 0 0 0 1092 1157 1151 1170 1167 1166 1152 1209 1271 1285 1312 1296 1262 1253 1247 0 0 0 0 0 0 0 0 0 0 0 0 0 0 0 0 0 0 0 0 0 0 0 0 0 0 0 0 0 0 0 0 0 0 0 0 0 0 0 0 0 0 0 0 0 0 0 0 0 0 0 0 0 0 0 0 0 0 0 0 0 0 0 0 0 0 0 0 0 0 0 0 0 0 0 0 0 0 0 0 0 0 0 0 0 0 0 0 0 0 0 0 0 0 0 0 0
0 0 0 0 0 0 0 1078 1116 1090 0 0 1133 1165 1149 1193 1283 1220 1249 1282 1261 1249 1277 1223 0 0 0 0 0 0 0 0 0 0 0 0 0 0 0 0 0 0 0 0 0 0 0 0 0 0 0 0 0 0 0 0 0 0 0 0 0 0 0 0 0 0 0 0 0 0 0 0 0 0 0 0 0 0 0 0 0 0 0 0 0 0 0 0 0 0 0 0 0 0 0 0 0 0 0 0 0 0 0 0 0 0 0 0 0 0 0 0 0 0 0 0 0 0 0 0
0 0 0 0 0 0 0 0 0 0 0 0 1207 1218 1274 1278 1278 1265 1270 1277 1270 1255 1242 1242 1250 0 0 0 0 0 0 1393 0 0 0 0 0 0 0 0 0 0 0 0 0 0 0 0 0 0 0 0 0 0 0 0 0 0 0 0 0 0 0 0 0 0 0 0 0 0 0 0 0 0 0 0 0 0 0 0 0 0 0 0 0 0 0 0 0 0 0 0 0 0 0 0 0 0 0 0 0 0 0 0 0 0 0 0 0 0 0 0 0 0 0 0 0 0 0 0
0 0 0 0 0 0 0 0 0 0 0 0 1261 1292 1282 1304 1316 1298 1292 1288 1289 1253 1308 1284 0 1354 1368 1387 1363 1448 0 1432 0 0 0 0 0 0 0 0 0 0 0 0 0 0 0 0 0 0 0 0 0 0 0 0 0 0 0 0 0 0 0 0 0 0 0 0 0 0 0 0 0 0 0 0 0 0 0 0 0 0 0 0 0 0 0 0 0 0 0 0 0 0 0 0 0 0 0 0 0 0 0 0 0 0 0 0 0 0 0 0 0 0 0 0 0 0 0 0
0 0 0 0 0 0 0 0 0 0 0 0 1264 1275 1268 1281 1296 1276 1261 1294 1275 1249 1262 1307 0 0 1338 1387 1370 1335 1377 1418 0 0 0 0 0 0 0 0 0 0 0 0 0 0 0 0 0 0 0 0 0 0 0 0 0 0 0 0 0 0 0 0 0 0 0 0 0 0 0 0 0 0 0 0 0 0 0 0 0 0 0 0 0 0 0 0 0 0 0 0 0 0 0 0 0 0 0 0 0 0 0 0 0 0 0 0 0 0 0 0 0 0 0 0 0 0 0 0
0 0 0 0 0 0 0 0 0 0 0 0 0 1337 1291 1293 1277 1310 1270 1274 1246 1270 1281 1249 1307 0 0 1368 1382 1357 1377 1418 1477 0 0 0 0 0 0 0 0 0 0 0 0 0 0 0 0 0 0 0 0 0 0 0 0 0 0 0 0 0 0 0 0 0 0 0 0 0 0 0 0 0 0 0 0 0 0 0 0 0 0 0 0 0 0 0 0 0 0 0 0 0 0 0 0 0 0 0 0 0 0 0 0 0 0 0 0 0 0 0 0 0 0 0 0 0 0 0
0 0 0 0 0 0 0 0 0 0 0 0 0 0 0 0 0 0 0 0 0 1295 1273 1266 1295 0 0 1374 1357 1352 1367 1430 1424 0 0 0 0 0 0 0 0 0 0 0 0 0 0 0 0 0 0 0 0 0 0 0 0 0 0 0 0 0 0 0 0 0 0 0 0 0 0 0 0 0 0 0 0 0 0 0 0 0 0 0 0 0 0 0 0 0 0 0 0 0 0 0 0 0 0 0 0 0 0 0 0 0 0 0 0 0 0 0 0 0 0 0 0 0 0 0
0 0 0 0 0 0 0 0 0 0 0 0 0 0 0 0 0 0 0 0 0 0 0 1311 1295 0 0 0 1307 1323 1326 1390 1414 0 0 0 0 0 0 0 0 0 0 0 0 0 0 0 0 0 0 0 0 0 0 0 0 0 0 0 0 0 0 0 0 0 0 0 0 0 0 0 0 0 0 0 0 0 0 0 0 0 0 0 0 0 0 0 0 0 0 0 0 0 0 0 0 0 0 0 0 0 0 0 0 0 0 1679 0 0 0 0 0 0 0 0 0 0 0 0
0 0 0 0 0 0 0 0 0 0 0 0 0 0 0 0 0 0 0 0 0 0 0 1418 1400 1357 1346 0 1327 1366 1386 1397 1425 0 0 0 0 0 0 0 0 0 0 0 0 0 0 0 0 0 0 0 0 0 0 0 0 0 0 0 0 0 0 0 0 0 0 0 0 0 0 0 0 0 0 0 0 0 0 0 0 0 0 0 0 0 0 0 0 0 0 0 0 0 0 0 0 0 0 0 0 0 0 0 0 0 1785 1718 1723 0 0 0 0 0 0 0 0 0 0 0
0 0 0 0 0 0 0 0 0 0 0 0 0 0 0 0 0 0 0 0 0 0 0 1376 1388 1368 1310 1333 1356 1314 1354 1423 1442 0 0 0 0 0 0 0 0 0 0 0 0 0 0 0 0 0 0 0 0 0 0 0 0 0 0 0 0 0 0 0 0 0 0 0 0 0 0 0 0 0 0 0 0 0 0 0 0 0 0 0 0 0 0 0 0 0 0 0 0 0 0 0 0 0 0 0 0 0 0 0 0 1730 1725 1766 1635 0 0 0 0 0 0 0 0 0 0 0
0 0 0 0 0 0 0 0 0 0 0 0 0 0 0 0 0 0 0 0 0 0 0 1381 1372 1384 1354 1338 1319 1318 1354 1405 1413 0 0 0 0 0 0 0 0 0 0 0 0 0 0 0 0 0 0 0 0 0 0 0 0 0 0 0 0 0 0 0 0 0 0 0 0 0 0 0 0 0 0 0 0 0 0 0 0 0 0 0 0 0 0 0 0 0 0 0 0 0 0 0 0 0 0 0 0 0 0 0 0 1681 1724 0 0 0 0 0 0 0 0 0 0 0 0 0
0 0 0 0 0 0 0 0 0 0 0 0 0 0 0 0 0 0 0 0 0 0 0 1385 1378 1376 1381 1391 1376 1353 1375 1420 1436 0 0 0 0 0 0 0 0 0 0 0 0 0 0 0 0 0 0 0 0 0 0 0 0 0 0 0 0 0 0 0 0 0 0 0 0 0 0 0 0 0 0 0 0 0 0 0 0 0 0 0 0 0 0 0 0 0 0 0 0 0 0 0 0 0 0 0 0 0 0 0 0 1819 0 1692 1752 1721 0 0 1709 0 0 0 0 0 0 0
1256 1250 1271 1324 1298 1300 1283 0 0 0 0 0 0 0 0 0 0 0 0 0 0 0 0 0 1363 1374 1374 1374 1378 1360 1363 1427 1410 0 0 0 0 0 0 0 0 0 0 0 0 0 0 0 0 0 0 0 0 0 0 0 0 0 0 0 0 0 0 0 0 0 0 0 0 0 0 0 0 0 0 0 0 0 0 0 0 0 0 0 0 0 0 0 0 0 0 0 0 0 0 0 0 0 0 0 0 0 0 0 1816 1728 1729 1734 1700 1656 0 1622 0 0 0 0 0 0 0 0
1251 1253 1286 1283 1301 1317 1333 1326 1311 1328 1402 0 0 0 0 0 0 0 0 0 0 0 0 1381 1360 1372 1352 1371 1393 1373 1431 1442 1441 0 0 0 0 0 0 0 0 0 0 0 0 0 0 0 0 0 0 0 0 0 0 0 0 0 0 0 0 0 0 0 0 0 0 0 0 0 0 0 0 0 0 0 0 0 0 0 0 0 0 0 0 0 0 0 0 0 0 0 0 0 0 0 0 0 0 0 0 0 0 1797 1769 1783 1798 1738 1716 1717 1695 1734 0 0 0 0 0 0 0 0
1268 1280 1268 1271 1303 1323 1301 1315 1334 1353 1356 1393 1351 1392 1378 1423 1436 0 0 0 0 0 0 0 1432 1367 0 0 1428 0 0 1437 1424 0 0 0 0 0 0 0 0 0 0 0 0 0 0 0 0 0 0 0 0 0 0 0 0 0 0 0 0 0 0 0 0 0 0 0 0 0 0 0 0 0 0 0 0 0 0 0 0 0 0 0 0 0 0 0 0 0 0 0 0 0 0 0 0 0 0 0 0 0 1757 1765 1738 1769 1724 1714 1745 1692 1716 1657 0 0 0 0 0 0 0 0
0 0 0 0 1279 1306 1286 1299 1317 1327 1324 1339 1351 1377 1367 1379 1365 1406 1440 1406 0 0 0 0 0 0 0 0 0 0 0 1451 1434 1405 0 0 0 0 0 0 0 0 0 0 0 0 0 0 0 0 0 0 0 0 0 0 0 0 0 0 0 0 0 0 0 0 0 0 0 0 0 0 0 0 0 0 0 0 0 0 0 0 0 0 0 0 0 0 0 0 0 0 0 0 0 0 0 0 0 0 0 0 0 1778 1702 1728 1692 1661 1608 0 0 0 0 0 0 0 0 0 0 0
0 0 0 0 0 0 0 0 0 1316 1332 1365 1383 1372 1387 1386 1398 1436 1421 1435 1487 1470 0 0 0 0 0 0 0 0 0 1443 1485 1437 0 0 0 0 0 0 0 0 0 0 0 0 0 0 0 0 0 0 0 0 0 0 0 0 0 0 0 0 0 0 0 0 0 0 0 0 0 0 0 0 0 0 0 0 0 0 0 0 0 0 0 0 0 0 0 0 0 0 0 0 0 0 0 0 0 0 0 0 0 1712 1686 1657 1571 1556 1548 1587 1538 1519 1605 1550 1618 0 0 0 0 0
0 0 0 0 0 0 0 0 0 0 0 0 0 0 0 1382 1401 1407 1415 1435 1463 1484 0 0 0 0 0 0 0 0 0 0 1449 0 0 0 0 0 0 0 0 0 0 0 0 0 0 0 0 0 0 0 0 0 0 0 0 0 0 0 0 0 0 0 0 0 0 0 0 0 0 0 0 0 0 0 0 0 0 0 0 0 0 0 0 0 0 0 0 0 0 0 0 0 0 0 0 0 0 0 0 1726 1618 1590 1597 1619 1598 1601 1573 1579 1567 1581 1587 1595 0 0 0 0 0 0
0 0 0 0 0 0 0 0 0 0 0 0 0 0 0 0 0 0 0 0 0 1449 0 0 0 0 0 0 0 0 0 0 0 0 0 0 0 0 0 0 0 0 0 0 0 0 0 0 0 0 0 0 0 0 0 0 0 0 0 0 0 0 0 0 0 0 0 0 0 0 0 0 0 0 0 0 0 0 0 0 0 0 0 0 0 0 0 0 0 0 0 0 0 0 0 0 0 0 0 0 0 1617 1575 1611 1588 1601 1603 1589 1594 1565 1612 1578 1592 1588 0 0 0 0 0 0
0 0 0 0 0 0 0 0 0 0 0 0 0 0 0 0 0 0 0 0 0 0 0 0 0 0 0 0 0 0 0 0 0 0 0 0 0 0 0 0 0 0 0 0 0 0 0 0 0 0 0 0 0 0 0 0 0 0 0 0 0 0 0 0 0 0 0 0 0 0 0 0 0 0 0 0 0 0 0 0 0 0 0 0 0 0 0 0 0 0 0 0 0 0 0 0 0 0 0 0 0 0 1635 1639 1571 1592 1590 1628 1618 1600 1583 1608 0 0 0 0 0 0 0 0
0 0 0 0 0 0 0 0 0 0 0 0 0 0 0 0 0 0 0 0 0 0 0 0 0 0 0 0 0 0 0 0 0 0 0 0 0 0 0 0 0 0 0 0 0 0 0 0 0 0 0 0 0 0 0 0 0 0 0 0 0 0 0 0 0 0 0 0 0 0 0 0 0 0 0 0 0 0 0 0 0 0 0 0 0 0 0 0 0 0 0 0 0 0 0 0 0 0 0 0 0 0 0 0 0 0 0 1598 0 0 0 0 0 0 0 0 0 0 0 0
0 0 0 0 0 0 0 0 0 0 0 0 0 0 0 0 0 0 0 0 0 0 0 0 0 0 0 0 0 0 0 0 0 0 0 0 0 0 0 0 0 0 0 0 0 0 0 0 0 0 0 0 0 0 0 0 0 0 0 0 0 0 0 0 0 0 0 0 0 0 0 0 0 0 0 0 0 0 0 0 0 0 0 0 0 0 0 0 0 0 0 0 0 0 0 0 0 0 0 0 0 0 0 0 0 0 0 0 0 0 0 0 0 0 0 0 0 0 0 0
581 592 0 0 0 0 0 0 0 0 0 0 0 0 0 0 0 0 0 0 0 0 0 0 0 1812 1888 0 0 0 0 0 0 0 0 0 0 0 0 0 0 0 0 0 0 0 0 2916 2951 2941 2889 2929 2909 2904 2910 2890 2865 2874 2857 2924 2898 2940 2920 2873 2896 2899 0 0 0 0 0 0 0 0 0 0 0 0 0 0 0 0 0 0 0 0 0 0 0 0 0 0 0 0 0 1735 1724 0 0 0 0 0 0 0 0 0 0 0 0 0 0 0 0 0 0 0 0 0 0 0
572 562 593 613 620 595 0 0 0 0 0 0 0 0 0 0 0 0 0 0 0 0 0 0 0 0 0 1872 1911 0 0 0 0 0 0 0 0 0 0 0 0 0 0 0 0 0 0 2971 2938 2975 2956 2908 2934 2973 2933 2953 2939 2925 2919 2908 2913 2902 2880 2953 2895 2925 0 0 0 0 0 0 0 0 0 0 0 0 0 0 0 0 0 0 0 0 0 0 0 0 0 0 0 0 0 0 0 0 0 0 0 0 0 0 0 0 0 0 0 0 0 0 0 0 0 0 0 0 0 0
562 593 577 604 594 622 630 644 671 0 0 0 0 0 0 0 0 0 0 0 0 0 0 0 0 0 0 0 0 0 0 0 0 0 0 0 0 0 0 0 0 0 0 0 0 0 0 2925 2919 2928 2908 2906 2892 2909 2919 2922 2937 2922 2972 2916 2940 2925 2906 2902 2897 0 0 0 0 0 0 0 0 0 0 0 0 0 0 0 0 0 0 0 0 0 0 0 0 0 0 0 0 0 0 0 0 0 0 0 0 0 0 0 0 0 0 0 0 0 0 0 0 0 0 0 0 0 0 0
567 580 583 601 619 625 640 661 668 661 682 678 0 0 0 0 0 0 0 0 0 0 0 0 0 0 0 0 0 0 0 0 0 0 0 0 0 0 0 0 0 0 0 0 0 0 0 2957 2870 2961 2902 2913 2895 2924 2895 2945 2885 2905 2912 2877 2900 2940 2945 2881 2889 2902 0 0 0 0 0 0 0 0 0 0 0 0 0 0 0 0 0 0 0 0 0 0 0 0 0 0 0 0 0 0 0 0 0 0 0 0 0 0 0 0 0 0 0 0 0 0 0 0 0 0 0 0 0 0
556 570 595 621 641 638 634 644 663 662 679 688 705 710 758 0 0 0 0 0 0 0 0 0 0 0 0 0 0 0 0 0 0 0 0 0 0 0 0 0 0 0 0 0 0 0 0 2890 2872 2902 2928 2895 2915 2943 2897 2934 2945 2904 2931 2940 2949 2873 2884 2943 2927 0 0 0 0 0 0 0 0 0 0 0 0 0 0 0 0 0 0 0 0 0 0 0 0 0 0 0 0 0 0 0 0 0 0 0 0 0 0 0 0 0 0 0 0 0 0 0 0 0 0 0 0 0 0 0
769 791 778 768 742 676 646 691 677 653 694 713 739 727 757 758 795 849 0 0 0 0 0 0 0 0 0 0 0 0 0 0 0 0 0 0 0 0 0 0 0 0 0 0 0 0 0 2900 2932 2888 2906 2850 2839 2870 2862 2889 2888 2881 2885 2855 2866 2909 2864 2876 2900 2926 0 0 0 0 0 0 0 0 0 0 0 0 0 0 0 0 0 0 0 0 0 0 0 0 0 0 0 0 0 0 0 0 0 0 0 0 0 0 0 0 0 0 0 0 0 0 0 0 0 0 0 0 0 0
779 806 798 804 830 850 850 843 814 802 757 746 711 717 730 759 755 746 786 795 823 0 0 0 0 0 0 0 0 0 0 0 0 0 0 0 0 0 0 0 0 0 0 0 0 0 0 2893 2883 2906 2947 2902 2950 2919 2866 2896 2931 2890 2912 2915 2867 2885 2882 2860 2865 2858 0 0 0 0 0 0 0 0 0 0 0 0 0 0 0 0 0 0 0 0 0 0 0 0 0 0 0 0 0 0 0 0 0 0 0 0 0 0 0 0 0 0 0 0 0 0 0 0 0 0 0 0 0 0
785 780 824 832 842 867 874 885 908 924 918 921 924 897 860 840 802 801 793 823 850 865 871 897 0 0 0 0 0 0 0 0 0 0 0 0 0 0 0 0 0 0 0 0 0 0 0 2904 2883 2911 2900 2919 2870 2919 2935 2909 2885 2893 2903 2884 2927 2911 2877 2876 2885 2821 0 0 0 0 0 0 0 0 0 0 0 0 0 0 0 0 0 0 0 0 0 0 0 0 0 0 0 0 0 0 0 0 0 0 0 0 0 0 0 0 0 0 0 0 0 0 0 0 0 0 0 0 0 0
653 0 822 835 823 879 865 879 908 908 931 948 952 951 945 959 939 936 888 870 832 855 869 886 880 938 0 0 0 0 0 0 0 0 0 0 0 0 0 0 0 0 0 0 0 0 0 2944 2960 2938 2939 2929 2890 2952 2903 2917 2907 2930 2896 2889 2903 2899 2893 2897 2898 2913 0 0 0 0 0 0 0 0 0 0 0 0 0 0 0 0 0 0 0 0 0 0 0 0 0 0 0 0 0 0 0 0 0 0 0 0 0 0 0 0 0 0 0 0 0 0 0 0 0 0 0 0 0 0
637 936 938 939 893 889 0 914 873 905 934 942 938 948 942 944 946 940 955 954 929 925 880 893 887 948 960 939 1019 0 0 0 0 0 0 0 0 0 0 0 0 0 0 0 0 0 0 2907 2899 2881 2939 2927 2946 2905 2946 2886 2892 2906 2919 2937 2899 2888 2915 2920 2862 0 0 0 0 0 0 0 0 0 0 0 0 0 0 0 0 0 0 0 0 0 0 0 0 0 0 0 0 0 0 0 0 0 0 0 0 0 0 0 0 0 0 0 0 0 0 0 0 0 0 0 0 0 0 0
594 703 0 0 0 0 0 0 0 0 967 975 962 1003 990 970 972 972 942 942 953 939 940 945 978 952 934 984 1024 1045 1041 0 0 0 0 0 0 0 0 0 0 0 0 0 0 0 0 2905 2952 2912 2921 2916 2937 2933 2938 2901 2968 2924 2904 2891 2921 2910 2864 2878 2899 2913 0 0 0 0 0 0 0 0 0 0 0 0 0 0 0 0 0 0 0 0 0 0 0 0 0 0 0 0 0 0 0 0 0 0 0 0 0 0 0 0 0 0 0 0 0 0 0 0 0 0 0 0 0 0
582 563 625 0 1115 1138 1117 1160 1131 1150 1169 1160 1134 1154 1151 1151 1113 1027 0 0 1027 1076 1071 998 1019 1044 1124 1124 1108 1085 1089 0 0 0 0 0 0 0 0 0 0 0 0 0 0 0 0 2899 2882 2939 2902 2918 2901 2878 2937 2937 2938 2885 2875 2898 2912 2925 2860 2887 2898 0 0 0 0 0 0 0 0 0 0 0 0 0 0 0 0 0 0 0 0 0 0 0 0 0 0 0 0 0 0 0 0 0 0 0 0 0 0 0 0 0 0 0 0 0 0 0 0 0 0 0 0 0 0 0
578 582 596 611 0 0 0 0 0 0 0 0 0 0 0 0 1389 1020 0 0 0 1124 1075 0 0 1120 1152 1135 1138 1142 1131 0 0 0 0 0 0 0 0 0 0 0 0 0 0 0 0 2859 2946 2907 2954 2867 2886 2964 2885 2912 2922 2915 2874 2879 2899 2944 2946 2857 2928 2930 0 0 0 0 0 0 0 0 0 0 0 0 0 0 0 0 0 0 0 0 0 0 0 0 0 0 0 0 0 0 0 0 0 0 0 0 0 0 0 0 0 0 0 0 0 0 0 0 0 0 0 0 0 0
578 597 590 611 622 0 0 0 0 0 0 0 0 0 0 0 0 970 979 0 0 0 0 0 0 0 0 0 0 0 0 0 0 0 0 0 0 0 0 0 0 0 0 0 0 0 0 2903 2917 2943 2939 2903 2946 2868 2879 2862 2893 2899 2891 2911 2885 2922 2896 2855 2903 2881 0 0 0 0 0 0 0 0 0 0 0 0 0 0 0 0 0 0 0 0 0 0 0 0 0 0 0 0 0 0 0 0 0 0 0 0 0 0 0 0 0 0 0 0 0 0 0 0 0 0 0 0 0 0
581 587 622 616 620 609 0 0 0 0 0 0 0 0 0 0 0 0 0 0 0 0 0 0 0 0 0 0 0 0 0 0 0 0 0 0 0 0 0 0 0 0 0 0 0 0 0 2945 2939 2896 2882 2937 2910 2956 2929 2933 2898 2943 2887 2880 2886 2902 2940 2928 2878 0 0 0 0 0 0 0 0 0 0 0 0 0 0 0 0 0 0 0 0 0 0 0 0 0 0 0 0 0 0 0 0 0 0 0 0 0 0 0 0 0 0 0 0 0 0 0 0 0 0 0 0 0 0 0
598 594 586 624 610 622 0 0 0 0 0 0 0 0 0 0 0 0 0 0 0 0 0 0 0 0 0 0 0 0 0 0 0 0 0 0 0 0 0 0 0 0 0 0 0 0 0 2931 2928 2903 2893 2901 2898 2885 2858 2873 2889 2897 2926 2873 2921 2896 2872 2904 2892 2877 0 0 0 0 0 0 0 0 0 0 0 0 0 0 0 0 0 0 0 0 0 0 0 0 0 0 0 0 0 0 0 0 0 0 0 0 0 0 0 0 0 0 0 0 0 0 0 0 0 0 0 0 0 0
575 584 598 614 598 573 0 0 0 0 0 0 0 0 0 0 0 0 0 0 0 0 967 0 0 0 0 0 0 0 0 0 0 0 0 0 0 0 0 0 0 0 0 0 0 0 0 2913 2874 2918 2912 2915 2855 2890 2855 2904 2916 2826 2879 2821 2886 2890 2889 2852 2872 0 0 0 0 0 0 0 0 0 0 0 0 0 0 0 0 0 0 0 0 0 0 0 0 0 0 0 0 0 0 0 0 0 0 0 0 0 0 0 0 0 0 0 0 0 0 0 0 0 0 0 0 0 0 0
566 598 586 594 587 604 590 0 0 0 0 0 0 0 0 0 0 0 0 0 0 0 0 0 0 0 0 0 0 0 0 0 0 0 0 0 0 0 0 0 0 0 0 0 0 0 0 2877 2887 2932 2902 2913 2904 2929 2883 2943 2889 2910 2881 2940 2912 2883 2859 2889 2891 0 0 0 0 0 0 0 0 0 0 0 0 0 0 0 0 0 0 0 0 0 0 0 0 0 0 0 0 0 0 0 0 0 0 0 0 0 0 0 0 0 0 0 0 0 0 0 0 0 0 0 0 0 0 0
577 595 592 578 603 559 547 0 0 0 0 0 0 0 0 0 2259 0 0 0 0 0 961 993 0 0 0 0 0 0 0 0 0 0 0 0 0 0 0 0 0 0 0 0 0 0 0 2887 2908 2928 2893 2925 2911 2909 2869 2911 2888 2873 2885 2914 2917 2909 2885 2855 2867 2871 0 0 0 0 0 0 0 0 0 0 0 0 0 0 0 0 0 0 0 0 0 0 0 0 0 0 0 0 0 0 0 0 0 0 0 0 0 0 0 0 0 0 0 0 0 0 0 0 0 0 0 0 0 0
580 609 585 583 592 579 549 0 0 0 0 0 0 0 0 0 0 0 0 0 0 0 0 0 0 0 0 0 0 0 0 0 0 0 0 0 0 0 0 0 0 0 0 0 0 0 0 2916 2926 2887 2928 2970 2929 2905 2938 2919 2903 2887 2889 2886 2911 2871 2915 2874 2903 2855 0 0 0 0 0 0 0 0 0 0 0 0 0 0 0 0 0 0 0 0 0 0 0 0 0 0 0 0 0 0 0 0 0 0 0 0 0 0 0 0 0 0 0 0 0 0 0 0 0 0 0 0 0 0
583 588 593 614 594 604 0 0 0 0 0 0 0 0 0 0 0 0 0 0 0 0 0 0 0 0 0 0 0 0 0 0 0 0 0 0 0 0 0 0 0 0 0 0 0 0 0 0 0 0 0 0 0 0 0 0 0 0 0 0 0 2954 3042 2906 2911 0 0 0 0 0 0 0 0 0 0 0 0 0 0 0 0 0 0 0 0 0 0 0 0 0 0 0 0 0 0 0 0 0 0 0 0 0 0 0 0 0 0 0 0 0 0 0 0 0 0 0 0 0 0 0
589 593 599 611 594 617 0 0 0 0 0 0 0 0 0 0 0 0 0 0 0 0 0 0 0 0 0 0 0 0 0 0 0 0 0 0 0 0 0 0 0 0 0 0 0 0 0 0 0 0 0 0 0 0 0 0 0 0 0 0 0 0 0 0 0 0 0 0 0 0 0 0 0 0 0 0 0 0 0 0 0 0 0 0 0 0 0 0 0 0 0 0 0 0 0 0 0 0 0 0 0 0 0 0 0 0 0 0 0 0 0 0 0 0 0 0 0 0 0 0
608 603 595 627 601 637 0 0 0 0 0 0 0 0 0 0 0 0 0 0 0 0 0 0 0 0 0 0 0 0 0 0 0 0 0 0 0 0 0 0 0 0 0 0 0 0 0 0 0 0 0 0 0 0 0 0 0 0 0 0 0 0 0 0 0 0 0 0 0 0 0 0 0 0 0 0 0 0 0 0 0 0 0 0 0 0 0 0 0 0 0 0 0 0 0 0 0 0 0 0 0 0 0 0 0 0 0 0 0 0 0 0 0 0 0 0 0 0 0 0
596 594 606 605 594 0 0 0 0 0 0 0 0 0 0 0 0 0 0 0 0 0 0 0 0 0 0 0 0 0 0 0 0 0 0 0 0 0 0 0 0 0 0 0 0 0 0 0 0 0 0 0 0 0 0 0 0 0 0 0 0 0 0 0 0 0 0 0 0 0 0 0 0 0 0 0 0 0 0 0 0 0 0 0 0 0 0 0 0 0 0 0 0 0 0 0 0 0 0 0 0 0 0 0 0 0 0 0 0 0 0 0 0 0 0 0 0 0 0 0
607 583 620 609 0 0 0 0 0 0 0 0 0 0 0 0 0 0 0 0 0 0 0 0 0 0 896 879 905 867 893 892 914 905 936 951 0 909 883 918 0 0 0 0 0 0 0 0 0 0 0 0 0 0 0 0 0 0 0 0 0 0 0 0 0 0 0 0 0 0 0 0 0 0 0 0 0 0 0 0 0 0 0 0 0 0 0 0 0 0 0 0 0 0 0 0 0 0 0 0 0 0 0 0 0 0 0 0 0 0 0 0 0 0 0 0 0 0 0 0
554 561 569 0 0 640 653 699 676 657 655 644 690 681 708 685 703 685 673 657 699 689 684 681 681 722 725 665 732 660 743 677 715 680 689 711 708 709 709 747 696 736 697 734 769 728 679 745 734 743 687 734 729 718 730 759 718 757 748 761 789 717 744 759 788 743 748 710 744 784 797 777 763 0 727 819 0 0 0 0 0 0 0 0 0 0 0 0 0 0 0 0 0 0 0 0 0 0 0 0 0 0 0 0 0 0 0 0 0 0 0 0 0 0 0 0 0 0 0 0
508 543 537 573 538 563 591 583 548 581 582 599 551 576 584 571 564 584 607 545 585 574 568 573 585 577 591 583 570 574 596 571 572 612 612 580 594 557 610 601 608 596 624 587 550 625 611 615 613 625 635 608 637 658 581 618 611 628 635 636 641 652 647 672 588 608 657 631 642 644 626 653 649 664 650 600 613 650 672 643 649 613 658 653 633 638 702 678 664 669 641 692 665 654 636 0 662 666 703 671 694 668 0 0 0 0 0 0 0 0 0 0 0 0 0 0 0 0 0 0
498 505 504 508 492 484 492 511 492 470 485 508 514 506 491 516 489 496 498 490 512 508 513 485 507 510 520 513 497 506 513 513 521 502 499 504 500 494 530 493 518 523 520 515 535 509 510 518 522 523 520 508 523 513 521 539 525 537 528 541 508 521 566 545 527 501 549 547 527 566 533 532 545 535 524 537 544 547 530 540 549 541 563 555 567 574 546 533 569 574 566 553 563 557 566 562 579 576 631 550 582 567 582 566 0 557 0 555 542 588 572 0 0 0 0 0 0 0 0 0
420 407 429 421 412 435 444 427 454 439 433 454 459 447 455 452 445 454 436 435 463 458 466 459 466 445 447 439 455 453 451 449 460 455 453 451 460 472 460 459 475 451 464 461 460 452 468 468 461 474 493 471 485 471 491 477 471 487 464 459 486 482 479 490 484 501 488 486 483 500 500 475 497 483 494 501 462 488 493 466 472 499 509 488 473 483 485 496 495 487 485 496 496 471 494 485 511 516 493 501 478 519 496 539 471 493 540 520 527 487 486 502 0 0 0 0 0 0 0 0
383 419 392 398 414 397 411 410 391 385 408 399 408 408 398 411 416 405 407 397 398 410 404 403 411 418 408 414 404 399 410 413 421 433 422 414 414 419 415 417 415 417 423 424 413 426 421 423 428 421 421 419 424 421 431 423 421 437 423 425 429 435 423 430 431 434 414 424 428 423 418 423 431 419 433 425 436 435 427 423 421 417 431 417 452 447 443 460 434 441 436 434 431 463 447 430 437 450 430 447 424 434 449 437 421 468 445 451 446 455 437 444 459 427 0 0 0 0 0 0
353 351 336 343 360 370 378 355 360 370 387 351 365 379 353 377 360 364 371 370 365 365 364 360 362 365 365 367 359 355 385 373 381 376 371 371 398 387 357 369 372 378 368 377 378 380 395 368 380 391 376 385 381 380 381 375 373 374 384 398 382 383 387 381 390 388 389 402 390 372 395 385 401 391 392 397 397 400 398 405 397 388 394 383 401 381 389 380 400 397 399 394 408 391 388 394 384 401 397 401 405 400 393 401 395 409 390 384 408 407 389 388 400 405 387 381 0 0 0 0
318 314 352 320 324 328 331 338 336 342 328 344 331 337 330 344 359 353 331 337 344 360 330 350 353 357 336 335 331 324 341 339 356 361 341 340 354 341 341 342 334 346 346 344 340 339 342 355 342 347 347 342 340 349 343 345 354 348 348 345 353 355 334 348 346 342 342 356 358 347 361 354 340 359 339 356 348 352 348 347 351 348 345 354 351 360 348 348 352 365 354 361 368 357 358 351 346 352 358 342 349 349 372 350 371 345 375 378 365 340 359 346 363 354 366 335 380 0 0 0
287 294 313 288 295 302 311 322 300 305 307 292 304 292 306 303 314 293 313 285 304 296 299 304 303 293 303 312 312 311 302 298 300 306 297 310 307 313 312 310 301 309 302 309 319 305 315 321 317 318 310 314 318 300 325 313 311 315 307 311 313 307 312 329 308 308 322 318 318 323 316 326 314 316 312 321 317 303 314 323 311 319 316 312 323 326 330 331 332 309 328 327 320 325 330 333 338 333 326 332 333 332 336 312 350 339 327 339 334 334 333 334 309 345 356 346 346 333 338 0
280 264 268 267 266 278 268 275 274 286 275 278 277 277 293 287 277 274 283 281 286 268 277 275 276 279 274 285 287 267 281 275 279 277 284 278 279 283 281 281 285 282 280 286 283 277 285 297 282 286 291 284 293 282 284 289 294 292 279 289 284 292 277 294 285 290 287 287 292 295 294 288 285 288 287 289 291 289 288 294 288 286 286 290 288 284 293 291 299 288 284 292 297 299 291 297 290 296 296 295 287 292 300 303 291 275 293 280 300 305 303 309 289 296 301 279 281 279 295 331
251 247 260 263 258 252 251 261 256 253 249 249 251 250 261 250 262 268 256 255 256 263 265 255 257 258 257 253 252 252 258 263 260 266 266 261 262 263 264 263 269 261 263 262 265 265 263 262 262 269 271 272 264 268 263 262 269 258 269 265 263 265 271 273 276 265 265 273 274 268 265 266 259 270 269 271 275 265 262 258 259 263 263 272 270 269 270 272 268 267 260 268 263 276 259 270 269 273 278 277 281 279 278 271 270 281 280 293 268 276 270 291 271 274 281 270 260 273 306 272
234 226 231 234 238 227 241 225 236 233 233 240 242 240 237 238 234 234 250 239 239 242 240 233 237 237 234 244 239 242 240 241 244 241 241 237 243 246 247 246 239 241 240 247 241 248 240 245 238 247 248 251 244 251 249 250 246 248 243 244 250 250 250 250 244 252 246 246 248 247 245 247 247 247 252 254 247 245 252 249 257 244 246 247 253 252 256 252 251 248 248 249 252 248 251 257 250 252 248 256 255 249 247 255 244 247 248 238 242 239 250 238 238 262 239 242 285 255 234 214
219 223 219 211 220 229 222 216 218 211 224 229 214 231 224 223 219 220 232 228 229 225 228 230 231 221 223 218 232 223 226 225 228 237 238 235 239 236 233 232 234 240 233 229 240 234 233 239 233 237 235 231 229 235 237 232 230 234 237 239 228 235 237 235 238 234 238 231 239 228 232 234 236 232 234 230 235 232 224 228 232 235 237 229 238 231 236 241 230 231 233 239 232 234 238 233 244 238 239 234 245 242 240 240 238 226 234 237 229 238 229 252 228 238 236 225 243 229 228 223
207 207 223 218 220 207 208 212 208 217 212 213 216 223 218 219 214 208 208 216 212 208 213 214 193 218 214 216 216 214 214 217 213 214 214 215 217 215 196 215 221 202 217 198 223 221 227 217 222 219 216 220 218 220 219 221 217 224 223 206 223 206 222 232 226 218 223 223 222 223 223 222 220 218 217 225 230 217 218 220 226 230 226 223 223 226 223 226 212 218 226 228 224 218 227 217 217 224 230 224 214 221 221 228 226 227 224 218 234 244 221 220 231 239 233 230 243 210 251 236
194 197 198 200 205 207 206 188 183 197 182 201 199 206 205 190 194 207 192 190 189 191 189 191 191 189 191 191 189 192 195 195 194 193 194 190 198 189 193 199 193 195 200 199 198 194 194 200 199 194 202 192 193 200 198 198 200 196 195 194 194 192 196 194 193 202 192 193 193 195 192 196 197 195 194 196 192 190 195 196 197 200 201 199 200 201 197 185 193 197 211 195 212 212 208 192 188 208 210 198 213 218 189 193 208 214 210 205 205 208 205 212 216 202 217 169 215 208 232 222
177 178 194 194 177 177 180 180 198 184 183 178 176 182 200 177 186 184 180 178 191 186 179 186 181 181 181 192 185 185 193 185 195 191 190 194 194 193 195 193 195 198 198 200 187 196 193 189 199 193 194 196 189 202 196 196 197 197 190 200 199 199 197 198 200 196 199 196 197 198 197 196 198 197 195 196 199 194 195 189 195 197 188 197 186 190 196 192 193 186 194 184 183 179 179 190 190 182 188 181 183 189 179 206 193 176 181 183 212 189 200 200 191 181 182 200 199 174 195 196
169 174 175 179 184 180 178 183 181 176 184 180 180 184 185 186 181 178 185 186 187 187 185 186 184 186 182 185 187 189 185 182 187 182 183 181 188 182 187 183 186 189 193 192 187 191 185 192 189 188 187 189 184 180 189 190 190 194 186 189 185 186 189 195 194 191 187 189 191 183 191 187 189 188 185 187 193 188 188 189 192 189 188 189 186 185 187 186 188 192 185 192 191 180 187 182 190 183 184 182 187 188 176 176 181 177 185 182 177 173 181 175 181 181 178 174 200 197 198 184
167 166 156 168 171 167 163 173 169 169 170 175 166 168 180 177 174 181 173 176 176 177 175 167 173 167 168 178 177 179 177 182 174 172 174 173 175 178 178 179 178 181 175 180 180 181 178 181 184 181 180 183 176 182 177 183 177 179 182 177 179 173 185 182 176 179 186 184 177 178 177 182 173 176 176 181 179 182 187 181 181 184 184 177 180 180 176 179 178 179 180 183 174 176 179 185 178 182 180 182 174 185 176 184 177 183 182 179 170 169 183 180 173 170 177 172 174 173 164 169
169 163 164 162 161 167 162 163 168 165 167 168 165 163 165 169 167 167 173 169 167 168 168 171 168 164 171 172 170 169 170 169 171 169 166 169 169 167 176 169 164 171 174 170 176 174 173 173 175 171 171 173 172 176 172 173 170 173 173 173 174 173 171 171 178 172 173 170 168 173 175 178 175 167 169 176 175 175 174 175 169 169 170 164 173 178 179 172 176 171 170 168 170 168 165 163 174 171 174 179 173 180 173 178 174 172 179 170 169 166 170 171 178 176 167 173 177 172 177 177
153 163 164 165 165 165 159 156 161 157 164 160 161 165 163 164 159 161 166 164 163 164 168 161 160 164 160 160 157 163 163 165 162 164 159 161 162 162 160 160 164 158 163 161 162 163 162 162 161 166 163 166 166 159 166 167 165 167 165 172 164 164 167 160 167 168 162 161 168 161 165 162 162 162 162 161 172 166 162 167 160 156 166 167 163 166 168 167 164 166 162 166 169 156 166 162 163 161 164 167 170 162 160 166 161 167 157 157 158 160 162 159 169 156 163 159 167 155 155 170
144 149 148 149 146 147 146 152 155 160 148 151 148 150 150 155 160 157 152 160 151 151 153 155 153 159 157 161 156 162 157 162 157 154 156 155 149 157 155 153 157 155 159 160 153 157 154 158 156 156 160 150 157 161 159 156 161 155 160 158 159 156 159 162 163 163 157 161 151 155 160 162 158 159 160 159 162 159 159 156 154 155 159 156 153 153 156 162 160 161 155 158 155 157 160 152 157 150 155 157 158 156 157 157 158 152 155 153 165 156 149 150 149 153 165 154 151 159 153 146
141 142 146 144 144 145 144 148 149 147 147 151 148 149 150 143 145 151 145 150 150 148 157 152 149 156 149 147 153 147 151 148 147 151 146 148 151 154 146 148 151 154 153 154 151 146 149 152 150 150 151 153 151 151 151 145 151 156 154 158 156 155 151 154 148 149 153 153 154 153 150 154 153 157 151 151 161 159 152 150 149 158 150 150 147 150 158 153 152 149 151 150 159 152 157 153 152 150 149 152 153 159 157 155 152 149 145 155 154 148 151 143 164 153 167 138 151 161 172 139
136 138 138 138 141 138 141 140 137 139 144 141 140 144 143 141 144 144 143 146 142 146 141 149 142 142 148 146 143 142 141 143 144 140 143 143 141 144 148 142 148 144 149 147 148 146 144 140 142 152 141 149 142 142 144 145 146 147 147 148 153 144 141 143 150 149 149 150 146 145 146 155 148 146 148 150 150 149 146 149 142 147 149 141 143 143 146 149 151 148 145 143 148 147 150 148 141 149 154 150 146 153 148 140 142 146 140 143 138 148 140 145 141 142 159 157 148 141 150 136
128 137 133 132 133 142 137 140 137 137 138 0 131 140 135 138 139 142 139 138 145 141 141 141 141 143 146 140 139 138 127 126 140 139 131 139 133 131 128 140 130 143 143 141 143 142 144 131 130 138 133 143 141 144 145 141 145 144 146 133 133 142 140 143 133 144 141 144 145 138 133 141 130 144 143 142 143 147 143 145 142 142 127 131 132 138 139 143 142 141 138 142 142 146 142 145 142 143 144 144 142 147 139 140 138 142 134 142 146 144 136 130 134 130 133 138 134 137 144 133
132 135 125 135 137 136 142 131 134 140 133 126 138 138 137 135 134 140 135 133 140 144 141 138 141 137 138 138 138 126 124 126 128 128 128 125 125 129 127 130 143 139 128 129 0 141 130 132 129 124 127 126 130 133 0 141 0 130 131 132 134 125 135 130 127 127 132 129 140 130 130 127 127 131 140 128 132 132 133 132 138 132 126 126 128 128 137 126 129 144 122 140 137 135 128 129 140 141 143 141 136 133 136 138 142 131 134 136 136 139 141 132 137 135 134 136 137 140 130 137
123 106 124 111 125 128 136 123 117 112 121 116 115 124 125 121 124 124 123 121 119 123 129 138 126 140 135 139 0 137 126 121 118 129 123 120 126 126 127 118 126 130 126 130 0 0 128 123 127 119 119 124 128 129 126 130 132 129 128 120 125 125 126 127 126 128 130 128 122 126 126 119 121 118 119 119 118 133 125 123 129 123 125 126 120 130 122 127 124 130 123 125 134 124 118 120 123 135 126 130 130 120 124 122 120 117 112 123 121 130 129 132 126 133 133 137 133 134 110 124
113 118 112 114 113 120 130 116 127 116 119 115 120 124 122 112 111 122 123 119 123 123 127 125 123 119 123 127 124 129 126 0 121 120 112 107 118 121 0 118 130 125 0 0 0 0 124 126 118 125 124 125 127 124 129 120 120 123 123 122 124 121 116 123 122 122 128 124 114 121 121 115 127 121 118 120 118 128 126 123 117 117 124 125 117 121 124 117 128 126 121 114 120 125 121 118 125 124 119 122 122 120 122 119 107 122 119 114 129 129 126 129 126 130 100 129 127 98 135 135
108 99 113 114 111 113 113 115 111 110 119 119 110 110 106 116 114 117 109 121 115 109 113 118 119 113 121 117 121 126 126 0 119 122 117 110 117 0 115 116 123 0 0 119 124 0 121 118 114 112 118 117 121 121 121 121 120 121 116 117 121 122 118 116 122 123 119 120 120 117 115 120 108 115 118 113 113 117 114 124 114 117 115 116 115 113 115 113 112 120 119 115 116 115 107 120 126 117 108 116 117 121 110 109 116 113 113 117 108 127 111 114 130 110 109 130 118 109 92 99
91 102 107 102 93 108 115 110 97 112 114 104 106 109 120 117 116 110 110 97 111 107 109 107 112 111 117 116 112 112 117 116 111 112 117 112 108 115 0 114 113 113 112 108 111 115 116 0 114 0 113 109 117 113 0 0 111 109 117 113 124 117 106 110 110 115 109 107 116 111 118 112 110 103 107 106 105 110 104 111 109 109 105 110 106 106 115 109 106 110 109 108 93 115 108 114 110 117 108 98 109 117 115 105 107 104 102 107 107 119 107 102 99 110 97 111 101 85 105 108
109 97 110 106 106 106 108 107 112 109 105 112 112 114 118 118 111 111 116 99 108 97 103 98 116 111 108 111 109 117 114 110 105 110 115 111 114 0 105 107 110 109 113 103 103 109 108 109 116 0 111 115 109 112 107 115 106 109 115 110 110 109 116 0 120 108 107 113 109 106 107 105 107 113 103 106 105 101 103 109 107 105 107 104 101 106 103 111 104 102 109 110 96 104 100 109 108 111 108 113 102 112 109 110 105 111 108 111 105 119 107 110 114 112 113 99 106 114 121 126
92 89 108 110 96 91 98 98 97 92 103 102 101 104 101 106 97 105 103 105 99 98 94 105 105 106 106 102 99 106 106 106 104 105 104 101 108 110 106 108 104 100 99 101 98 105 109 101 106 100 105 106 107 105 107 107 97 104 107 101 108 107 104 0 108 104 0 113 104 107 104 101 100 107 102 104 104 103 0 102 0 101 98 107 98 105 97 101 95 102 101 104 98 97 89 97 95 96 104 100 101 105 102 101 104 106 86 95 90 94 91 95 89 105 98 93 94 100 96 120
84 96 86 96 93 96 94 97 97 91 95 96 101 98 101 100 97 94 110 96 95 93 91 93 100 98 102 100 100 100 108 100 104 101 101 101 105 102 105 97 102 103 101 98 103 99 98 106 100 103 107 96 102 100 99 101 98 106 103 103 107 102 104 102 111 106 102 111 106 100 101 106 102 104 93 96 106 97 101 98 0 100 95 94 98 99 97 109 92 101 107 94 99 99 90 105 91 101 85 103 97 94 102 91 99 105 97 96 101 105 91 90 113 90 98 97 100 84 96 92
85 93 93 95 89 92 91 84 87 93 87 89 91 89 89 83 90 94 100 103 103 90 94 92 95 90 100 95 93 99 95 97 101 98 96 102 99 91 94 101 92 94 89 89 101 97 97 97 91 97 98 93 99 90 95 102 93 97 99 103 95 91 99 0 97 102 94 97 97 97 99 99 100 103 86 104 98 93 97 103 90 103 86 102 99 94 90 92 93 90 94 92 95 80 91 91 96 86 102 86 94 94 97 93 100 94 100 91 85 87 94 90 87 86 85 97 110 83 87 76
88 88 77 79 88 87 79 88 79 88 79 90 96 89 93 81 85 89 87 81 92 90 89 89 92 87 95 89 88 95 85 88 102 94 87 88 86 90 90 93 91 84 97 85 99 87 90 88 90 96 91 91 90 96 91 90 96 99 96 93 89 89 88 91 92 89 91 91 92 99 88 93 99 96 88 94 98 89 97 93 87 92 96 93 85 85 89 89 92 90 94 93 94 91 92 94 83 91 91 92 94 87 90 81 88 92 89 87 90 89 82 83 89 83 86 91 98 79 77 86
93 80 82 86 88 83 86 92 91 89 88 92 84 86 95 93 86 83 89 92 84 97 92 85 92 90 95 95 92 86 92 91 97 91 104 83 91 91 93 93 91 93 97 90 93 98 93 95 91 96 101 88 95 90 95 99 93 89 89 97 90 96 93 94 88 91 88 90 87 92 90 86 97 92 98 92 95 96 87 95 99 94 94 95 86 91 89 97 88 90 95 94 102 87 90 91 85 82 94 100 91 86 83 95 83 97 92 89 87 90 91 83 89 82 106 93 86 99 0 0
80 88 86 84 88 93 85 86 85 0 82 82 83 88 80 81 90 85 84 85 92 93 91 97 93 90 93 94 90 88 88 95 93 96 93 96 92 94 96 95 85 95 95 83 95 98 95 96 86 87 97 97 90 90 97 86 96 92 94 94 91 99 91 94 97 91 97 90 97 94 95 95 95 92 94 88 97 93 88 84 94 93 89 91 96 84 83 93 98 91 86 97 95 87 85 86 91 91 92 88 80 87 91 90 90 79 97 89 87 79 88 83 79 89 83 75 93 69 86 0
81 84 74 85 83 84 93 88 89 78 82 78 91 86 83 87 86 87 83 84 86 90 92 84 85 82 87 82 93 92 86 84 86 88 87 97 88 92 89 90 94 87 92 90 97 85 95 92 93 92 96 94 90 92 98 98 93 95 93 87 87 93 91 86 87 96 87 88 91 95 86 95 97 92 97 85 90 95 94 91 89 92 89 89 83 82 87 89 90 78 94 89 84 90 84 83 87 83 90 90 80 82 88 88 85 83 88 88 78 85 77 95 84 88 81 66 78 29 0 0
83 77 81 80 80 81 89 96 87 85 85 78 89 86 91 91 83 91 92 90 91 89 88 84 82 93 91 90 95 92 85 86 94 91 91 84 87 90 88 93 92 88 88 95 93 90 94 95 97 98 95 92 88 83 91 92 93 98 87 94 96 93 87 95 91 96 88 83 86 93 93 92 91 86 91 88 90 92 84 85 95 92 93 84 94 90 88 94 92 94 91 95 84 88 86 90 90 84 93 93 79 92 82 89 84 91 79 92 86 88 83 86 105 90 86 0 0 0 0 0
79 69 61 62 78 79 81 83 81 77 83 77 80 80 87 75 81 77 78 78 86 71 81 78 71 75 76 80 84 78 90 69 77 81 85 79 84 83 85 80 85 78 79 70 81 79 84 81 88 81 78 79 75 83 81 81 81 84 86 71 78 79 79 76 79 79 68 81 74 85 83 85 83 73 86 80 71 85 88 85 76 81 73 76 75 88 74 75 75 83 79 68 82 78 77 79 70 87 65 79 70 78 72 59 72 69 80 80 72 72 87 78 70 67 87 41 0 0 0 0
72 71 74 76 67 78 84 83 84 77 79 87 78 78 78 86 80 86 76 78 80 86 75 74 87 86 74 72 72 81 87 80 87 81 81 72 76 80 81 83 93 84 86 89 84 86 82 74 81 83 85 74 72 81 85 85 84 78 86 73 81 75 82 84 74 77 81 79 86 72 81 81 85 80 80 86 81 83 84 87 85 82 80 82 71 78 84 71 81 88 69 83 73 72 82 78 91 81 81 70 82 73 69 72 67 75 75 83 76 87 63 88 60 86 68 0 0 0 0 0
