0 0 0 0 0 0 0 0 0 0 0 0 0 0 0 0 0 0 0 0 0 0 0 0 0 0 0 0 0 0 0 0 0 0 0 0 0 0 0 0 0 0 0 0 0 0 0 0 0 0 0 0 0 0 0 0 0 0 0 0 0 0 0 0 0 0 0 0 0 0 0 0 0 0 0 0 0 0 0 0 0 0 0 0 0 0 0 0 0 0 0 0 0 0 0 0 0 0 0 0 0 0 0 0 0 0 0 0 0 0 0 0 0 0 0 0 0 0 0 0
0 0 0 0 0 0 0 0 0 0 0 0 0 0 0 0 0 0 0 0 0 0 0 0 0 0 0 0 0 0 0 0 0 0 0 0 0 0 0 0 0 0 0 0 0 0 0 0 0 0 0 0 0 0 0 0 0 0 0 0 0 0 0 0 0 0 0 0 0 0 0 0 0 0 0 0 0 0 0 0 0 0 0 0 0 0 0 0 0 0 0 0 0 0 0 0 0 0 0 0 0 0 0 0 0 0 0 0 0 0 0 0 0 0 0 0 0 0 0 0
0 0 0 0 0 0 0 0 0 0 0 0 0 0 0 0 0 1281 0 0 0 0 1269 0 0 0 0 0 0 0 0 0 0 0 0 0 0 0 0 0 0 0 0 0 0 0 0 0 0 0 0 0 0 0 0 0 0 0 0 0 0 0 0 0 0 0 0 0 0 0 0 0 0 0 0 0 0 0 0 0 0 0 0 0 0 0 0 0 0 0 0 0 0 0 0 0 0 0 0 0 0 0 0 0 0 0 0 0 0 0 0 0 0 0 0 0 0 0 0 0
0 0 0 0 0 0 0 0 0 0 0 1131 1103 1137 0 0 1259 1302 1260 0 0 1266 1279 0 0 0 0 0 0 0 0 0 0 0 0 0 0 0 0 0 0 0 0 0 0 0 0 0 0 0 0 0 0 0 0 0 0 0 0 0 0 0 0 0 0 0 0 0 0 0 0 0 0 0 0 0 0 0 0 0 0 0 0 0 0 0 0 0 0 0 0 0 0 0 0 0 0 0 0 0 0 0 0 0 0 0 0 0 0 0 0 0 0 0 0 0 0 0 0 0
0 0 0 0 0 0 0 0 1125 1110 1140 1186 1146 1162 1161 0 1254 1319 1280 0 1251 1230 1258 0 0 0 0 0 0 0 0 0 0 0 0 0 0 0 0 0 0 0 0 0 0 0 0 0 0 0 0 0 0 0 0 0 0 0 0 0 0 0 0 0 0 0 0 0 0 0 0 0 0 0 0 0 0 0 0 0 0 0 0 0 0 0 0 0 0 0 0 0 0 0 0 0 0 0 0 0 0 0 0 0 0 0 0 0 0 0 0 0 0 0 0 0 0 0 0 0
0 0 0 0 0 0 0 1150 1109 1147 1132 0 1165 1172 1187 1193 1268 1295 1258 1299 1257 1284 1268 1290 0 0 0 0 0 0 0 0 0 0 0 0 0 0 0 0 0 0 0 0 0 0 0 0 0 0 0 0 0 0 0 0 0 0 0 0 0 0 0 0 0 0 0 0 0 0 0 0 0 0 0 0 0 0 0 0 0 0 0 0 0 0 0 0 0 0 0 0 0 0 0 0 0 0 0 0 0 0 0 0 0 0 0 0 0 0 0 0 0 0 0 0 0 0 0 0
0 0 0 0 0 0 0 0 0 0 0 0 1175 1209 1232 1250 1276 1292 1315 1269 1243 1269 1268 1272 1309 0 0 0 0 0 0 1400 0 0 0 0 0 0 0 0 0 0 0 0 0 0 0 0 0 0 0 0 0 0 0 0 0 0 0 0 0 0 0 0 0 0 0 0 0 0 0 0 0 0 0 0 0 0 0 0 0 0 0 0 0 0 0 0 0 0 0 0 0 0 0 0 0 0 0 0 0 0 0 0 0 0 0 0 0 0 0 0 0 0 0 0 0 0 0 0
0 0 0 0 0 0 0 0 0 0 0 0 1276 1247 1277 1278 1288 1276 1283 1285 1262 1249 1276 1292 0 1332 1323 1377 1337 1403 0 1439 0 0 0 0 0 0 0 0 0 0 0 0 0 0 0 0 0 0 0 0 0 0 0 0 0 0 0 0 0 0 0 0 0 0 0 0 0 0 0 0 0 0 0 0 0 0 0 0 0 0 0 0 0 0 0 0 0 0 0 0 0 0 0 0 0 0 0 0 0 0 0 0 0 0 0 0 0 0 0 0 0 0 0 0 0 0 0 0
0 0 0 0 0 0 0 0 0 0 0 0 1250 1276 1289 1279 1292 1260 1261 1254 1255 1261 1277 1252 0 0 1353 1357 1373 1344 1367 1400 0 0 0 0 0 0 0 0 0 0 0 0 0 0 0 0 0 0 0 0 0 0 0 0 0 0 0 0 0 0 0 0 0 0 0 0 0 0 0 0 0 0 0 0 0 0 0 0 0 0 0 0 0 0 0 0 0 0 0 0 0 0 0 0 0 0 0 0 0 0 0 0 0 0 0 0 0 0 0 0 0 0 0 0 0 0 0 0
0 0 0 0 0 0 0 0 0 0 0 0 0 1253 1303 1286 1290 1272 1262 1274 1282 1253 1282 1263 1310 0 0 1362 1356 1351 1351 1419 1478 0 0 0 0 0 0 0 0 0 0 0 0 0 0 0 0 0 0 0 0 0 0 0 0 0 0 0 0 0 0 0 0 0 0 0 0 0 0 0 0 0 0 0 0 0 0 0 0 0 0 0 0 0 0 0 0 0 0 0 0 0 0 0 0 0 0 0 0 0 0 0 0 0 0 0 0 0 0 0 0 0 0 0 0 0 0 0
0 0 0 0 0 0 0 0 0 0 0 0 0 0 0 0 0 0 0 0 0 1278 1284 1287 1291 0 0 1356 1342 1333 1340 1423 1406 0 0 0 0 0 0 0 0 0 0 0 0 0 0 0 0 0 0 0 0 0 0 0 0 0 0 0 0 0 0 0 0 0 0 0 0 0 0 0 0 0 0 0 0 0 0 0 0 0 0 0 0 0 0 0 0 0 0 0 0 0 0 0 0 0 0 0 0 0 0 0 0 0 0 0 0 0 0 0 0 0 0 0 0 0 0 0
0 0 0 0 0 0 0 0 0 0 0 0 0 0 0 0 0 0 0 0 0 0 0 1372 1316 0 0 0 1327 1357 1363 1400 1403 0 0 0 0 0 0 0 0 0 0 0 0 0 0 0 0 0 0 0 0 0 0 0 0 0 0 0 0 0 0 0 0 0 0 0 0 0 0 0 0 0 0 0 0 0 0 0 0 0 0 0 0 0 0 0 0 0 0 0 0 0 0 0 0 0 0 0 0 0 0 0 0 0 0 1779 0 0 0 0 0 0 0 0 0 0 0 0
0 0 0 0 0 0 0 0 0 0 0 0 0 0 0 0 0 0 0 0 0 0 0 1372 1378 1312 1331 1305 1332 1349 1359 1395 1405 0 0 0 0 0 0 0 0 0 0 0 0 0 0 0 0 0 0 0 0 0 0 0 0 0 0 0 0 0 0 0 0 0 0 0 0 0 0 0 0 0 0 0 0 0 0 0 0 0 0 0 0 0 0 0 0 0 0 0 0 0 0 0 0 0 0 0 0 0 0 0 0 0 1739 1770 0 0 0 0 0 0 0 0 0 0 0 0
0 0 0 0 0 0 0 0 0 0 0 0 0 0 0 0 0 0 0 0 0 0 0 1367 1380 1364 1315 1304 1327 1346 1331 1388 1442 0 0 0 0 0 0 0 0 0 0 0 0 0 0 0 0 0 0 0 0 0 0 0 0 0 0 0 0 0 0 0 0 0 0 0 0 0 0 0 0 0 0 0 0 0 0 0 0 0 0 0 0 0 0 0 0 0 0 0 0 0 0 0 0 0 0 0 0 0 0 0 0 0 1738 1739 1744 0 0 0 0 0 0 0 0 0 0 0
0 0 0 0 0 0 0 0 0 0 0 0 0 0 0 0 0 0 0 0 0 0 0 1349 1370 1372 1383 1345 1335 1362 1380 1414 1434 0 0 0 0 0 0 0 0 0 0 0 0 0 0 0 0 0 0 0 0 0 0 0 0 0 0 0 0 0 0 0 0 0 0 0 0 0 0 0 0 0 0 0 0 0 0 0 0 0 0 0 0 0 0 0 0 0 0 0 0 0 0 0 0 0 0 0 0 0 0 0 0 1730 1697 0 0 0 0 0 0 0 0 0 0 0 0 0
0 0 0 0 0 0 0 0 0 0 0 0 0 0 0 0 0 0 0 0 0 0 0 0 1366 1383 1368 1383 1360 1319 1378 1414 1427 0 0 0 0 0 0 0 0 0 0 0 0 0 0 0 0 0 0 0 0 0 0 0 0 0 0 0 0 0 0 0 0 0 0 0 0 0 0 0 0 0 0 0 0 0 0 0 0 0 0 0 0 0 0 0 0 0 0 0 0 0 0 0 0 0 0 0 0 0 0 0 0 0 0 1750 1767 0 0 0 0 0 0 0 0 0 0 0
1254 1258 1278 1287 1274 1329 1301 0 0 0 0 0 0 0 0 0 0 0 0 0 0 0 0 0 1350 1361 1355 1371 1374 1377 1342 1403 1431 0 0 0 0 0 0 0 0 0 0 0 0 0 0 0 0 0 0 0 0 0 0 0 0 0 0 0 0 0 0 0 0 0 0 0 0 0 0 0 0 0 0 0 0 0 0 0 0 0 0 0 0 0 0 0 0 0 0 0 0 0 0 0 0 0 0 0 0 0 0 0 1757 1788 1718 1753 1740 1653 0 1597 0 0 0 0 0 0 0 0
1261 1252 1255 1307 1291 1297 1310 1316 1326 1337 1346 1377 0 0 0 0 0 0 0 0 0 0 0 1375 1347 1354 1360 1357 1373 1369 1365 1434 1430 0 0 0 0 0 0 0 0 0 0 0 0 0 0 0 0 0 0 0 0 0 0 0 0 0 0 0 0 0 0 0 0 0 0 0 0 0 0 0 0 0 0 0 0 0 0 0 0 0 0 0 0 0 0 0 0 0 0 0 0 0 0 0 0 0 0 0 0 0 0 1753 1761 1757 1778 1709 1688 1715 1667 1661 1699 0 0 0 0 0 0 0
1265 1254 1245 1295 1277 1288 1321 1307 1330 1322 1346 1368 1363 1388 1400 1378 0 0 0 0 0 0 0 0 0 1353 0 0 1349 0 0 1440 1429 0 0 0 0 0 0 0 0 0 0 0 0 0 0 0 0 0 0 0 0 0 0 0 0 0 0 0 0 0 0 0 0 0 0 0 0 0 0 0 0 0 0 0 0 0 0 0 0 0 0 0 0 0 0 0 0 0 0 0 0 0 0 0 0 0 0 0 0 0 0 1819 1793 1760 1712 1718 1714 1689 1671 1672 0 0 0 0 0 0 0 0
0 0 0 0 1312 1304 1299 1300 1327 1322 1325 1344 1355 1382 1374 1394 1409 1449 1444 1448 1436 0 0 0 0 0 0 0 0 0 0 1427 1431 1432 0 0 0 0 0 0 0 0 0 0 0 0 0 0 0 0 0 0 0 0 0 0 0 0 0 0 0 0 0 0 0 0 0 0 0 0 0 0 0 0 0 0 0 0 0 0 0 0 0 0 0 0 0 0 0 0 0 0 0 0 0 0 0 0 0 0 0 0 1853 1801 1768 1744 1761 1661 1673 1644 0 0 0 0 0 0 0 0 0 0
0 0 0 0 0 0 0 0 0 1329 1346 1375 1371 1362 1371 1388 1389 1417 1406 1445 1453 1524 0 0 0 0 0 0 0 0 0 1424 1477 1464 0 0 0 0 0 0 0 0 0 0 0 0 0 0 0 0 0 0 0 0 0 0 0 0 0 0 0 0 0 0 0 0 0 0 0 0 0 0 0 0 0 0 0 0 0 0 0 0 0 0 0 0 0 0 0 0 0 0 0 0 0 0 0 0 0 0 0 0 0 1794 1723 1669 1565 1678 1583 1597 1584 1583 1567 1588 0 0 0 0 0 0
0 0 0 0 0 0 0 0 0 0 0 0 0 0 0 1382 1400 1412 1417 1447 1482 1492 0 0 0 0 0 0 0 0 0 0 1468 0 0 0 0 0 0 0 0 0 0 0 0 0 0 0 0 0 0 0 0 0 0 0 0 0 0 0 0 0 0 0 0 0 0 0 0 0 0 0 0 0 0 0 0 0 0 0 0 0 0 0 0 0 0 0 0 0 0 0 0 0 0 0 0 0 0 0 0 1710 1686 1592 1596 1615 1602 1591 1565 1608 1566 1598 1560 1556 0 0 0 0 0 0
0 0 0 0 0 0 0 0 0 0 0 0 0 0 0 0 0 0 0 0 0 1455 0 0 0 0 0 0 0 0 0 0 0 0 0 0 0 0 0 0 0 0 0 0 0 0 0 0 0 0 0 0 0 0 0 0 0 0 0 0 0 0 0 0 0 0 0 0 0 0 0 0 0 0 0 0 0 0 0 0 0 0 0 0 0 0 0 0 0 0 0 0 0 0 0 0 0 0 0 0 0 1599 1572 1585 1578 1568 1581 1566 1597 1579 1565 1569 1570 1580 0 0 0 0 0 0
0 0 0 0 0 0 0 0 0 0 0 0 0 0 0 0 0 0 0 0 0 0 0 0 0 0 0 0 0 0 0 0 0 0 0 0 0 0 0 0 0 0 0 0 0 0 0 0 0 0 0 0 0 0 0 0 0 0 0 0 0 0 0 0 0 0 0 0 0 0 0 0 0 0 0 0 0 0 0 0 0 0 0 0 0 0 0 0 0 0 0 0 0 0 0 0 0 0 0 0 0 0 0 1592 1570 1607 1588 1586 1615 1596 1599 1632 0 0 0 0 0 0 0 0
0 0 0 0 0 0 0 0 0 0 0 0 0 0 0 0 0 0 0 0 0 0 0 0 0 0 0 0 0 0 0 0 0 0 0 0 0 0 0 0 0 0 0 0 0 0 0 0 0 0 0 0 0 0 0 0 0 0 0 0 0 0 0 0 0 0 0 0 0 0 0 0 0 0 0 0 0 0 0 0 0 0 0 0 0 0 0 0 0 0 0 0 0 0 0 0 0 0 0 0 0 0 0 0 0 0 0 1581 0 0 0 0 0 0 0 0 0 0 0 0
0 0 0 0 0 0 0 0 0 0 0 0 0 0 0 0 0 0 0 0 0 0 0 0 0 0 0 0 0 0 0 0 0 0 0 0 0 0 0 0 0 0 0 0 0 0 0 0 0 0 0 0 0 0 0 0 0 0 0 0 0 0 0 0 0 0 0 0 0 0 0 0 0 0 0 0 0 0 0 0 0 0 0 0 0 0 0 0 0 0 0 0 0 0 0 0 0 1655 0 0 0 0 0 0 0 0 0 0 0 0 0 0 0 0 0 0 0 0 0 0
560 565 0 0 0 0 0 0 0 0 0 0 0 0 0 0 0 0 0 0 0 0 0 0 0 1822 1835 0 0 0 0 0 0 0 0 0 0 0 0 0 0 0 0 0 0 0 0 2899 2949 2935 2903 2945 2981 2907 2896 2895 2879 2935 2927 2913 0 2899 2900 2877 2911 2916 0 0 0 0 0 0 0 0 0 0 0 0 0 0 0 0 0 0 0 0 0 0 0 0 0 0 0 0 0 0 1751 0 0 0 0 0 0 0 0 0 0 0 0 0 0 0 0 0 0 0 0 0 0 0
564 605 600 591 639 630 0 0 0 0 0 0 0 0 0 0 0 0 0 0 0 0 0 0 0 0 0 1945 1937 0 0 0 0 0 0 0 0 0 0 0 0 0 0 0 0 0 0 2936 2946 2927 2902 2903 2917 2903 2924 2909 2947 2924 2920 2924 2887 2870 2880 2904 2905 2856 0 0 0 0 0 0 0 0 0 0 0 0 0 0 0 0 0 0 0 0 0 0 0 0 0 0 0 0 0 0 0 0 0 0 0 0 0 0 0 0 0 0 0 0 0 0 0 0 0 0 0 0 0 0
583 592 581 597 613 637 658 662 639 0 0 0 0 0 0 0 0 0 0 0 0 0 0 0 0 0 0 0 0 0 0 0 0 0 0 0 0 0 0 0 0 0 0 0 0 0 0 2950 2943 2916 2927 2942 2931 2933 2905 2890 2929 2888 2906 2940 2938 2892 2933 2909 2924 0 0 0 0 0 0 0 0 0 0 0 0 0 0 0 0 0 0 0 0 0 0 0 0 0 0 0 0 0 0 0 0 0 0 0 0 0 0 0 0 0 0 0 0 0 0 0 0 0 0 0 0 0 0 0
584 581 597 592 639 642 653 625 668 685 660 677 0 0 0 0 0 0 0 0 0 0 0 0 0 0 0 0 0 0 0 0 0 0 0 0 0 0 0 0 0 0 0 0 0 0 0 2884 2882 2919 2900 2880 2934 2936 2917 2932 2910 2902 2876 2929 2897 2933 2977 2867 2858 2956 0 0 0 0 0 0 0 0 0 0 0 0 0 0 0 0 0 0 0 0 0 0 0 0 0 0 0 0 0 0 0 0 0 0 0 0 0 0 0 0 0 0 0 0 0 0 0 0 0 0 0 0 0 0
574 609 607 603 634 619 638 640 644 684 677 672 699 719 755 0 0 0 0 0 0 0 0 0 0 0 0 0 0 0 0 0 0 0 0 0 0 0 0 0 0 0 0 0 0 0 0 2946 2889 2953 2953 2921 2908 2930 2916 2904 2910 2926 2895 2873 2903 2939 2896 2871 2925 2887 0 0 0 0 0 0 0 0 0 0 0 0 0 0 0 0 0 0 0 0 0 0 0 0 0 0 0 0 0 0 0 0 0 0 0 0 0 0 0 0 0 0 0 0 0 0 0 0 0 0 0 0 0 0
747 752 751 738 714 661 661 672 665 657 682 688 707 706 751 749 788 824 0 0 0 0 0 0 0 0 0 0 0 0 0 0 0 0 0 0 0 0 0 0 0 0 0 0 0 0 0 2905 2925 2941 2873 2900 2948 2874 2916 2862 2892 2872 2902 2891 2926 2941 2928 2876 2903 2840 0 0 0 0 0 0 0 0 0 0 0 0 0 0 0 0 0 0 0 0 0 0 0 0 0 0 0 0 0 0 0 0 0 0 0 0 0 0 0 0 0 0 0 0 0 0 0 0 0 0 0 0 0 0
774 801 808 825 818 815 829 810 841 813 754 742 707 730 719 726 756 752 772 772 828 0 0 0 0 0 0 0 0 0 0 0 0 0 0 0 0 0 0 0 0 0 0 0 0 0 0 2956 2888 2924 2931 2923 2923 2943 2970 2925 2892 2943 2875 2929 2878 2904 2945 2904 2933 2923 0 0 0 0 0 0 0 0 0 0 0 0 0 0 0 0 0 0 0 0 0 0 0 0 0 0 0 0 0 0 0 0 0 0 0 0 0 0 0 0 0 0 0 0 0 0 0 0 0 0 0 0 0 0
761 787 814 812 832 845 871 876 917 905 930 916 928 901 840 803 781 788 791 813 816 858 873 879 0 0 0 0 0 0 0 0 0 0 0 0 0 0 0 0 0 0 0 0 0 0 0 2910 2943 2948 2867 2938 2934 2914 2916 2860 2904 2925 2894 2885 2848 2894 2904 2885 2887 2874 0 0 0 0 0 0 0 0 0 0 0 0 0 0 0 0 0 0 0 0 0 0 0 0 0 0 0 0 0 0 0 0 0 0 0 0 0 0 0 0 0 0 0 0 0 0 0 0 0 0 0 0 0 0
617 0 848 828 860 858 867 902 900 923 941 950 950 953 944 959 944 928 914 865 847 840 865 904 908 902 0 0 0 0 0 0 0 0 0 0 0 0 0 0 0 0 0 0 0 0 0 2906 2938 2900 2891 2913 2863 2910 2919 2925 2898 2900 2887 2907 2908 2844 2898 2909 2885 0 0 0 0 0 0 0 0 0 0 0 0 0 0 0 0 0 0 0 0 0 0 0 0 0 0 0 0 0 0 0 0 0 0 0 0 0 0 0 0 0 0 0 0 0 0 0 0 0 0 0 0 0 0 0
642 927 951 940 923 940 0 945 903 937 940 950 944 957 943 933 954 949 952 955 941 934 904 914 891 935 953 1000 1008 0 0 0 0 0 0 0 0 0 0 0 0 0 0 0 0 0 0 2912 2955 2960 2917 2913 2916 2914 2959 2895 2932 2975 2904 2883 2862 2947 2890 2891 2912 2919 0 0 0 0 0 0 0 0 0 0 0 0 0 0 0 0 0 0 0 0 0 0 0 0 0 0 0 0 0 0 0 0 0 0 0 0 0 0 0 0 0 0 0 0 0 0 0 0 0 0 0 0 0 0
557 653 0 0 0 0 0 0 0 0 961 999 972 966 967 972 977 957 950 949 944 962 951 933 939 974 971 1020 1010 1040 1087 0 0 0 0 0 0 0 0 0 0 0 0 0 0 0 0 2930 2919 2900 2908 2892 2881 2889 2930 2903 0 2935 2911 2899 2912 2882 2902 2857 2895 0 0 0 0 0 0 0 0 0 0 0 0 0 0 0 0 0 0 0 0 0 0 0 0 0 0 0 0 0 0 0 0 0 0 0 0 0 0 0 0 0 0 0 0 0 0 0 0 0 0 0 0 0 0 0
604 600 591 0 1126 1130 1165 1159 1123 1128 1142 1154 1134 1133 1142 1136 1112 1045 0 0 1039 1054 1074 984 1021 1021 1118 1130 1110 1086 1078 0 0 0 0 0 0 0 0 0 0 0 0 0 0 0 0 2938 2891 2917 2891 2928 2880 2890 2882 2885 2959 2922 2898 2892 2868 2860 2874 2890 2885 2908 0 0 0 0 0 0 0 0 0 0 0 0 0 0 0 0 0 0 0 0 0 0 0 0 0 0 0 0 0 0 0 0 0 0 0 0 0 0 0 0 0 0 0 0 0 0 0 0 0 0 0 0 0 0
621 612 634 634 0 0 0 0 0 0 0 0 0 0 0 0 1370 1019 981 0 1131 1162 1086 0 0 1126 1126 1171 1149 1162 1135 0 0 0 0 0 0 0 0 0 0 0 0 0 0 0 0 2876 2875 2980 2911 2906 2883 2905 2904 2899 2904 2880 2881 2899 2897 2903 2883 2882 2879 2872 0 0 0 0 0 0 0 0 0 0 0 0 0 0 0 0 0 0 0 0 0 0 0 0 0 0 0 0 0 0 0 0 0 0 0 0 0 0 0 0 0 0 0 0 0 0 0 0 0 0 0 0 0 0
615 620 573 598 629 0 0 0 0 0 0 0 0 0 0 0 0 990 998 0 0 0 0 0 0 0 0 0 0 0 0 0 0 0 0 0 0 0 0 0 0 0 0 0 0 0 0 2930 2920 2979 2862 3008 2931 2878 2891 2882 2949 2899 2907 2924 2902 2877 2888 2883 2881 0 0 0 0 0 0 0 0 0 0 0 0 0 0 0 0 0 0 0 0 0 0 0 0 0 0 0 0 0 0 0 0 0 0 0 0 0 0 0 0 0 0 0 0 0 0 0 0 0 0 0 0 0 0 0
603 637 622 617 616 591 0 0 0 0 0 0 0 0 0 0 0 0 0 0 0 0 0 0 0 0 0 0 0 0 0 0 0 0 0 0 0 0 0 0 0 0 0 0 0 0 0 2852 2903 2919 2915 2895 2859 2896 2903 2928 2892 2910 2916 2889 2896 2904 2917 2901 2917 0 0 0 0 0 0 0 0 0 0 0 0 0 0 0 0 0 0 0 0 0 0 0 0 0 0 0 0 0 0 0 0 0 0 0 0 0 0 0 0 0 0 0 0 0 0 0 0 0 0 0 0 0 0 0
576 580 617 601 580 601 0 0 0 0 0 0 0 0 0 0 0 0 0 0 0 0 959 0 0 0 0 0 0 0 0 0 0 0 0 0 0 0 0 0 0 0 0 0 0 0 0 2931 2923 2920 2921 2888 2936 2919 2880 2907 2894 2868 2897 2904 2923 2878 2868 2901 2908 2816 0 0 0 0 0 0 0 0 0 0 0 0 0 0 0 0 0 0 0 0 0 0 0 0 0 0 0 0 0 0 0 0 0 0 0 0 0 0 0 0 0 0 0 0 0 0 0 0 0 0 0 0 0 0
592 616 599 604 613 593 0 0 0 0 0 0 0 0 0 0 0 0 0 0 0 0 0 0 0 0 0 0 0 0 0 0 0 0 0 0 0 0 0 0 0 0 0 0 0 0 0 2867 2847 2910 2858 2899 2937 2895 2903 2896 2887 2840 2879 2878 2836 2905 2860 2928 2892 2873 0 0 0 0 0 0 0 0 0 0 0 0 0 0 0 0 0 0 0 0 0 0 0 0 0 0 0 0 0 0 0 0 0 0 0 0 0 0 0 0 0 0 0 0 0 0 0 0 0 0 0 0 0 0
588 593 611 612 602 569 654 0 0 0 0 0 0 0 0 0 0 0 0 0 0 0 0 0 0 0 0 0 0 0 0 0 0 0 0 0 0 0 0 0 0 0 0 0 0 0 0 2922 2909 2942 2900 2870 2904 2927 2935 2896 2860 2947 2903 2918 2905 2899 2912 2925 2896 2827 0 0 0 0 0 0 0 0 0 0 0 0 0 0 0 0 0 0 0 0 0 0 0 0 0 0 0 0 0 0 0 0 0 0 0 0 0 0 0 0 0 0 0 0 0 0 0 0 0 0 0 0 0 0
572 595 614 609 605 632 625 0 0 0 0 0 0 0 0 0 2301 0 0 0 0 0 951 950 0 0 0 0 0 0 0 0 0 0 0 0 0 0 0 0 0 0 0 0 0 0 0 2876 2921 2954 2921 2855 2881 2882 2891 2899 2862 2891 2874 2927 2887 2879 2883 2881 2879 2833 0 0 0 0 0 0 0 0 0 0 0 0 0 0 0 0 0 0 0 0 0 0 0 0 0 0 0 0 0 0 0 0 0 0 0 0 0 0 0 0 0 0 0 0 0 0 0 0 0 0 0 0 0 0
575 582 603 619 597 615 616 0 0 0 0 0 0 0 0 0 0 0 0 0 0 0 0 0 0 0 0 0 0 0 0 0 0 0 0 0 0 0 0 0 0 0 0 0 0 0 0 2898 2952 2925 2912 2924 2927 2935 2896 2901 2894 2872 2887 2940 2894 2912 2872 2902 2891 2867 0 0 0 0 0 0 0 0 0 0 0 0 0 0 0 0 0 0 0 0 0 0 0 0 0 0 0 0 0 0 0 0 0 0 0 0 0 0 0 0 0 0 0 0 0 0 0 0 0 0 0 0 0 0
582 605 573 622 598 588 0 0 0 0 0 0 0 0 0 0 0 0 0 0 0 0 0 0 0 0 0 0 0 0 0 0 0 0 0 0 0 0 0 0 0 0 0 0 0 0 0 0 0 0 0 0 0 0 0 0 0 0 0 0 0 2965 3036 2891 2940 0 0 0 0 0 0 0 0 0 0 0 0 0 0 0 0 0 0 0 0 0 0 0 0 0 0 0 0 0 0 0 0 0 0 0 0 0 0 0 0 0 0 0 0 0 0 0 0 0 0 0 0 0 0 0
572 586 591 599 611 610 0 0 0 0 0 0 0 0 0 0 0 0 0 0 0 0 0 0 0 0 0 0 0 0 0 0 0 0 0 0 0 0 0 0 0 0 0 0 0 0 0 0 0 0 0 0 0 0 0 0 0 0 0 0 0 0 0 0 0 0 0 0 0 0 0 0 0 0 0 0 0 0 0 0 0 0 0 0 0 0 0 0 0 0 0 0 0 0 0 0 0 0 0 0 0 0 0 0 0 0 0 0 0 0 0 0 0 0 0 0 0 0 0 0
569 616 595 600 629 0 0 0 0 0 0 0 0 0 0 0 0 0 0 0 0 0 0 0 0 0 0 0 0 0 0 0 0 0 0 0 0 0 0 0 0 0 0 0 0 0 0 0 0 0 0 0 0 0 0 0 0 0 0 0 0 0 0 0 0 0 0 0 0 0 0 0 0 0 0 0 0 0 0 0 0 0 0 0 0 0 0 0 0 0 0 0 0 0 0 0 0 0 0 0 0 0 0 0 0 0 0 0 0 0 0 0 0 0 0 0 0 0 0 0
586 585 612 591 601 0 0 0 0 0 0 0 0 0 0 0 0 0 0 0 0 0 0 0 0 0 0 0 0 0 0 0 0 0 0 0 0 0 0 0 0 0 0 0 0 0 0 0 0 0 0 0 0 0 0 0 0 0 0 0 0 0 0 0 0 0 0 0 0 0 0 0 0 0 0 0 0 0 0 0 0 0 0 0 0 0 0 0 0 0 0 0 0 0 0 0 0 0 0 0 0 0 0 0 0 0 0 0 0 0 0 0 0 0 0 0 0 0 0 0
597 590 626 613 0 0 0 0 0 0 0 0 0 0 0 0 0 0 0 0 0 0 0 0 0 0 896 876 892 856 866 882 0 902 885 922 0 936 911 908 0 0 0 0 0 0 0 0 0 0 0 0 0 0 0 0 0 0 0 0 0 0 0 0 0 0 0 0 0 0 0 0 0 0 0 0 0 0 0 0 0 0 0 0 0 0 0 0 0 0 0 0 0 0 0 0 0 0 0 0 0 0 0 0 0 0 0 0 0 0 0 0 0 0 0 0 0 0 0 0
590 567 0 0 0 0 0 737 668 694 679 700 652 674 733 671 736 666 701 694 699 735 720 697 670 744 711 678 741 723 736 760 703 731 723 739 744 748 727 752 761 721 783 794 822 770 776 736 763 773 755 769 789 746 751 791 752 839 843 740 827 802 776 749 823 766 771 806 831 803 772 794 813 0 844 0 0 0 0 0 0 0 0 0 0 0 0 0 0 0 0 0 0 0 0 0 0 0 0 0 0 0 0 0 0 0 0 0 0 0 0 0 0 0 0 0 0 0 0 0
556 550 582 556 541 606 567 574 536 574 590 595 561 572 577 595 549 548 592 584 586 572 593 599 576 606 584 589 590 599 598 607 593 606 604 587 625 637 601 601 623 603 588 616 619 634 610 633 605 614 614 635 673 605 623 663 600 633 614 614 610 608 664 647 631 667 612 656 658 663 649 665 641 637 640 684 640 643 653 717 694 687 677 646 687 691 681 680 694 671 633 711 665 655 710 0 697 707 761 689 703 728 0 0 0 0 0 0 0 0 0 0 0 0 0 0 0 0 0 0
486 503 481 497 477 501 499 498 524 501 512 504 503 500 496 511 516 496 514 508 507 516 503 506 511 494 508 505 500 502 529 504 523 518 507 521 507 521 517 503 520 518 525 527 526 517 533 538 518 521 534 566 537 516 533 516 516 535 550 545 555 520 553 558 544 539 556 549 527 555 536 533 559 570 549 554 560 549 561 567 574 589 566 535 557 581 582 577 571 557 543 598 567 578 572 596 579 578 553 618 574 600 588 562 0 615 0 564 597 587 0 0 0 0 0 0 0 0 0 0
428 422 438 448 441 424 423 461 419 437 424 441 453 462 443 452 437 441 448 438 457 452 458 459 451 459 438 440 450 444 457 464 446 455 446 462 455 458 476 474 465 458 459 451 476 480 463 473 464 475 464 457 481 487 483 470 461 492 474 469 463 487 470 482 470 474 484 495 510 494 488 465 489 475 486 481 497 501 481 474 495 478 509 504 488 483 480 488 489 494 468 505 512 485 491 489 504 503 489 482 495 521 471 513 480 488 512 526 478 501 478 512 0 0 0 0 0 0 0 0
388 377 390 401 413 389 380 401 390 390 409 391 393 408 405 400 405 401 400 399 395 409 401 407 404 400 413 411 397 411 403 414 412 408 416 414 416 413 403 401 409 413 412 407 412 419 422 410 418 426 425 429 421 420 429 426 427 434 431 422 417 426 411 422 426 446 408 420 445 438 424 431 431 422 434 412 429 425 423 427 439 433 434 413 450 438 430 424 438 415 433 437 442 439 438 430 437 433 440 453 433 431 447 431 439 437 434 438 427 425 426 460 443 419 0 0 0 0 0 0
356 350 330 343 348 362 359 362 361 370 363 355 362 356 368 363 363 371 365 358 363 361 369 376 367 363 371 362 370 377 375 370 372 366 385 367 369 379 371 368 375 372 368 381 357 375 390 384 378 388 405 381 391 381 372 375 375 378 367 380 382 382 393 386 379 399 383 388 385 380 391 397 375 392 404 384 386 393 379 398 405 389 391 397 396 392 402 384 401 412 401 407 393 390 402 378 389 389 400 397 390 398 389 365 403 402 392 394 398 392 362 396 405 407 381 413 0 0 0 0
313 325 333 317 332 312 327 321 322 320 333 335 337 350 323 338 355 326 325 337 337 323 333 331 331 339 333 338 337 337 344 340 340 341 342 348 343 338 327 339 334 333 330 346 340 339 342 348 349 337 343 343 355 346 345 342 345 331 344 340 347 346 351 358 354 353 340 354 352 349 355 347 347 349 352 347 341 352 354 347 347 357 353 354 350 348 345 354 348 352 341 358 356 345 330 356 351 367 338 355 370 360 344 354 361 356 360 375 347 349 347 362 378 347 338 340 309 0 0 0
294 296 314 292 298 291 298 313 299 316 290 287 312 294 306 293 310 313 305 310 302 305 311 293 294 289 305 306 303 296 294 301 309 304 312 311 311 311 317 314 314 317 307 297 314 313 298 308 311 304 315 314 306 307 312 320 317 314 304 315 323 309 308 326 304 321 319 310 317 316 312 331 311 311 310 321 311 316 314 321 316 319 326 316 320 323 317 335 329 313 329 319 321 322 332 324 331 327 323 321 309 337 326 335 357 324 304 324 317 327 322 318 332 334 327 339 314 319 330 0
266 274 270 275 275 280 282 276 277 279 274 285 271 295 272 282 273 276 280 280 271 271 280 268 274 276 277 277 282 266 278 281 282 282 273 278 273 279 286 288 286 285 288 287 279 284 285 289 282 286 288 281 284 285 283 283 286 286 283 285 286 284 285 290 296 295 292 284 299 292 286 288 289 292 285 291 291 285 292 282 286 284 288 299 294 291 288 287 291 299 289 285 283 303 292 316 290 286 283 302 284 305 283 318 295 292 289 302 286 288 282 306 280 281 278 268 296 315 279 284
252 249 264 251 263 255 249 254 260 258 250 256 253 252 261 257 267 249 257 251 263 270 260 257 268 252 258 257 260 256 257 259 259 266 261 262 260 264 266 266 260 258 266 262 260 270 259 264 265 269 259 266 266 268 263 259 263 263 268 264 268 268 269 266 278 265 270 273 270 269 266 268 271 277 265 266 268 268 265 269 256 261 255 266 272 268 265 268 267 270 265 260 276 272 263 270 275 281 278 278 271 279 275 272 287 269 276 279 271 266 278 269 262 274 262 266 309 271 285 284
233 225 236 226 245 231 238 237 235 228 237 239 251 246 237 238 244 237 247 240 234 247 243 242 246 236 235 238 244 241 237 245 245 243 242 247 234 251 251 245 250 244 242 239 243 255 247 248 249 253 247 251 247 247 252 248 248 246 244 248 251 249 253 253 240 251 256 249 251 251 252 254 251 253 247 256 253 261 244 255 246 240 251 251 251 252 248 250 247 249 260 252 250 240 249 245 252 256 253 257 255 243 253 255 261 248 261 254 252 250 263 250 271 250 238 251 255 252 275 236
221 215 216 216 220 227 231 217 223 213 223 225 229 230 222 219 222 220 232 219 224 219 226 227 232 228 225 229 227 232 229 230 229 227 235 239 234 230 230 234 234 232 226 234 225 239 231 233 236 232 233 235 237 236 230 231 235 227 238 232 227 233 237 231 233 237 233 235 232 235 233 231 228 234 236 232 232 227 238 234 230 229 231 233 236 231 234 238 235 233 227 240 240 235 232 241 238 240 237 232 233 242 232 237 230 233 237 241 238 241 236 247 245 243 233 242 242 250 228 243
207 207 220 215 218 209 212 208 212 217 210 210 212 220 220 216 216 210 212 220 213 208 213 210 216 216 211 221 214 216 214 219 214 215 217 215 221 214 217 198 223 218 216 222 222 219 220 220 223 217 216 217 223 218 208 204 219 218 222 220 227 222 221 226 205 222 221 222 220 219 216 225 221 221 199 222 221 223 216 218 218 223 224 224 223 225 223 227 219 218 221 212 225 224 216 220 227 217 223 224 212 214 227 224 223 229 236 221 229 222 219 217 218 224 223 223 212 252 223 210
192 182 194 196 207 203 202 198 188 198 201 185 184 193 204 190 192 206 190 190 189 189 190 190 186 186 185 192 183 193 195 189 189 186 196 193 189 197 190 187 196 191 189 192 196 192 189 192 204 200 194 192 202 195 192 201 199 192 202 201 202 196 197 201 194 199 194 192 200 194 199 198 192 194 192 189 193 195 194 193 189 192 201 201 213 199 197 192 192 215 215 195 211 211 208 186 188 196 212 197 208 208 206 195 220 208 206 211 211 206 214 205 211 214 213 207 207 195 212 203
179 175 193 191 194 193 183 184 179 180 188 177 179 182 186 180 181 187 189 189 191 185 184 186 191 182 193 187 184 187 194 186 186 189 186 195 186 193 189 199 192 198 190 196 195 193 198 200 196 197 196 195 194 200 200 198 200 199 196 198 196 199 199 201 198 198 201 190 198 197 200 196 193 196 194 197 198 195 190 193 194 196 187 189 189 195 194 194 188 188 187 186 192 191 184 189 181 189 190 183 188 189 203 203 195 180 179 200 203 185 203 206 201 180 206 201 205 191 196 189
177 179 171 177 181 172 174 177 181 174 179 177 181 181 179 177 186 188 181 186 183 184 187 186 181 191 177 185 186 188 187 183 189 183 184 182 184 185 188 188 183 186 189 188 189 190 188 192 188 189 188 193 187 188 190 194 190 193 188 191 181 192 189 192 193 187 187 189 192 187 193 187 190 193 184 187 190 193 185 183 190 190 191 189 191 190 188 185 185 194 188 191 190 186 190 182 187 187 185 186 175 188 176 176 181 181 185 183 178 183 182 181 182 181 178 180 174 184 175 179
173 166 158 166 167 170 171 174 172 167 174 174 169 173 173 176 174 180 182 180 175 173 173 168 174 170 169 171 172 179 173 181 177 178 179 179 174 178 174 182 171 177 171 176 183 177 178 180 181 180 178 180 173 183 180 181 180 180 181 183 174 180 180 183 175 180 178 182 182 179 178 179 175 182 182 179 180 183 182 184 178 183 179 176 177 180 175 181 178 181 177 179 181 174 176 180 177 182 178 179 176 181 183 184 177 179 173 180 178 181 177 171 175 175 172 167 170 172 167 174
164 164 163 166 160 166 158 160 168 161 169 174 163 169 169 175 166 172 172 169 169 172 171 164 166 162 170 172 174 180 175 166 168 167 166 165 175 166 161 172 172 169 173 168 177 177 168 165 175 173 178 172 170 171 172 173 169 173 178 175 172 175 168 173 177 173 176 173 169 171 171 171 173 173 172 174 177 173 169 172 168 171 170 169 175 174 170 171 176 169 169 172 170 171 168 167 173 171 166 178 174 174 172 181 173 173 170 165 171 167 182 171 166 180 175 177 170 167 170 200
162 159 165 163 160 163 163 158 160 159 168 162 163 160 159 166 163 165 166 165 160 164 172 162 160 166 161 158 163 162 162 169 160 164 160 160 164 160 163 163 164 166 163 162 162 162 162 160 162 165 163 165 166 159 165 166 167 169 164 169 167 164 167 162 168 165 169 163 167 165 165 167 169 164 163 168 171 166 167 166 163 159 169 164 168 166 168 165 165 165 164 162 166 162 169 165 163 161 169 168 171 168 165 165 167 159 167 158 162 160 163 174 159 168 164 168 170 172 175 170
149 147 151 148 152 149 147 148 150 156 152 149 149 147 151 151 154 154 155 159 153 153 156 153 157 157 152 155 152 162 153 157 156 154 156 157 151 155 151 159 154 155 163 159 162 159 153 152 157 159 155 156 158 162 157 157 159 156 162 161 165 158 161 159 158 159 161 157 158 156 162 158 156 157 156 161 163 161 159 154 156 156 154 151 155 156 159 161 160 158 156 158 156 157 160 159 157 151 152 154 157 159 157 159 159 155 150 156 155 159 156 159 151 163 150 158 149 150 167 149
136 143 148 143 146 147 144 145 144 142 146 147 147 149 151 148 146 151 141 153 151 148 153 148 151 145 151 153 148 147 154 145 149 149 150 146 154 151 148 150 152 153 152 152 155 154 151 150 151 150 147 156 149 151 156 151 152 154 153 157 154 153 154 158 150 157 152 155 153 154 152 156 154 152 154 152 160 159 155 152 150 155 146 147 151 151 155 154 154 151 153 153 159 154 157 150 150 152 154 151 153 156 155 154 153 150 148 150 153 151 151 143 167 149 158 151 159 154 150 140
138 137 136 134 138 139 138 138 137 138 140 141 143 140 136 139 145 140 139 144 141 144 143 149 143 147 147 146 144 143 139 133 139 146 142 143 139 149 142 147 149 148 144 147 144 143 131 140 145 141 142 145 146 145 141 148 147 149 147 145 143 141 132 148 145 146 148 149 147 148 142 144 146 148 145 149 150 153 150 147 144 147 145 138 137 142 145 144 150 146 146 148 144 145 147 151 143 144 149 145 151 145 147 137 139 144 140 138 144 151 141 145 143 137 154 138 137 150 147 134
131 134 133 134 131 145 135 141 138 138 140 0 131 135 124 137 141 143 140 137 146 142 141 137 137 142 145 138 139 138 139 128 130 138 139 131 141 125 139 140 142 146 142 140 139 130 140 129 129 139 133 146 135 142 143 141 133 144 134 142 134 133 131 144 144 144 142 144 144 140 129 148 131 141 145 144 148 138 143 144 147 130 127 132 140 142 139 140 140 141 138 144 143 145 142 141 136 145 141 142 137 142 133 142 141 135 120 138 139 133 133 138 130 131 142 141 132 139 148 138
133 130 128 131 132 137 142 129 137 138 135 131 142 138 138 134 127 138 137 133 139 140 143 141 140 137 134 137 136 137 128 136 139 127 126 125 131 129 138 128 140 126 141 138 0 131 128 130 128 126 129 129 129 134 0 144 0 132 139 142 132 126 133 143 129 128 141 128 143 141 134 134 127 130 132 140 135 132 131 139 137 139 129 123 138 129 139 136 140 143 137 141 140 139 138 125 137 139 139 139 136 132 137 141 132 123 133 140 133 145 130 130 142 137 140 141 141 146 131 163
117 107 112 108 124 132 140 118 111 120 120 120 120 131 122 125 123 122 131 119 122 126 129 137 126 137 139 139 0 129 130 122 120 118 117 120 127 124 127 116 128 127 131 130 0 0 130 129 127 122 119 118 131 127 125 129 131 130 128 123 121 125 125 125 125 128 129 130 126 128 123 126 120 121 122 125 122 127 124 127 128 126 126 123 122 122 124 128 125 129 128 128 135 135 137 118 123 141 135 131 130 121 124 126 122 125 112 117 121 131 117 136 130 139 129 104 135 129 150 90
108 115 109 113 115 130 121 113 128 115 114 121 121 125 114 118 109 122 124 123 125 119 126 121 123 133 130 128 124 124 130 0 126 119 112 118 117 123 0 123 127 123 0 0 0 0 125 124 122 128 125 125 126 121 128 126 120 122 124 125 127 122 119 122 121 122 129 126 121 118 121 123 126 121 118 117 119 122 123 123 120 120 127 123 118 121 124 114 126 125 112 119 122 122 118 122 126 122 120 122 125 121 122 114 110 118 118 118 128 129 126 129 128 137 112 116 133 112 113 117
104 96 114 115 113 110 119 116 111 112 122 116 110 109 112 118 116 114 112 122 116 108 116 119 118 111 120 117 118 120 124 0 118 119 114 113 115 0 114 118 121 0 0 120 124 0 122 118 111 114 117 116 120 119 121 122 120 119 116 117 120 121 121 117 123 128 115 121 115 114 114 118 113 114 119 111 117 112 116 119 112 121 116 117 115 114 118 115 116 117 117 121 124 118 107 122 121 121 111 115 116 117 112 107 112 113 116 116 123 116 114 112 114 115 134 133 109 105 84 120
98 103 106 102 97 105 109 112 102 109 107 107 110 108 125 115 110 108 103 104 116 107 119 107 107 108 112 115 117 113 117 116 111 111 113 109 106 113 0 113 115 113 110 112 113 117 116 0 115 0 115 107 118 113 0 0 106 107 115 112 124 113 105 109 105 113 106 109 113 108 108 105 109 106 107 109 108 108 105 114 112 104 104 111 116 108 112 114 108 120 114 112 98 112 108 116 111 116 109 109 107 111 115 111 112 111 99 114 118 127 113 102 101 101 98 124 107 116 107 133
104 99 115 107 103 101 106 108 109 108 105 112 107 109 113 116 110 116 112 104 111 98 101 106 113 112 112 111 106 113 106 103 109 105 114 113 112 0 107 105 108 106 112 101 107 110 106 108 115 0 114 110 108 115 108 113 105 108 113 113 109 111 113 0 115 108 105 114 111 108 103 103 107 112 102 109 104 104 103 109 109 105 106 109 96 106 104 111 105 103 112 117 103 102 97 113 109 112 104 108 103 112 110 120 101 99 108 110 94 104 104 97 114 100 108 114 103 118 109 109
87 94 103 105 97 93 99 99 93 94 102 99 101 102 101 102 101 103 102 100 103 102 95 99 101 105 106 103 99 104 106 104 102 102 105 100 102 105 106 107 101 103 93 100 97 103 105 101 105 100 105 103 106 106 101 103 95 102 109 100 103 107 103 0 108 107 0 109 104 107 108 103 100 105 101 109 95 103 0 102 0 105 98 98 100 103 99 100 101 103 104 103 99 99 92 96 96 91 100 99 96 98 96 104 99 91 99 92 88 96 85 95 97 114 111 87 96 97 101 116
89 96 88 94 91 97 97 90 95 99 99 97 102 99 101 101 96 100 101 94 101 96 100 94 95 95 102 99 108 100 102 104 106 106 101 98 100 104 99 97 104 101 97 91 99 102 103 103 104 103 108 99 100 107 100 96 98 108 101 99 105 102 106 98 107 102 103 104 101 101 100 105 99 105 96 95 105 97 100 97 0 103 93 94 99 96 96 107 91 100 97 97 100 99 96 104 90 97 94 105 97 94 101 86 97 101 96 98 91 90 84 94 108 85 89 108 88 88 105 110
89 95 93 97 90 95 93 85 87 97 91 89 94 86 93 85 94 87 106 108 100 93 95 92 95 91 98 95 94 103 97 97 98 103 97 104 99 95 95 105 92 97 92 88 98 94 93 99 90 100 98 88 83 95 100 99 93 93 96 99 94 94 97 0 100 100 93 97 104 97 98 97 99 103 89 105 100 98 98 104 92 100 86 107 96 103 92 93 90 99 89 96 98 85 90 90 93 87 98 90 97 98 95 91 95 100 99 87 89 86 92 86 92 87 92 97 106 83 99 84
85 78 76 80 77 84 90 91 86 90 92 92 93 89 85 92 87 92 84 81 92 87 93 89 93 89 97 89 89 94 89 87 100 91 90 89 84 98 92 94 87 97 98 98 88 98 87 88 90 87 97 93 96 91 89 90 94 94 86 89 99 89 86 92 90 92 92 86 99 90 87 91 97 90 98 98 91 86 97 89 97 88 95 95 97 95 97 92 95 91 93 93 92 93 93 89 84 94 90 89 89 85 92 79 88 82 86 88 87 80 80 78 78 87 83 85 72 74 110 81
87 84 80 82 90 86 90 102 87 89 88 85 87 87 89 90 92 82 90 92 84 94 92 86 93 89 96 91 88 88 91 94 91 93 99 88 95 87 97 100 91 93 91 95 96 97 90 95 91 97 104 99 96 93 95 93 94 98 92 96 99 98 95 96 99 93 89 98 91 92 90 90 99 97 95 93 95 95 83 96 98 87 96 93 86 87 96 95 92 91 98 95 99 85 93 91 89 82 93 101 89 85 92 94 91 92 93 93 89 84 88 83 84 93 94 85 85 106 0 0
80 89 87 83 87 90 90 88 84 0 82 84 90 85 81 92 86 89 89 84 89 86 91 96 91 89 94 87 94 96 87 89 95 96 94 93 96 92 93 95 95 93 93 97 88 98 95 97 93 88 91 96 92 91 93 91 88 97 95 95 93 99 94 96 90 89 86 92 97 89 87 96 98 93 89 92 88 92 90 94 93 96 90 91 93 95 93 98 97 95 87 93 103 86 89 88 94 93 91 90 83 84 84 88 83 91 88 86 91 75 88 84 84 81 82 86 93 82 69 0
75 82 77 83 85 89 98 83 84 79 80 87 89 85 88 91 85 88 83 83 86 87 89 88 87 87 84 83 91 92 84 88 90 93 89 92 92 89 86 89 89 89 95 94 97 82 95 96 92 89 96 92 97 93 94 98 88 87 95 96 92 97 94 88 87 94 85 90 92 98 87 96 90 92 98 86 91 84 95 85 87 86 88 90 85 83 89 88 87 86 94 87 85 90 81 79 87 86 92 91 77 79 91 82 82 83 87 81 79 78 76 85 79 88 81 79 92 71 0 0
79 74 77 78 87 86 90 92 81 87 90 90 89 85 91 85 82 88 87 90 80 91 85 85 76 81 86 88 90 92 91 89 95 93 91 86 93 88 88 93 91 84 91 93 95 91 93 96 94 97 91 91 92 79 94 95 89 97 88 89 91 93 84 96 92 83 89 86 96 89 89 87 90 89 94 86 89 92 92 85 90 88 88 84 91 94 95 88 90 93 90 96 81 85 89 88 90 83 98 89 80 91 90 83 73 92 79 89 89 81 90 85 99 75 88 105 0 0 0 0
81 69 66 67 76 78 81 85 82 76 83 77 76 78 81 80 81 82 83 75 83 79 85 83 74 72 83 80 83 77 89 78 79 81 88 75 78 80 89 81 83 81 79 73 79 84 82 90 85 79 87 84 77 83 86 85 82 86 90 79 87 81 82 82 80 86 74 85 84 81 80 77 89 76 87 78 78 84 85 83 79 83 75 80 78 85 80 79 71 82 87 71 83 75 82 81 75 82 73 80 69 76 76 59 67 72 82 71 67 88 74 68 75 95 89 76 0 0 0 0
70 69 83 77 73 81 85 88 84 82 83 84 79 75 81 84 85 85 76 80 77 86 78 88 87 84 77 74 84 81 84 78 83 90 80 71 73 79 81 80 90 81 87 88 82 86 80 81 83 83 81 75 79 78 86 84 87 82 82 73 81 77 74 86 90 75 83 77 88 76 84 86 83 83 83 81 76 90 86 88 82 76 80 82 75 79 80 71 90 88 69 81 70 71 80 76 89 80 76 70 78 68 77 72 73 77 71 78 81 86 70 75 84 82 82 0 0 0 0 0
