0 0 0 0 0 0 0 0 0 0 0 0 0 0 0 0 0 0 0 0 0 0 0 0 0 0 0 0 0 0 0 0 0 0 0 0 0 0 0 0 0 0 0 0 0 0 0 0 0 0 0 0 0 0 0 0 0 0 0 0 0 0 0 0 0 0 0 0 0 0 0 0 0 0 0 0 0 0 0 0 0 0 0 0 0 0 0 0 0 0 0 0 0 0 0 0 0 0 0 0 0 0 0 0 0 0 0 0 0 0 0 0 0 0 0 0 0 0 0 0
0 0 0 0 0 0 0 0 0 0 0 0 0 0 0 0 0 0 0 0 0 0 0 0 0 0 0 0 0 0 0 0 0 0 0 0 0 0 0 0 0 0 0 0 0 0 0 0 0 0 0 0 0 0 0 0 0 0 0 0 0 0 0 0 0 0 0 0 0 0 0 0 0 0 0 0 0 0 0 0 0 0 0 0 0 0 0 0 0 0 0 0 0 0 0 0 0 0 0 0 0 0 0 0 0 0 0 0 0 0 0 0 0 0 0 0 0 0 0 0
0 0 0 0 0 0 0 0 0 0 0 0 0 0 0 0 0 1301 0 0 0 0 0 0 0 0 0 0 0 0 0 0 0 0 0 0 0 0 0 0 0 0 0 0 0 0 0 0 0 0 0 0 0 0 0 0 0 0 0 0 0 0 0 0 0 0 0 0 0 0 0 0 0 0 0 0 0 0 0 0 0 0 0 0 0 0 0 0 0 0 0 0 0 0 0 0 0 0 0 0 0 0 0 0 0 0 0 0 0 0 0 0 0 0 0 0 0 0 0 0
0 0 0 0 0 0 0 0 0 0 0 1127 1130 1167 1123 0 1241 1296 0 0 0 0 1243 0 0 0 0 0 0 0 0 0 0 0 0 0 0 0 0 0 0 0 0 0 0 0 0 0 0 0 0 0 0 0 0 0 0 0 0 0 0 0 0 0 0 0 0 0 0 0 0 0 0 0 0 0 0 0 0 0 0 0 0 0 0 0 0 0 0 0 0 0 0 0 0 0 0 0 0 0 0 0 0 0 0 0 0 0 0 0 0 0 0 0 0 0 0 0 0 0
0 0 0 0 0 0 0 0 1132 1166 1151 1105 1149 1147 1149 1181 1279 1290 1267 1277 1270 1301 1247 0 0 0 0 0 0 0 0 0 0 0 0 0 0 0 0 0 0 0 0 0 0 0 0 0 0 0 0 0 0 0 0 0 0 0 0 0 0 0 0 0 0 0 0 0 0 0 0 0 0 0 0 0 0 0 0 0 0 0 0 0 0 0 0 0 0 0 0 0 0 0 0 0 0 0 0 0 0 0 0 0 0 0 0 0 0 0 0 0 0 0 0 0 0 0 0 0
0 0 0 0 0 0 0 1135 1111 1171 0 0 1158 1192 1191 1221 1326 1320 1323 1284 1307 1281 1314 1280 0 0 0 0 0 0 0 0 0 0 0 0 0 0 0 0 0 0 0 0 0 0 0 0 0 0 0 0 0 0 0 0 0 0 0 0 0 0 0 0 0 0 0 0 0 0 0 0 0 0 0 0 0 0 0 0 0 0 0 0 0 0 0 0 0 0 0 0 0 0 0 0 0 0 0 0 0 0 0 0 0 0 0 0 0 0 0 0 0 0 0 0 0 0 0 0
0 0 0 0 0 0 0 0 0 0 0 0 1231 1235 1248 1238 1279 1288 1270 1255 1263 1272 1259 1279 1245 0 0 1357 0 0 0 1404 0 0 0 0 0 0 0 0 0 0 0 0 0 0 0 0 0 0 0 0 0 0 0 0 0 0 0 0 0 0 0 0 0 0 0 0 0 0 0 0 0 0 0 0 0 0 0 0 0 0 0 0 0 0 0 0 0 0 0 0 0 0 0 0 0 0 0 0 0 0 0 0 0 0 0 0 0 0 0 0 0 0 0 0 0 0 0 0
0 0 0 0 0 0 0 0 0 0 0 0 1271 1244 1277 1274 1301 1276 1270 1257 1255 1242 1260 1267 0 1292 1359 1306 1341 1405 0 1419 0 0 0 0 0 0 0 0 0 0 0 0 0 0 0 0 0 0 0 0 0 0 0 0 0 0 0 0 0 0 0 0 0 0 0 0 0 0 0 0 0 0 0 0 0 0 0 0 0 0 0 0 0 0 0 0 0 0 0 0 0 0 0 0 0 0 0 0 0 0 0 0 0 0 0 0 0 0 0 0 0 0 0 0 0 0 0 0
0 0 0 0 0 0 0 0 0 0 0 0 1265 1267 1274 1259 1270 1296 1239 1245 1267 1262 1261 1263 0 0 1315 1336 1358 1344 1352 1396 0 0 0 0 0 0 0 0 0 0 0 0 0 0 0 0 0 0 0 0 0 0 0 0 0 0 0 0 0 0 0 0 0 0 0 0 0 0 0 0 0 0 0 0 0 0 0 0 0 0 0 0 0 0 0 0 0 0 0 0 0 0 0 0 0 0 0 0 0 0 0 0 0 0 0 0 0 0 0 0 0 0 0 0 0 0 0 0
0 0 0 0 0 0 0 0 0 0 0 0 0 0 1295 1281 1262 1290 1250 1248 1241 1226 1228 1290 1241 0 0 1333 1341 1326 1340 1421 0 0 0 0 0 0 0 0 0 0 0 0 0 0 0 0 0 0 0 0 0 0 0 0 0 0 0 0 0 0 0 0 0 0 0 0 0 0 0 0 0 0 0 0 0 0 0 0 0 0 0 0 0 0 0 0 0 0 0 0 0 0 0 0 0 0 0 0 0 0 0 0 0 0 0 0 0 0 0 0 0 0 0 0 0 0 0 0
0 0 0 0 0 0 0 0 0 0 0 0 0 0 0 0 0 0 0 0 0 1305 1262 1264 1300 0 0 1398 1364 1329 1391 1429 1475 0 0 0 0 0 0 0 0 0 0 0 0 0 0 0 0 0 0 0 0 0 0 0 0 0 0 0 0 0 0 0 0 0 0 0 0 0 0 0 0 0 0 0 0 0 0 0 0 0 0 0 0 0 0 0 0 0 0 0 0 0 0 0 0 0 0 0 0 0 0 0 0 0 0 0 0 0 0 0 0 0 0 0 0 0 0 0
0 0 0 0 0 0 0 0 0 0 0 0 0 0 0 0 0 0 0 0 0 0 0 1341 1317 0 0 1337 1334 1341 1347 1434 1395 0 0 0 0 0 0 0 0 0 0 0 0 0 0 0 0 0 0 0 0 0 0 0 0 0 0 0 0 0 0 0 0 0 0 0 0 0 0 0 0 0 0 0 0 0 0 0 0 0 0 0 0 0 0 0 0 0 0 0 0 0 0 0 0 0 0 0 0 0 0 0 0 0 0 1737 0 0 0 0 0 0 0 0 0 0 0 0
0 0 0 0 0 0 0 0 0 0 0 0 0 0 0 0 0 0 0 0 0 0 0 1413 1405 1297 1289 0 1355 1375 1364 1376 1416 0 0 0 0 0 0 0 0 0 0 0 0 0 0 0 0 0 0 0 0 0 0 0 0 0 0 0 0 0 0 0 0 0 0 0 0 0 0 0 0 0 0 0 0 0 0 0 0 0 0 0 0 0 0 0 0 0 0 0 0 0 0 0 0 0 0 0 0 0 0 0 0 0 1754 1744 0 0 0 0 0 0 0 0 0 0 0 0
0 0 0 0 0 0 0 0 0 0 0 0 0 0 0 0 0 0 0 0 0 0 0 1378 1354 1374 1341 1335 1305 1330 1366 1395 1432 0 0 0 0 0 0 0 0 0 0 0 0 0 0 0 0 0 0 0 0 0 0 0 0 0 0 0 0 0 0 0 0 0 0 0 0 0 0 0 0 0 0 0 0 0 0 0 0 0 0 0 0 0 0 0 0 0 0 0 0 0 0 0 0 0 0 0 0 0 0 0 0 1726 1708 1703 1673 0 0 0 0 0 0 0 0 0 0 0
0 0 0 0 0 0 0 0 0 0 0 0 0 0 0 0 0 0 0 0 0 0 0 1339 1361 1349 1350 1314 1305 1314 1351 1409 1404 0 0 0 0 0 0 0 0 0 0 0 0 0 0 0 0 0 0 0 0 0 0 0 0 0 0 0 0 0 0 0 0 0 0 0 0 0 0 0 0 0 0 0 0 0 0 0 0 0 0 0 0 0 0 0 0 0 0 0 0 0 0 0 0 0 0 0 0 0 0 0 0 1656 1757 0 1714 0 0 0 0 0 0 0 0 0 0 0
0 0 0 0 0 0 0 0 0 0 0 0 0 0 0 0 0 0 0 0 0 0 0 1393 1375 1365 1380 1380 1368 1354 1342 1412 1453 0 0 0 0 0 0 0 0 0 0 0 0 0 0 0 0 0 0 0 0 0 0 0 0 0 0 0 0 0 0 0 0 0 0 0 0 0 0 0 0 0 0 0 0 0 0 0 0 0 0 0 0 0 0 0 0 0 0 0 0 0 0 0 0 0 0 0 0 0 0 0 0 1777 0 1724 1726 0 0 0 0 1664 0 0 0 0 0 0
1246 1266 1270 1284 1294 1324 1304 0 0 0 0 0 0 0 0 0 0 0 0 0 0 0 0 0 1353 1359 1381 1380 1358 1360 1355 1429 1432 0 0 0 0 0 0 0 0 0 0 0 0 0 0 0 0 0 0 0 0 0 0 0 0 0 0 0 0 0 0 0 0 0 0 0 0 0 0 0 0 0 0 0 0 0 0 0 0 0 0 0 0 0 0 0 0 0 0 0 0 0 0 0 0 0 0 0 0 0 0 0 1728 1712 1756 1670 1699 1665 0 1642 1662 0 0 0 0 0 0 0
1273 1247 1274 1288 1284 1319 1316 1302 1337 1356 1328 0 0 0 0 0 0 0 0 0 0 0 0 1386 1357 1349 1368 1367 1362 1379 1369 1437 1445 0 0 0 0 0 0 0 0 0 0 0 0 0 0 0 0 0 0 0 0 0 0 0 0 0 0 0 0 0 0 0 0 0 0 0 0 0 0 0 0 0 0 0 0 0 0 0 0 0 0 0 0 0 0 0 0 0 0 0 0 0 0 0 0 0 0 0 0 0 0 1809 1728 1806 1734 1748 1755 1747 1648 1733 0 0 0 0 0 0 0 0
1241 1306 1275 1297 1297 1301 1325 1309 1328 1333 1356 1368 1370 1383 1399 1425 0 0 0 0 0 0 0 0 0 1354 0 0 1393 0 0 1461 1438 0 0 0 0 0 0 0 0 0 0 0 0 0 0 0 0 0 0 0 0 0 0 0 0 0 0 0 0 0 0 0 0 0 0 0 0 0 0 0 0 0 0 0 0 0 0 0 0 0 0 0 0 0 0 0 0 0 0 0 0 0 0 0 0 0 0 0 0 0 1808 1813 1738 1770 1749 1739 1743 1703 1713 1674 0 0 0 0 0 0 0 0
0 0 0 0 1277 1319 1311 1318 1334 1321 1330 1356 1371 1373 1390 1424 1417 1427 1464 1457 0 0 0 0 0 0 0 0 0 0 0 1453 1437 1458 0 0 0 0 0 0 0 0 0 0 0 0 0 0 0 0 0 0 0 0 0 0 0 0 0 0 0 0 0 0 0 0 0 0 0 0 0 0 0 0 0 0 0 0 0 0 0 0 0 0 0 0 0 0 0 0 0 0 0 0 0 0 0 0 0 0 0 0 1860 1814 1780 1761 1747 1706 1637 1664 0 0 0 0 0 0 0 0 0 0
0 0 0 0 0 0 0 0 0 1333 1362 1344 1367 1382 1396 1410 1397 1407 1446 1435 1453 1478 0 0 0 0 0 0 0 0 0 1482 1467 1479 0 0 0 0 0 0 0 0 0 0 0 0 0 0 0 0 0 0 0 0 0 0 0 0 0 0 0 0 0 0 0 0 0 0 0 0 0 0 0 0 0 0 0 0 0 0 0 0 0 0 0 0 0 0 0 0 0 0 0 0 0 0 0 0 0 0 0 0 0 1786 1645 1659 1626 1603 1597 1617 1568 1602 1616 1550 1583 0 0 0 0 0
0 0 0 0 0 0 0 0 0 0 0 0 0 0 0 1388 1405 1415 1451 1446 1437 1490 0 0 0 0 0 0 0 0 0 0 1458 0 0 0 0 0 0 0 0 0 0 0 0 0 0 0 0 0 0 0 0 0 0 0 0 0 0 0 0 0 0 0 0 0 0 0 0 0 0 0 0 0 0 0 0 0 0 0 0 0 0 0 0 0 0 0 0 0 0 0 0 0 0 0 0 0 0 0 0 1766 1685 1601 1595 1591 1590 1625 1589 1610 1568 1607 1613 1605 0 0 0 0 0 0
0 0 0 0 0 0 0 0 0 0 0 0 0 0 0 0 0 0 0 0 0 1442 0 0 0 0 0 0 0 0 0 0 0 0 0 0 0 0 0 0 0 0 0 0 0 0 0 0 0 0 0 0 0 0 0 0 0 0 0 0 0 0 0 0 0 0 0 0 0 0 0 0 0 0 0 0 0 0 0 0 0 0 0 0 0 0 0 0 0 0 0 0 0 0 0 0 0 0 0 0 0 1604 1564 1586 1562 1591 1581 1564 1599 1560 1575 1564 1562 1547 0 0 0 0 0 0
0 0 0 0 0 0 0 0 0 0 0 0 0 0 0 0 0 0 0 0 0 0 0 0 0 0 0 0 0 0 0 0 0 0 0 0 0 0 0 0 0 0 0 0 0 0 0 0 0 0 0 0 0 0 0 0 0 0 0 0 0 0 0 0 0 0 0 0 0 0 0 0 0 0 0 0 0 0 0 0 0 0 0 0 0 0 0 0 0 0 0 0 0 0 0 0 0 0 0 0 0 0 1571 1590 1568 1600 1566 1607 1579 1587 1561 1546 0 0 0 0 0 0 0 0
0 0 0 0 0 0 0 0 0 0 0 0 0 0 0 0 0 0 0 0 0 0 0 0 0 0 0 0 0 0 0 0 0 0 0 0 0 0 0 0 0 0 0 0 0 0 0 0 0 0 0 0 0 0 0 0 0 0 0 0 0 0 0 0 0 0 0 0 0 0 0 0 0 0 0 0 0 0 0 0 0 0 0 0 0 0 0 0 0 0 0 0 0 0 0 0 0 0 0 0 0 0 0 0 0 0 1524 1596 1577 0 0 0 0 0 0 0 0 0 0 0
0 0 0 0 0 0 0 0 0 0 0 0 0 0 0 0 0 0 0 0 0 0 0 0 0 0 0 0 0 0 0 0 0 0 0 0 0 0 0 0 0 0 0 0 0 0 0 0 0 0 0 0 0 0 0 0 0 0 0 0 0 0 0 0 0 0 0 0 0 0 0 0 0 0 0 0 0 0 0 0 0 0 0 0 0 0 0 0 0 0 0 0 0 0 0 0 0 0 0 0 0 0 0 0 0 0 0 0 0 0 0 0 0 0 0 0 0 0 0 0
570 550 0 0 0 0 0 0 0 0 0 0 0 0 0 0 0 0 0 0 0 0 0 0 0 1877 1917 0 0 0 0 0 0 0 0 0 0 0 0 0 0 0 0 0 0 0 0 2998 2930 2957 2907 2916 2897 2901 2905 2910 2942 2940 2972 2952 2936 2985 2967 2900 2941 2936 0 0 0 0 0 0 0 0 0 0 0 0 0 0 0 0 0 0 0 0 0 0 0 0 0 0 0 0 0 0 1711 0 0 0 0 0 0 0 0 0 0 0 0 0 0 0 0 0 0 0 0 0 0 0
580 601 616 589 632 673 0 0 0 0 0 0 0 0 0 0 0 0 0 0 0 0 0 0 0 0 0 1906 0 0 0 0 0 0 0 0 0 0 0 0 0 0 0 0 0 0 0 2864 2869 2908 2907 2921 2891 2920 2915 2921 2858 2919 2921 2884 2927 2918 2886 2879 2896 2908 0 0 0 0 0 0 0 0 0 0 0 0 0 0 0 0 0 0 0 0 0 0 0 0 0 0 0 0 0 0 0 0 0 0 0 0 0 0 0 0 0 0 0 0 0 0 0 0 0 0 0 0 0 0
571 571 595 597 613 611 629 638 671 0 0 0 0 0 0 0 0 0 0 0 0 0 0 0 0 0 0 0 0 0 0 0 0 0 0 0 0 0 0 0 0 0 0 0 0 0 0 2915 2921 2879 2912 2940 2895 2904 2871 2917 2905 2887 2940 2908 2940 2920 2926 2887 2962 0 0 0 0 0 0 0 0 0 0 0 0 0 0 0 0 0 0 0 0 0 0 0 0 0 0 0 0 0 0 0 0 0 0 0 0 0 0 0 0 0 0 0 0 0 0 0 0 0 0 0 0 0 0 0
571 569 591 603 608 606 638 660 647 690 674 758 0 0 0 0 0 0 0 0 0 0 0 0 0 0 0 0 0 0 0 0 0 0 0 0 0 0 0 0 0 0 0 0 0 0 0 2944 2901 2961 2923 2922 2906 2923 2882 2891 2912 2907 2867 2941 2891 2886 2905 2902 2875 2899 0 0 0 0 0 0 0 0 0 0 0 0 0 0 0 0 0 0 0 0 0 0 0 0 0 0 0 0 0 0 0 0 0 0 0 0 0 0 0 0 0 0 0 0 0 0 0 0 0 0 0 0 0 0
609 585 604 602 623 629 639 631 661 669 654 696 722 700 764 0 0 0 0 0 0 0 0 0 0 0 0 0 0 0 0 0 0 0 0 0 0 0 0 0 0 0 0 0 0 0 0 2905 2887 2902 2905 2960 2901 2845 2918 2871 2878 2887 2895 2906 2904 2885 2911 2896 2937 2925 0 0 0 0 0 0 0 0 0 0 0 0 0 0 0 0 0 0 0 0 0 0 0 0 0 0 0 0 0 0 0 0 0 0 0 0 0 0 0 0 0 0 0 0 1754 0 0 0 0 0 0 0 0 0
737 775 785 746 727 699 654 668 646 668 680 694 726 754 747 757 785 765 0 0 0 0 0 0 0 0 0 0 0 0 0 0 0 0 0 0 0 0 0 0 0 0 0 0 0 0 0 2870 2904 2949 2905 2919 2921 2902 2915 2921 2846 2877 2862 2905 2921 2886 2882 2884 2879 0 0 0 0 0 0 0 0 0 0 0 0 0 0 0 0 0 0 0 0 0 0 0 0 0 0 0 0 0 0 0 0 0 0 0 0 0 0 0 0 0 0 0 0 0 0 0 0 0 0 0 0 0 0 0
791 810 820 824 811 866 836 823 822 778 749 749 719 734 736 758 780 778 806 806 830 0 0 0 0 0 0 0 0 0 0 0 0 0 0 0 0 0 0 0 0 0 0 0 0 0 0 2915 2873 2901 2900 2880 2884 2877 2846 2882 2856 2870 2981 2909 2831 2843 2862 2863 2867 2851 0 0 0 0 0 0 0 0 0 0 0 0 0 0 0 0 0 0 0 0 0 0 0 0 0 0 0 0 0 0 0 0 0 0 0 0 0 0 0 0 0 0 0 0 0 0 0 0 0 0 0 0 0 0
770 807 814 814 837 844 863 884 880 919 909 926 926 918 855 801 783 786 808 804 823 842 870 855 0 0 0 0 0 0 0 0 0 0 0 0 0 0 0 0 0 0 0 0 0 0 0 2876 2928 2921 2938 2902 2886 2877 2894 2913 2876 2915 2896 2938 2890 2871 2893 2881 2905 2879 0 0 0 0 0 0 0 0 0 0 0 0 0 0 0 0 0 0 0 0 0 0 0 0 0 0 0 0 0 0 0 0 0 0 0 0 0 0 0 0 0 0 0 0 0 0 0 0 0 0 0 0 0 0
646 0 845 856 835 860 865 888 913 900 940 952 955 951 944 955 954 928 898 871 841 836 873 886 892 951 0 0 0 0 0 0 0 0 0 0 0 0 0 0 0 0 0 0 0 0 0 2963 2897 2883 2967 2941 2897 2937 2958 2925 2917 2885 2913 2920 2935 2886 2897 2854 2913 2904 0 0 0 0 0 0 0 0 0 0 0 0 0 0 0 0 0 0 0 0 0 0 0 0 0 0 0 0 0 0 0 0 0 0 0 0 0 0 0 0 0 0 0 0 0 0 0 0 0 0 0 0 0 0
654 931 950 940 947 949 0 919 942 942 941 948 944 934 941 954 949 953 953 941 949 944 908 917 893 951 969 1002 1022 0 0 0 0 0 0 0 0 0 0 0 0 0 0 0 0 0 0 2932 2909 2892 2924 2900 2906 2911 2923 2894 2924 2893 2881 2884 2886 2894 2855 2906 2887 2893 0 0 0 0 0 0 0 0 0 0 0 0 0 0 0 0 0 0 0 0 0 0 0 0 0 0 0 0 0 0 0 0 0 0 0 0 0 0 0 0 0 0 0 0 0 0 0 0 0 0 0 0 0 0
560 679 0 0 0 0 0 0 0 0 983 1006 988 978 967 962 949 958 941 941 953 972 947 953 969 987 967 973 1037 1029 1085 0 0 0 0 0 0 0 0 0 0 0 0 0 0 0 0 2934 2944 2902 2894 2877 2884 2896 2927 2919 0 2879 2882 2874 2895 2886 2861 2916 2910 2884 0 0 0 0 0 0 0 0 0 0 0 0 0 0 0 0 0 0 0 0 0 0 0 0 0 0 0 0 0 0 0 0 0 0 0 0 0 0 0 0 0 0 0 0 0 0 0 0 0 0 0 0 0 0
602 569 557 0 1109 1137 1179 1168 1157 1143 1163 1136 1144 1163 1138 1140 1129 1053 0 0 1022 1063 1058 991 1046 1038 1127 1130 1098 1097 1061 0 0 0 0 0 0 0 0 0 0 0 0 0 0 0 0 2924 2921 2901 2917 2915 2917 2888 2903 2871 2944 2856 2864 2901 2892 2910 2919 2927 2919 2863 0 0 0 0 0 0 0 0 0 0 0 0 0 0 0 0 0 0 0 0 0 0 0 0 0 0 0 0 0 0 0 0 0 0 0 0 0 0 0 0 0 0 0 0 0 0 0 0 0 0 0 0 0 0
572 581 619 618 0 0 0 0 0 0 0 0 0 0 0 0 1391 1025 930 0 0 1116 1088 0 0 1130 1132 1125 1128 1108 1091 0 0 0 0 0 0 0 0 0 0 0 0 0 0 0 0 2876 2968 2949 2917 2921 2897 0 2895 2918 2927 2879 2899 2903 2927 2903 2890 2888 2889 0 0 0 0 0 0 0 0 0 0 0 0 0 0 0 0 0 0 0 0 0 0 0 0 0 0 0 0 0 0 0 0 0 0 0 0 0 0 0 0 0 0 0 0 0 0 0 0 0 0 0 0 0 0 0
594 593 594 578 567 0 0 0 0 0 0 0 0 0 0 0 0 993 984 0 0 0 0 0 0 0 0 0 0 0 0 0 0 0 0 0 0 0 0 0 0 0 0 0 0 0 0 2949 2922 2958 2860 2882 2925 2899 2871 2892 2910 2921 2926 2926 2893 2868 2915 2889 2936 0 0 0 0 0 0 0 0 0 0 0 0 0 0 0 0 0 0 0 0 0 0 0 0 0 0 0 0 0 0 0 0 0 0 0 0 0 0 0 0 0 0 0 0 0 0 0 0 0 0 0 0 0 0 0
568 570 617 608 655 581 0 0 0 0 0 0 0 0 0 0 0 0 0 0 0 0 0 0 0 0 0 0 0 0 0 0 0 0 0 0 0 0 0 0 0 0 0 0 0 0 0 2887 2950 2884 2926 2879 2923 2877 2920 2916 2910 2943 2901 2923 2908 2926 2897 2880 2892 0 0 0 0 0 0 0 0 0 0 0 0 0 0 0 0 0 0 0 0 0 0 0 0 0 0 0 0 0 0 0 0 0 0 0 0 0 0 0 0 0 0 0 0 0 0 0 0 0 0 0 0 0 0 0
588 557 595 601 600 620 0 0 0 0 0 0 0 0 0 0 0 0 0 0 0 0 950 0 0 0 0 0 0 0 0 0 0 0 0 0 0 0 0 0 0 0 0 0 0 0 0 0 2911 2912 2874 2931 2894 2945 2911 2957 2889 2898 2907 2871 2865 2881 2920 2872 2948 0 0 0 0 0 0 0 0 0 0 0 0 0 0 0 0 0 0 0 0 0 0 0 0 0 0 0 0 0 0 0 0 0 0 0 0 0 0 0 0 0 0 0 0 0 0 0 0 0 0 0 0 0 0 0
580 572 593 608 604 620 0 0 0 0 0 0 0 0 0 0 0 0 0 0 0 0 0 0 0 0 0 0 0 0 0 0 0 0 0 0 0 0 0 0 0 0 0 0 0 0 0 2942 2941 2942 2912 2909 2885 2863 2914 2909 2919 2902 2924 2910 2881 2922 2905 2903 2881 2911 0 0 0 0 0 0 0 0 0 0 0 0 0 0 0 0 0 0 0 0 0 0 0 0 0 0 0 0 0 0 0 0 0 0 0 0 0 0 0 0 0 0 0 0 0 0 0 0 0 0 0 0 0 0
595 596 600 589 595 615 601 0 0 0 0 0 0 0 0 0 0 0 0 0 0 0 0 0 0 0 0 0 0 0 0 0 0 0 0 0 0 0 0 0 0 0 0 0 0 0 0 2911 2926 2926 2895 2931 2910 2926 2899 2858 2917 2858 2910 2928 2861 2901 2875 2910 2894 0 0 0 0 0 0 0 0 0 0 0 0 0 0 0 0 0 0 0 0 0 0 0 0 0 0 0 0 0 0 0 0 0 0 0 0 0 0 0 0 0 0 0 0 0 0 0 0 0 0 0 0 0 0 0
582 574 599 633 617 609 577 0 0 0 0 0 0 0 0 0 2293 0 0 0 0 0 0 987 0 0 0 0 0 0 0 0 0 0 0 0 0 0 0 0 0 0 0 0 0 0 0 2905 2938 2915 2905 2925 2907 2931 2893 2914 2920 2918 2898 2888 2890 2862 2898 2906 2888 2873 0 0 0 0 0 0 0 0 0 0 0 0 0 0 0 0 0 0 0 0 0 0 0 0 0 0 0 0 0 0 0 0 0 0 0 0 0 0 0 0 0 0 0 0 0 0 0 0 0 0 0 0 0 0
581 583 592 632 624 646 645 0 0 0 0 0 0 0 0 0 0 0 0 0 0 0 0 0 0 0 0 0 0 0 0 0 0 0 0 0 0 0 0 0 0 0 0 0 0 0 0 2899 2898 2891 2940 2918 2922 2912 2856 2926 2901 2903 2905 2863 2924 2903 2901 2895 2879 2854 0 0 0 0 0 0 0 0 0 0 0 0 0 0 0 0 0 0 0 0 0 0 0 0 0 0 0 0 0 0 0 0 0 0 0 0 0 0 0 0 0 0 0 0 0 0 0 0 0 0 0 0 0 0
579 558 615 618 577 591 0 0 0 0 0 0 0 0 0 0 0 0 0 0 0 0 0 0 0 0 0 0 0 0 0 0 0 0 0 0 0 0 0 0 0 0 0 0 0 0 0 0 0 0 0 0 0 0 0 0 0 0 0 0 0 0 2966 2880 2908 0 0 0 0 0 0 0 0 0 0 0 0 0 0 0 0 0 0 0 0 0 0 0 0 0 0 0 0 0 0 0 0 0 0 0 0 0 0 0 0 0 0 0 0 0 0 0 0 0 0 0 0 0 0 0
601 588 567 586 597 577 0 0 0 0 0 0 0 0 0 0 0 0 0 0 0 0 0 0 0 0 0 0 0 0 0 0 0 0 0 0 0 0 0 0 0 0 0 0 0 0 0 0 0 0 0 0 0 0 0 0 0 0 0 0 0 0 0 0 0 0 0 0 0 0 0 0 0 0 0 0 0 0 0 0 0 0 0 0 0 0 0 0 0 0 0 0 0 0 0 0 0 0 0 0 0 0 0 0 0 0 0 0 0 0 0 0 0 0 0 0 0 0 0 0
582 579 583 603 574 0 0 0 0 0 0 0 0 0 0 0 0 0 0 0 0 0 0 0 0 0 0 0 0 0 0 0 0 0 0 0 0 0 0 0 0 0 0 0 0 0 0 0 0 0 0 0 0 0 0 0 0 0 0 0 0 0 0 0 0 0 0 0 0 0 0 0 0 0 0 0 0 0 0 0 0 0 0 0 0 0 0 0 0 0 0 0 0 0 0 0 0 0 0 0 0 0 0 0 0 0 0 0 0 0 0 0 0 0 0 0 0 0 0 0
615 594 574 584 567 0 0 0 0 0 0 0 0 0 0 0 0 0 0 0 0 0 0 0 0 0 0 0 0 0 0 0 0 0 0 0 0 0 0 0 0 0 0 0 0 0 0 0 0 0 0 0 0 0 0 0 0 0 0 0 0 0 0 0 0 0 0 0 0 0 0 0 0 0 0 0 0 0 0 0 0 0 0 0 0 0 0 0 0 0 0 0 0 0 0 0 0 0 0 0 0 0 0 0 0 0 0 0 0 0 0 0 0 0 0 0 0 0 0 0
596 632 604 608 0 0 0 0 0 0 0 0 0 0 0 0 0 0 0 0 0 0 0 0 0 0 0 917 849 902 903 0 0 889 876 0 0 0 0 920 0 0 0 0 0 0 0 0 0 0 0 0 0 0 0 0 0 0 0 0 0 0 0 0 0 0 0 0 0 0 0 0 0 0 0 0 0 0 0 0 0 0 0 0 0 0 0 0 0 0 0 0 0 0 0 0 0 0 0 0 0 0 0 0 0 0 0 0 0 0 0 0 0 0 0 0 0 0 0 0
541 546 666 0 0 0 0 655 711 719 690 657 708 699 720 715 737 713 685 693 714 721 719 714 736 721 710 725 763 657 767 707 760 771 714 761 704 768 756 735 739 741 750 763 785 787 759 758 778 772 755 762 750 747 735 766 744 740 784 809 744 757 768 802 788 783 807 720 821 802 772 802 787 0 0 0 0 0 0 0 0 0 0 0 0 0 0 0 0 0 0 0 0 0 0 0 0 0 0 0 0 0 0 0 0 0 0 0 0 0 0 0 0 0 0 0 0 0 0 0
566 588 566 541 572 583 542 609 552 567 586 574 566 595 561 592 576 593 576 606 546 582 611 588 593 599 570 567 598 620 579 642 595 570 578 609 621 600 613 653 607 629 590 592 604 629 639 624 619 590 578 644 657 632 658 608 633 632 636 641 641 619 628 640 649 633 604 637 656 633 674 662 678 664 612 636 623 661 659 699 701 655 664 655 634 668 701 729 647 619 695 639 670 696 0 0 706 697 0 689 702 702 0 0 0 0 0 0 0 0 0 0 0 0 0 0 0 0 0 0
508 490 546 489 499 487 483 478 490 500 517 496 494 481 496 522 499 506 494 529 507 499 521 520 495 478 500 502 512 517 508 495 505 508 514 518 526 527 526 521 523 520 532 534 530 520 506 505 535 554 562 537 522 538 540 548 537 548 529 566 532 527 539 542 559 570 545 534 562 535 559 551 560 531 547 552 546 567 559 560 565 553 561 552 575 579 547 571 530 568 561 577 556 530 566 577 563 567 594 590 567 626 586 592 0 613 0 561 566 650 0 0 0 0 0 0 0 0 0 0
415 424 436 448 413 420 415 420 435 446 432 450 471 440 426 437 446 439 432 443 459 461 444 447 453 441 457 445 446 450 466 451 463 445 468 458 464 453 432 463 462 456 467 469 465 455 449 468 456 460 479 475 482 460 470 480 473 454 472 468 485 479 481 470 465 485 485 477 468 472 474 486 477 479 476 487 476 490 476 482 458 480 489 484 520 467 484 499 509 506 490 494 519 496 489 512 524 484 490 493 494 514 505 504 463 470 482 501 488 506 505 481 0 0 0 0 0 0 0 0
390 389 400 379 402 388 395 395 401 382 384 391 398 395 402 404 414 402 402 406 402 399 409 417 419 399 418 410 405 420 410 421 416 411 416 406 423 423 405 414 414 402 422 416 414 415 408 415 412 426 423 417 415 415 433 413 427 422 428 422 423 437 426 422 414 424 413 426 426 428 445 425 420 424 431 413 431 432 434 438 445 449 432 441 434 444 448 417 429 448 439 444 431 439 439 445 425 442 448 441 437 416 440 424 434 434 437 433 425 425 456 453 448 463 0 0 0 0 0 0
354 381 365 357 356 353 348 356 350 357 359 345 367 364 366 371 365 366 357 368 369 369 362 376 363 361 355 367 364 378 386 376 360 363 383 370 384 385 366 378 383 371 375 383 375 384 387 382 393 375 390 376 384 369 383 385 371 388 382 386 380 390 403 391 373 395 398 385 394 390 389 375 398 386 399 387 404 393 398 399 402 398 403 403 405 380 399 396 384 403 398 404 388 373 407 388 385 393 385 397 400 409 410 408 396 413 380 367 408 381 405 388 413 438 382 409 0 0 0 0
308 314 318 334 326 320 355 330 346 338 314 346 341 338 319 333 337 346 352 334 338 343 337 356 338 336 334 351 332 350 328 329 356 357 331 336 339 344 332 343 345 339 342 338 339 347 342 344 339 343 358 348 347 344 339 346 344 336 351 356 349 350 344 347 351 346 330 343 351 351 352 347 340 354 347 348 345 347 353 346 353 351 358 345 338 362 348 363 349 359 344 358 365 361 350 356 346 364 346 350 363 351 374 344 344 333 356 350 368 353 359 359 365 376 368 396 374 0 0 0
276 292 296 293 295 293 287 304 304 301 299 291 288 294 282 300 317 293 295 295 302 305 301 304 285 300 293 303 294 310 294 301 296 301 308 305 310 309 302 297 311 319 303 308 315 308 307 312 311 314 318 303 315 307 312 310 310 312 306 314 316 305 305 310 310 308 312 320 317 315 312 321 317 322 313 314 314 309 317 315 314 322 315 312 309 322 320 326 322 323 312 312 322 308 323 327 311 334 329 327 320 311 341 329 316 317 332 320 303 324 325 321 340 352 331 305 339 297 339 0
281 265 264 278 276 282 277 271 274 280 267 278 286 273 288 285 281 279 279 285 284 272 268 274 281 275 273 275 280 281 272 281 276 281 281 285 284 272 282 286 282 282 281 288 278 289 280 295 282 294 282 289 292 280 281 287 284 282 281 287 283 284 284 291 294 288 282 280 295 288 288 292 285 290 287 287 285 285 292 280 292 278 288 294 293 292 295 293 293 298 286 290 297 294 294 292 286 286 296 295 300 296 297 296 296 275 296 310 310 281 295 317 292 282 303 284 291 325 253 320
253 250 248 248 263 255 254 254 259 258 250 260 244 243 270 256 263 262 261 253 262 255 258 253 257 257 252 259 255 254 256 261 262 259 257 266 265 265 263 264 266 261 262 262 267 266 263 266 268 259 264 269 266 271 270 257 266 270 264 264 268 268 267 268 271 265 271 271 276 270 261 266 277 271 269 267 267 265 268 257 264 268 265 271 263 270 271 268 273 266 260 270 264 269 263 267 279 278 287 276 278 264 278 276 266 276 270 290 276 281 271 276 277 260 273 253 263 268 258 273
234 235 239 238 238 231 237 230 245 229 233 240 243 237 237 248 246 234 247 243 237 236 240 239 245 236 242 240 242 250 245 246 252 250 246 247 243 247 246 248 254 246 240 251 250 253 247 248 243 248 244 260 248 246 248 245 250 250 249 251 253 253 252 254 244 250 256 253 254 256 251 245 248 253 252 251 250 257 251 245 253 248 251 254 251 250 250 249 249 247 253 256 253 252 262 251 253 246 251 245 255 251 262 254 252 247 254 249 262 250 256 253 262 281 257 268 253 273 241 223
217 216 218 214 219 222 222 218 227 214 221 225 221 228 225 217 219 225 229 222 226 221 235 231 226 227 228 233 230 229 225 230 224 240 236 232 236 228 237 240 235 229 232 228 238 234 228 236 240 228 233 229 230 236 230 234 231 230 237 232 239 233 234 228 234 230 235 238 231 236 237 242 230 238 229 233 229 230 231 227 233 236 233 235 238 225 234 240 233 225 229 234 238 233 238 225 237 239 248 247 238 238 244 230 245 241 244 245 246 242 237 238 241 230 235 244 249 238 213 251
208 199 217 215 212 205 207 209 215 217 214 206 208 224 207 209 212 213 206 220 211 209 213 214 212 210 213 212 213 213 201 223 212 208 214 212 196 216 200 219 217 223 218 199 220 220 223 220 221 218 217 216 219 221 219 218 204 216 223 207 223 219 222 223 219 219 224 219 225 216 227 223 220 200 202 219 217 217 220 215 219 221 223 226 218 222 220 225 219 217 221 215 221 212 222 221 225 220 224 228 220 216 226 222 217 219 217 220 242 235 228 224 213 215 222 237 207 205 210 222
192 198 200 202 205 200 204 198 186 199 199 205 199 205 206 185 190 192 193 189 208 189 195 206 184 190 187 190 187 197 211 189 191 190 196 193 196 187 193 190 195 188 198 191 201 193 201 196 200 195 213 197 194 191 192 200 197 195 196 199 200 200 201 196 193 198 202 196 197 194 193 192 200 192 191 195 199 191 198 187 197 194 199 213 216 199 199 188 209 216 211 197 194 207 192 183 191 209 212 208 213 212 202 215 210 212 210 207 212 210 213 212 209 215 207 205 201 207 228 214
179 177 194 195 175 192 195 187 184 183 186 176 179 180 184 184 187 178 189 181 178 190 182 181 189 190 192 190 187 184 184 188 185 195 186 193 193 188 190 191 197 197 195 190 193 199 190 197 194 196 197 196 198 197 195 195 201 198 200 196 197 196 198 189 200 193 195 197 189 196 200 197 200 200 192 196 197 196 187 196 196 193 197 188 184 191 191 193 188 191 181 194 184 190 191 182 184 180 190 182 190 186 185 187 194 184 183 184 193 212 203 179 202 194 197 205 204 188 181 187
176 173 176 180 175 174 171 175 181 182 175 173 182 180 180 180 185 178 185 181 182 187 183 189 184 183 181 190 186 191 181 182 184 185 188 182 183 185 189 182 185 188 188 190 186 192 188 195 185 188 186 188 185 188 193 193 188 191 192 190 185 190 186 191 191 190 191 185 187 188 190 190 190 192 185 186 189 185 190 182 190 192 189 187 191 192 190 185 188 188 186 190 186 185 184 182 187 190 187 180 179 184 188 178 182 173 185 178 181 181 175 177 180 184 176 176 195 178 173 175
171 165 160 165 170 163 160 176 162 173 172 170 174 171 177 175 169 178 171 176 174 177 173 172 175 169 179 172 172 181 180 173 176 173 172 180 178 177 178 177 178 179 179 176 179 182 180 177 177 180 180 179 175 179 179 183 183 181 180 178 179 177 182 182 176 174 181 185 175 177 175 178 173 176 181 176 179 182 175 181 177 184 172 173 182 176 180 182 180 183 177 174 178 171 177 179 167 178 182 176 171 180 179 182 175 171 168 177 173 181 171 171 177 174 185 157 166 169 169 173
159 161 168 165 160 168 159 157 165 168 170 169 167 164 165 170 165 170 172 173 168 167 173 168 170 162 166 171 164 175 171 172 165 165 165 165 167 166 167 172 165 169 167 170 169 170 167 167 173 167 173 169 170 174 175 169 175 172 176 169 175 172 169 173 172 169 176 173 171 166 173 176 166 171 172 171 171 176 171 170 164 170 169 166 167 175 170 170 177 171 167 172 169 170 163 168 169 173 174 177 170 173 164 165 183 175 169 166 171 164 169 168 170 178 168 170 171 175 156 180
155 160 162 168 160 159 164 158 157 155 159 164 158 162 161 167 163 164 163 168 161 162 166 163 164 164 162 157 159 165 163 167 165 165 156 158 158 160 159 159 160 162 168 159 165 168 162 160 161 162 160 165 163 162 167 164 163 166 164 170 160 164 163 163 168 163 160 164 160 160 163 162 161 164 161 167 168 168 167 173 160 160 166 163 162 163 168 163 165 164 164 164 162 162 161 164 158 160 168 165 171 164 159 165 151 160 166 160 158 168 159 167 162 150 176 156 156 178 155 167
147 148 155 143 155 154 149 157 154 156 149 145 151 150 154 150 151 158 154 160 161 154 153 156 150 160 153 156 159 158 155 159 154 155 155 158 157 155 153 150 155 152 157 154 157 154 155 154 156 156 155 155 161 159 157 154 154 156 161 158 163 158 162 156 156 158 151 152 153 155 160 156 157 160 161 164 164 159 159 150 154 159 159 152 154 159 160 159 157 154 157 158 157 160 156 152 156 154 155 157 155 158 157 157 157 152 157 153 151 158 154 161 157 156 154 157 158 164 168 133
140 142 143 145 149 142 146 149 153 147 146 144 146 146 149 142 147 151 146 152 157 156 158 154 149 148 151 152 153 153 149 148 149 148 147 144 154 156 147 148 153 154 150 152 148 149 150 149 149 151 155 157 148 145 151 148 149 153 152 154 151 144 152 153 147 153 147 155 154 148 150 155 153 156 154 152 157 157 150 150 155 154 154 147 153 151 157 154 153 150 151 153 156 154 158 148 147 152 153 156 156 160 159 159 151 152 146 145 156 154 154 149 157 152 162 152 145 153 170 152
137 137 139 137 136 140 132 137 138 138 145 143 141 143 142 135 146 139 143 148 144 146 140 147 144 142 149 148 143 143 136 142 141 145 139 144 141 142 147 143 143 147 148 149 143 141 143 143 144 150 146 144 145 144 144 144 142 151 146 145 145 143 147 146 147 145 153 151 151 149 146 149 142 148 146 149 149 155 149 149 142 145 147 137 141 142 149 148 150 146 149 146 146 142 148 148 140 149 148 144 148 146 150 142 140 146 140 143 142 145 137 143 142 144 145 142 151 138 145 137
129 130 130 131 135 137 139 137 139 136 137 0 132 137 136 137 139 139 142 137 145 141 143 137 141 144 0 138 138 138 135 138 132 139 141 128 132 137 141 138 140 143 142 139 140 139 131 140 138 128 146 142 134 141 143 144 143 134 145 131 129 132 129 144 142 141 139 142 141 126 131 145 129 142 141 143 149 139 141 144 143 139 138 126 143 138 138 140 140 145 127 145 144 144 142 142 142 142 141 136 142 142 133 144 141 131 134 135 139 143 138 140 126 131 133 144 120 110 145 132
132 129 128 135 134 139 143 134 135 137 136 135 141 139 139 133 128 140 135 136 142 142 140 138 140 136 140 136 139 125 128 126 127 126 129 128 127 140 124 130 141 140 128 138 0 139 129 129 128 129 124 140 128 134 0 142 0 133 130 132 141 140 142 132 138 128 143 130 133 128 131 128 138 141 130 128 134 131 140 129 138 139 128 136 127 138 141 127 138 143 134 143 138 140 134 135 138 143 142 139 128 132 127 133 137 132 131 134 136 141 138 133 130 141 144 137 125 154 144 134
122 106 123 107 124 126 139 128 129 117 117 118 120 132 124 125 122 135 131 121 122 124 135 127 125 127 136 138 0 137 128 126 120 127 124 120 127 126 125 121 126 128 129 139 0 0 127 123 129 121 121 123 127 128 126 128 131 128 129 120 127 124 125 126 125 128 128 130 120 126 125 126 124 126 122 124 120 130 123 126 127 123 125 137 121 126 116 127 123 126 121 126 125 133 118 119 135 134 127 125 129 122 124 124 120 121 113 119 120 130 131 125 141 134 115 136 111 134 127 99
105 118 123 112 109 115 127 115 127 120 123 119 117 124 117 116 110 131 131 122 134 122 126 120 119 122 128 122 128 123 130 0 124 120 111 117 120 122 0 120 126 124 0 0 0 0 125 124 122 122 124 126 128 122 123 122 119 121 124 118 126 125 114 122 123 126 125 121 120 120 125 119 126 121 123 120 123 124 126 122 115 118 125 123 119 120 121 116 126 119 115 118 119 124 120 120 125 121 121 120 118 117 122 119 116 119 119 114 121 132 126 137 120 129 112 114 134 124 105 111
111 102 114 116 110 104 113 116 114 113 117 120 113 114 106 116 112 112 108 122 116 111 113 119 114 112 119 115 115 122 122 0 119 115 115 112 110 0 115 116 119 0 0 122 126 0 120 118 108 113 118 117 119 120 120 120 118 123 116 117 120 123 121 118 118 119 119 118 120 114 117 118 116 113 119 110 120 113 114 126 113 116 113 118 113 113 120 123 116 118 117 118 112 110 108 119 124 118 110 115 119 117 114 111 112 111 117 116 123 128 112 124 116 124 121 119 125 109 93 104
95 104 109 100 97 104 113 113 101 110 112 107 104 115 121 116 114 114 102 102 113 110 116 101 110 111 114 114 115 117 115 115 116 117 116 114 108 113 0 115 114 111 108 107 109 111 116 0 113 0 116 110 117 116 0 0 111 107 117 112 124 113 106 111 109 109 110 110 119 112 114 107 109 107 112 108 110 106 108 113 110 109 105 110 111 106 115 107 103 114 106 114 102 113 116 115 111 115 110 108 106 111 117 106 103 107 106 109 105 121 105 104 97 104 97 111 109 95 100 105
100 101 104 112 105 109 109 106 106 107 105 115 110 110 116 118 113 109 108 98 109 97 100 103 115 115 111 112 106 116 108 109 110 111 112 115 114 0 108 109 112 106 114 106 103 106 110 110 115 0 108 113 113 117 109 114 104 110 113 112 107 104 116 0 115 106 108 111 110 109 101 98 107 110 102 103 101 101 102 109 105 104 106 113 100 108 98 108 109 107 102 115 100 106 101 107 105 109 111 101 96 111 109 104 110 103 109 111 91 117 108 95 117 110 108 105 92 107 108 97
101 88 105 108 99 95 98 94 99 99 104 103 98 99 100 104 99 100 105 101 104 100 95 102 105 96 105 97 96 105 105 101 108 102 103 101 107 102 108 107 105 102 102 100 101 103 106 99 105 105 107 102 109 104 103 105 99 103 102 103 103 104 106 0 108 106 0 112 104 106 102 102 103 105 105 108 96 103 0 102 0 104 98 100 100 101 98 95 100 101 105 102 97 101 98 92 95 100 103 100 99 101 94 102 99 99 100 96 99 87 90 103 94 103 111 81 103 111 99 120
80 92 84 95 93 96 93 86 91 92 99 97 93 93 103 98 95 92 101 94 98 92 95 92 94 94 103 99 104 96 105 105 105 103 97 101 99 98 102 98 103 101 92 94 96 100 100 103 101 103 108 100 99 103 96 95 99 104 102 102 104 99 108 101 112 103 103 110 105 99 100 104 101 100 98 97 100 99 100 98 0 103 96 95 97 96 105 109 93 98 97 100 97 100 95 103 91 95 87 105 94 91 100 87 96 104 94 93 92 98 88 87 102 83 93 105 100 72 89 98
92 97 95 102 90 90 92 82 84 91 93 87 93 86 93 85 91 86 105 106 100 91 81 92 94 92 100 95 90 98 99 95 103 95 97 101 92 97 94 102 94 93 91 90 95 98 96 99 90 97 98 94 85 92 91 94 91 95 101 103 98 93 100 0 97 102 96 99 97 97 95 97 102 100 88 102 98 92 97 107 92 99 85 104 97 98 92 89 89 92 100 93 98 79 90 88 98 89 102 93 93 96 98 96 101 94 103 75 85 92 94 92 96 92 91 101 103 108 88 113
87 88 78 79 77 86 89 86 87 90 82 88 97 88 90 92 89 92 90 81 84 91 93 96 91 88 94 90 90 98 90 88 96 94 90 92 89 87 89 92 88 96 87 89 89 84 91 88 91 86 90 94 89 93 97 90 98 90 95 90 89 98 87 92 92 92 94 88 96 98 86 93 89 89 97 95 90 88 90 96 90 87 95 92 89 82 93 89 90 92 94 87 92 92 92 94 93 93 91 83 84 83 88 81 86 80 83 88 85 91 82 85 74 82 78 86 97 86 84 94
88 83 81 88 93 82 86 96 87 91 85 87 92 86 87 88 92 91 91 86 93 92 91 86 90 84 92 92 91 84 88 94 94 91 96 85 94 88 89 98 89 91 88 97 96 94 88 95 87 93 99 97 95 89 98 96 93 88 89 96 91 93 97 93 92 92 99 93 89 91 89 86 97 92 95 90 93 94 82 88 97 87 95 94 97 87 88 92 91 93 98 96 99 89 94 92 89 88 88 100 89 84 83 95 84 96 90 81 83 83 90 91 87 90 93 84 86 95 0 0
84 90 86 84 92 85 85 93 83 0 81 84 89 87 82 92 92 89 86 85 91 93 90 90 89 86 93 83 89 93 86 89 94 96 92 93 93 96 93 95 86 90 95 87 95 93 93 86 91 87 95 94 88 91 94 85 92 93 97 92 95 95 94 94 87 98 97 88 92 90 89 95 88 91 93 90 95 90 87 95 93 92 89 87 91 92 93 98 99 92 88 100 99 88 88 92 91 84 92 84 83 88 85 91 83 80 86 90 91 87 84 89 80 87 79 78 85 92 86 0
81 85 79 85 87 83 91 86 88 79 85 85 87 89 84 88 82 90 85 91 92 87 89 87 89 88 88 86 92 87 83 81 89 87 89 95 92 90 89 87 93 85 94 98 87 85 96 95 92 90 94 87 92 85 92 98 93 96 94 95 90 97 90 87 83 96 92 87 92 97 87 97 97 85 96 88 88 93 94 90 90 85 95 94 89 92 90 91 91 88 92 90 84 87 84 81 88 86 88 85 82 82 88 82 88 79 93 88 84 90 78 87 79 81 78 86 88 65 0 0
77 78 81 75 86 87 89 92 80 88 84 91 81 85 80 88 83 88 90 87 91 93 88 83 83 81 87 86 87 92 91 87 89 91 84 86 91 87 86 93 88 83 88 95 96 84 94 93 91 93 92 91 92 88 87 97 95 97 90 93 89 94 88 88 89 96 86 88 85 93 88 89 90 94 94 87 87 92 95 87 90 91 88 85 95 94 87 92 91 89 90 86 81 84 87 86 86 88 94 90 79 91 87 85 79 90 80 91 88 81 82 85 101 79 92 111 0 0 0 0
77 69 71 64 81 78 88 85 80 75 81 78 76 83 84 79 78 78 75 76 86 80 82 82 70 74 78 84 83 76 89 71 80 87 88 80 88 77 81 78 85 83 79 69 81 82 83 87 88 86 86 80 76 81 80 83 82 89 90 77 89 80 80 78 78 79 72 83 79 82 83 84 83 79 81 82 77 81 88 85 76 84 74 77 77 86 82 80 85 81 87 71 83 79 76 77 77 85 71 83 70 78 69 69 68 80 77 75 81 81 85 78 70 58 87 71 0 0 0 0
69 68 76 81 68 83 86 86 80 80 82 90 78 76 79 84 83 82 76 77 77 83 74 80 89 83 77 75 80 78 85 82 83 88 85 77 82 79 81 82 89 80 84 90 85 86 86 76 87 83 86 72 77 81 89 86 86 76 86 70 87 81 80 86 85 79 77 77 92 72 81 80 86 81 85 78 82 86 83 82 80 73 81 79 76 79 82 72 81 88 73 82 73 73 82 76 89 84 71 76 87 74 72 79 69 79 69 87 77 83 73 75 80 87 82 0 0 0 0 0
