0 0 0 0 0 0 0 0 0 0 0 0 0 0 0 0 0 0 0 0 0 0 0 0 0 0 0 0 0 0 0 0 0 0 0 0 0 0 0 0 0 0 0 0 0 0 0 0 0 0 0 0 0 0 0 0 0 0 0 0 0 0 0 0 0 0 0 0 0 0 0 0 0 0 0 0 0 0 0 0 0 0 0 0 0 0 0 0 0 0 0 0 0 0 0 0 0 0 0 0 0 0 0 0 0 0 0 0 0 0 0 0 0 0 0 0 0 0 0 0
0 0 0 0 0 0 0 0 0 0 0 0 0 0 0 0 0 0 0 0 0 0 0 0 0 0 0 0 0 0 0 0 0 0 0 0 0 0 0 0 0 0 0 0 0 0 0 0 0 0 0 0 0 0 0 0 0 0 0 0 0 0 0 0 0 0 0 0 0 0 0 0 0 0 0 0 0 0 0 0 0 0 0 0 0 0 0 0 0 0 0 0 0 0 0 0 0 0 0 0 0 0 0 0 0 0 0 0 0 0 0 0 0 0 0 0 0 0 0 0
0 0 0 0 0 0 0 0 0 0 0 0 0 0 0 0 0 1330 0 0 0 0 0 0 0 0 0 0 0 0 0 0 0 0 0 0 0 0 0 0 0 0 0 0 0 0 0 0 0 0 0 0 0 0 0 0 0 0 0 0 0 0 0 0 0 0 0 0 0 0 0 0 0 0 0 0 0 0 0 0 0 0 0 0 0 0 0 0 0 0 0 0 0 0 0 0 0 0 0 0 0 0 0 0 0 0 0 0 0 0 0 0 0 0 0 0 0 0 0 0
0 0 0 0 0 0 0 0 0 0 0 1143 1119 1105 0 0 1268 1283 1263 0 0 0 1246 1237 0 0 0 0 0 0 0 0 0 0 0 0 0 0 0 0 0 0 0 0 0 0 0 0 0 0 0 0 0 0 0 0 0 0 0 0 0 0 0 0 0 0 0 0 0 0 0 0 0 0 0 0 0 0 0 0 0 0 0 0 0 0 0 0 0 0 0 0 0 0 0 0 0 0 0 0 0 0 0 0 0 0 0 0 0 0 0 0 0 0 0 0 0 0 0 0
0 0 0 0 0 0 0 0 1110 1120 1170 1134 1122 1169 1161 1188 1289 1291 1303 0 1265 1237 1267 0 0 0 0 0 0 0 0 0 0 0 0 0 0 0 0 0 0 0 0 0 0 0 0 0 0 0 0 0 0 0 0 0 0 0 0 0 0 0 0 0 0 0 0 0 0 0 0 0 0 0 0 0 0 0 0 0 0 0 0 0 0 0 0 0 0 0 0 0 0 0 0 0 0 0 0 0 0 0 0 0 0 0 0 0 0 0 0 0 0 0 0 0 0 0 0 0
0 0 0 0 0 0 0 1139 1125 1141 0 0 1185 1162 1207 1220 1265 1295 1310 0 1296 1265 1281 1280 0 0 0 0 0 0 0 0 0 0 0 0 0 0 0 0 0 0 0 0 0 0 0 0 0 0 0 0 0 0 0 0 0 0 0 0 0 0 0 0 0 0 0 0 0 0 0 0 0 0 0 0 0 0 0 0 0 0 0 0 0 0 0 0 0 0 0 0 0 0 0 0 0 0 0 0 0 0 0 0 0 0 0 0 0 0 0 0 0 0 0 0 0 0 0 0
0 0 0 0 0 0 0 0 0 0 0 0 1213 1232 1239 1245 1292 1326 1284 1234 1259 1267 1257 1264 1269 0 0 0 1353 0 0 1388 0 0 0 0 0 0 0 0 0 0 0 0 0 0 0 0 0 0 0 0 0 0 0 0 0 0 0 0 0 0 0 0 0 0 0 0 0 0 0 0 0 0 0 0 0 0 0 0 0 0 0 0 0 0 0 0 0 0 0 0 0 0 0 0 0 0 0 0 0 0 0 0 0 0 0 0 0 0 0 0 0 0 0 0 0 0 0 0
0 0 0 0 0 0 0 0 0 0 0 0 1223 1283 1292 1274 1269 1273 1252 1280 1238 1287 1263 1278 0 1318 1363 1323 1391 1387 0 1432 0 0 0 0 0 0 0 0 0 0 0 0 0 0 0 0 0 0 0 0 0 0 0 0 0 0 0 0 0 0 0 0 0 0 0 0 0 0 0 0 0 0 0 0 0 0 0 0 0 0 0 0 0 0 0 0 0 0 0 0 0 0 0 0 0 0 0 0 0 0 0 0 0 0 0 0 0 0 0 0 0 0 0 0 0 0 0 0
0 0 0 0 0 0 0 0 0 0 0 0 1250 1263 1276 1299 1287 1282 1276 1270 1279 1262 1247 1267 0 0 1334 1340 1334 1378 1382 1433 0 0 0 0 0 0 0 0 0 0 0 0 0 0 0 0 0 0 0 0 0 0 0 0 0 0 0 0 0 0 0 0 0 0 0 0 0 0 0 0 0 0 0 0 0 0 0 0 0 0 0 0 0 0 0 0 0 0 0 0 0 0 0 0 0 0 0 0 0 0 0 0 0 0 0 0 0 0 0 0 0 0 0 0 0 0 0 0
0 0 0 0 0 0 0 0 0 0 0 0 0 1321 1260 1274 1255 1246 1253 1258 1251 1256 1273 1263 1293 0 0 1321 1346 1378 1363 1375 1445 0 0 0 0 0 0 0 0 0 0 0 0 0 0 0 0 0 0 0 0 0 0 0 0 0 0 0 0 0 0 0 0 0 0 0 0 0 0 0 0 0 0 0 0 0 0 0 0 0 0 0 0 0 0 0 0 0 0 0 0 0 0 0 0 0 0 0 0 0 0 0 0 0 0 0 0 0 0 0 0 0 0 0 0 0 0 0
0 0 0 0 0 0 0 0 0 0 0 0 0 0 0 0 0 0 0 0 0 1284 1251 1259 1296 0 0 1325 1314 1330 1361 1417 1404 0 0 0 0 0 0 0 0 0 0 0 0 0 0 0 0 0 0 0 0 0 0 0 0 0 0 0 0 0 0 0 0 0 0 0 0 0 0 0 0 0 0 0 0 0 0 0 0 0 0 0 0 0 0 0 0 0 0 0 0 0 0 0 0 0 0 0 0 0 0 0 0 0 0 0 0 0 0 0 0 0 0 0 0 0 0 0
0 0 0 0 0 0 0 0 0 0 0 0 0 0 0 0 0 0 0 0 0 0 0 1338 1309 0 0 1302 1347 1323 1347 1422 1400 0 0 0 0 0 0 0 0 0 0 0 0 0 0 0 0 0 0 0 0 0 0 0 0 0 0 0 0 0 0 0 0 0 0 0 0 0 0 0 0 0 0 0 0 0 0 0 0 0 0 0 0 0 0 0 0 0 0 0 0 0 0 0 0 0 0 0 0 0 0 0 0 0 0 1754 0 0 0 0 0 0 0 0 0 0 0 0
0 0 0 0 0 0 0 0 0 0 0 0 0 0 0 0 0 0 0 0 0 0 0 1360 1383 1329 1280 1326 1349 1324 1344 1404 1410 0 0 0 0 0 0 0 0 0 0 0 0 0 0 0 0 0 0 0 0 0 0 0 0 0 0 0 0 0 0 0 0 0 0 0 0 0 0 0 0 0 0 0 0 0 0 0 0 0 0 0 0 0 0 0 0 0 0 0 0 0 0 0 0 0 0 0 0 0 0 0 0 0 1747 1736 1696 0 0 0 0 0 0 0 0 0 0 0
0 0 0 0 0 0 0 0 0 0 0 0 0 0 0 0 0 0 0 0 0 0 0 1344 1385 1383 1323 1296 1337 1346 1337 1392 1413 0 0 0 0 0 0 0 0 0 0 0 0 0 0 0 0 0 0 0 0 0 0 0 0 0 0 0 0 0 0 0 0 0 0 0 0 0 0 0 0 0 0 0 0 0 0 0 0 0 0 0 0 0 0 0 0 0 0 0 0 0 0 0 0 0 0 0 0 0 0 0 0 1779 1732 1700 1707 0 0 0 0 0 0 0 0 0 0 0
0 0 0 0 0 0 0 0 0 0 0 0 0 0 0 0 0 0 0 0 0 0 0 1375 1361 1376 1371 1350 1342 1335 1357 1425 1420 0 0 0 0 0 0 0 0 0 0 0 0 0 0 0 0 0 0 0 0 0 0 0 0 0 0 0 0 0 0 0 0 0 0 0 0 0 0 0 0 0 0 0 0 0 0 0 0 0 0 0 0 0 0 0 0 0 0 0 0 0 0 0 0 0 0 0 0 0 0 0 0 1790 1718 0 0 0 0 0 0 0 0 0 0 0 0 0
0 0 0 0 0 0 0 0 0 0 0 0 0 0 0 0 0 0 0 0 0 0 0 1344 1357 1383 1375 1363 1362 1357 1375 1407 1429 0 0 0 0 0 0 0 0 0 0 0 0 0 0 0 0 0 0 0 0 0 0 0 0 0 0 0 0 0 0 0 0 0 0 0 0 0 0 0 0 0 0 0 0 0 0 0 0 0 0 0 0 0 0 0 0 0 0 0 0 0 0 0 0 0 0 0 0 0 0 0 0 1735 0 1680 1697 0 0 0 0 1692 0 0 0 0 0 0
1254 1255 1253 1278 1263 1303 1293 0 0 0 0 0 0 0 0 0 0 0 0 0 0 0 0 0 1363 1374 1374 1371 1364 1366 1365 1398 1392 0 0 0 0 0 0 0 0 0 0 0 0 0 0 0 0 0 0 0 0 0 0 0 0 0 0 0 0 0 0 0 0 0 0 0 0 0 0 0 0 0 0 0 0 0 0 0 0 0 0 0 0 0 0 0 0 0 0 0 0 0 0 0 0 0 0 0 0 0 0 0 1746 1740 1726 1689 1696 1720 0 0 0 0 0 0 0 0 0 0
1245 1253 1263 1265 1284 1289 1316 1313 1350 1342 1336 0 0 0 0 0 0 0 0 0 0 0 0 1365 1363 1363 1350 1371 1356 1371 1383 1442 1422 0 0 0 0 0 0 0 0 0 0 0 0 0 0 0 0 0 0 0 0 0 0 0 0 0 0 0 0 0 0 0 0 0 0 0 0 0 0 0 0 0 0 0 0 0 0 0 0 0 0 0 0 0 0 0 0 0 0 0 0 0 0 0 0 0 0 0 0 0 0 1788 1734 1749 1712 1710 1716 0 1684 1647 0 0 0 0 0 0 0 0
1268 1254 1258 1267 1295 1293 1319 1297 1319 1329 1349 1357 1363 1384 1391 1396 0 0 0 0 0 0 0 0 0 1357 0 0 1369 0 0 1438 1406 0 0 0 0 0 0 0 0 0 0 0 0 0 0 0 0 0 0 0 0 0 0 0 0 0 0 0 0 0 0 0 0 0 0 0 0 0 0 0 0 0 0 0 0 0 0 0 0 0 0 0 0 0 0 0 0 0 0 0 0 0 0 0 0 0 0 0 0 0 0 1753 1760 1701 1682 1705 1754 1688 1650 1693 0 0 0 0 0 0 0 0
0 0 0 0 1247 1286 1290 1291 1303 1338 1322 1348 1364 1397 1366 1369 1397 1436 1417 1448 1448 0 0 0 0 0 0 0 0 0 0 1419 1421 1467 0 0 0 0 0 0 0 0 0 0 0 0 0 0 0 0 0 0 0 0 0 0 0 0 0 0 0 0 0 0 0 0 0 0 0 0 0 0 0 0 0 0 0 0 0 0 0 0 0 0 0 0 0 0 0 0 0 0 0 0 0 0 0 0 0 0 0 0 1805 1795 1754 1707 1720 1668 1659 1662 0 0 0 0 0 0 0 0 0 0
0 0 0 0 0 0 0 0 0 1345 1319 1339 1343 1362 1391 1386 1394 1414 1432 1447 1452 1498 0 0 0 0 0 0 0 0 0 1453 1477 1477 0 0 0 0 0 0 0 0 0 0 0 0 0 0 0 0 0 0 0 0 0 0 0 0 0 0 0 0 0 0 0 0 0 0 0 0 0 0 0 0 0 0 0 0 0 0 0 0 0 0 0 0 0 0 0 0 0 0 0 0 0 0 0 0 0 0 0 0 0 1761 1673 1669 1616 1592 1625 1569 1600 1612 1594 1580 0 0 0 0 0 0
0 0 0 0 0 0 0 0 0 0 0 0 0 0 0 1414 1397 1428 1463 1441 1455 1518 0 0 0 0 0 0 0 0 0 0 1557 0 0 0 0 0 0 0 0 0 0 0 0 0 0 0 0 0 0 0 0 0 0 0 0 0 0 0 0 0 0 0 0 0 0 0 0 0 0 0 0 0 0 0 0 0 0 0 0 0 0 0 0 0 0 0 0 0 0 0 0 0 0 0 0 0 0 0 0 1798 1629 1584 1592 1616 1582 1616 1592 1593 1611 1598 1604 1642 1604 0 0 0 0 0
0 0 0 0 0 0 0 0 0 0 0 0 0 0 0 0 0 0 0 0 0 1458 0 0 0 0 0 0 0 0 0 0 0 0 0 0 0 0 0 0 0 0 0 0 0 0 0 0 0 0 0 0 0 0 0 0 0 0 0 0 0 0 0 0 0 0 0 0 0 0 0 0 0 0 0 0 0 0 0 0 0 0 0 0 0 0 0 0 0 0 0 0 0 0 0 0 0 0 0 0 0 1617 1595 1582 1602 1580 1586 1578 1577 1604 1560 1583 1571 1582 0 0 0 0 0 0
0 0 0 0 0 0 0 0 0 0 0 0 0 0 0 0 0 0 0 0 0 0 0 0 0 0 0 0 0 0 0 0 0 0 0 0 0 0 0 0 0 0 0 0 0 0 0 0 0 0 0 0 0 0 0 0 0 0 0 0 0 0 0 0 0 0 0 0 0 0 0 0 0 0 0 0 0 0 0 0 0 0 0 0 0 0 0 0 0 0 0 0 0 0 0 0 0 0 0 0 0 0 0 1628 1584 1621 1588 1588 1581 1594 1592 1591 0 0 0 0 0 0 0 0
0 0 0 0 0 0 0 0 0 0 0 0 0 0 0 0 0 0 0 0 0 0 0 0 0 0 0 0 0 0 0 0 0 0 0 0 0 0 0 0 0 0 0 0 0 0 0 0 0 0 0 0 0 0 0 0 0 0 0 0 0 0 0 0 0 0 0 0 0 0 0 0 0 0 0 0 0 0 0 0 0 0 0 0 0 0 0 0 0 0 0 0 0 0 0 0 0 0 0 0 0 0 0 0 0 0 0 1600 0 0 0 0 0 0 0 0 0 0 0 0
0 0 0 0 0 0 0 0 0 0 0 0 0 0 0 0 0 0 0 0 0 0 0 0 0 0 0 0 0 0 0 0 0 0 0 0 0 0 0 0 0 0 0 0 0 0 0 0 0 0 0 0 0 0 0 0 0 0 0 0 0 0 0 0 0 0 0 0 0 0 0 0 0 0 0 0 0 0 0 0 0 0 0 0 0 0 0 0 0 0 0 0 0 0 0 0 0 0 0 0 0 0 0 0 0 0 0 0 0 0 0 0 0 0 0 0 0 0 0 0
594 573 0 0 0 0 0 0 0 0 0 0 0 0 0 0 0 0 0 0 0 0 0 0 0 1871 1888 0 0 0 0 0 0 0 0 0 0 0 0 0 0 0 0 0 0 0 0 2878 2866 2901 2937 2893 2864 2923 2908 2932 2930 2907 2927 2913 2909 2885 2912 2895 2887 2877 0 0 0 0 0 0 0 0 0 0 0 0 0 0 0 0 0 0 0 0 0 0 0 0 0 0 0 0 0 0 1736 1699 0 0 0 0 0 0 0 0 0 0 0 0 0 0 0 0 0 0 0 0 0 0
567 574 598 582 617 644 0 0 0 0 0 0 0 0 0 0 0 0 0 0 0 0 0 0 0 0 0 1888 1937 0 0 0 0 0 0 0 0 0 0 0 0 0 0 0 0 0 0 2946 2959 2908 2887 2892 2925 2903 2873 2966 2926 2935 2896 2902 2884 2886 2873 2907 2920 2895 0 0 0 0 0 0 0 0 0 0 0 0 0 0 0 0 0 0 0 0 0 0 0 0 0 0 0 0 0 0 0 0 0 0 0 0 0 0 0 0 0 0 0 0 0 0 0 0 0 0 0 0 0 0
585 577 590 597 615 635 623 679 663 0 0 0 0 0 0 0 0 0 0 0 0 0 0 0 0 0 0 0 0 0 0 0 0 0 0 0 0 0 0 0 0 0 0 0 0 0 0 2927 2875 2889 2879 2936 2853 2892 2886 2877 2890 2909 2901 2870 2870 2884 2889 2862 2882 0 0 0 0 0 0 0 0 0 0 0 0 0 0 0 0 0 0 0 0 0 0 0 0 0 0 0 0 0 0 0 0 0 0 0 0 0 0 0 0 0 0 0 0 0 0 0 0 0 0 0 0 0 0 0
551 578 586 589 619 638 657 651 677 690 685 707 0 0 0 0 0 0 0 0 0 0 0 0 0 0 0 0 0 0 0 0 0 0 0 0 0 0 0 0 0 0 0 0 0 0 0 2898 2916 2947 2937 2931 2911 2860 2883 2892 2910 2958 2922 2880 2925 2888 2955 2910 2887 2861 0 0 0 0 0 0 0 0 0 0 0 0 0 0 0 0 0 0 0 0 0 0 0 0 0 0 0 0 0 0 0 0 0 0 0 0 0 0 0 0 0 0 0 0 0 0 0 0 0 0 0 0 0 0
558 601 593 601 623 613 641 640 657 663 674 680 702 735 732 0 0 0 0 0 0 0 0 0 0 0 0 0 0 0 0 0 0 0 0 0 0 0 0 0 0 0 0 0 0 0 0 2931 2964 2905 2923 2937 2969 2928 2913 2931 2900 2935 2896 2891 2951 2876 2935 2879 2918 2931 0 0 0 0 0 0 0 0 0 0 0 0 0 0 0 0 0 0 0 0 0 0 0 0 0 0 0 0 0 0 0 0 0 0 0 0 0 0 0 0 0 0 0 0 0 0 0 0 0 0 0 0 0 0
763 761 759 776 710 672 665 672 665 664 680 702 713 744 746 756 758 801 0 0 0 0 0 0 0 0 0 0 0 0 0 0 0 0 0 0 0 0 0 0 0 0 0 0 0 0 0 2963 2943 2929 2934 2866 2889 2929 2856 2904 2859 2865 2848 2888 2904 2875 2894 2885 2921 2889 0 0 0 0 0 0 0 0 0 0 0 0 0 0 0 0 0 0 0 0 0 0 0 0 0 0 0 0 0 0 0 0 0 0 0 0 0 0 0 0 0 0 0 0 0 0 0 0 0 0 0 0 0 0
789 798 812 822 830 850 844 840 814 777 751 721 744 723 719 749 758 773 790 821 829 0 0 0 0 0 0 0 0 0 0 0 0 0 0 0 0 0 0 0 0 0 0 0 0 0 0 2881 2898 2925 2888 2915 2912 2913 2897 2903 2917 2831 2876 2889 2865 2901 2914 2926 2907 2843 0 0 0 0 0 0 0 0 0 0 0 0 0 0 0 0 0 0 0 0 0 0 0 0 0 0 0 0 0 0 0 0 0 0 0 0 0 0 0 0 0 0 0 0 0 0 0 0 0 0 0 0 0 0
735 800 817 822 825 865 862 872 886 891 896 920 928 901 832 783 778 776 789 827 828 856 863 878 0 0 0 0 0 0 0 0 0 0 0 0 0 0 0 0 0 0 0 0 0 0 0 2937 2926 2938 2961 2946 2930 2919 2940 2903 2911 2908 2907 2913 2927 2888 2919 2946 2853 2894 0 0 0 0 0 0 0 0 0 0 0 0 0 0 0 0 0 0 0 0 0 0 0 0 0 0 0 0 0 0 0 0 0 0 0 0 0 0 0 0 0 0 0 0 0 0 0 0 0 0 0 0 0 0
667 0 848 853 841 844 876 897 907 914 944 950 949 952 947 949 940 918 909 847 831 855 883 883 923 957 0 0 0 0 0 0 0 0 0 0 0 0 0 0 0 0 0 0 0 0 0 2874 2880 2907 2881 2890 2850 2878 2903 2894 2869 2913 2925 2858 2838 2872 2909 2856 2851 2899 0 0 0 0 0 0 0 0 0 0 0 0 0 0 0 0 0 0 0 0 0 0 0 0 0 0 0 0 0 0 0 0 0 0 0 0 0 0 0 0 0 0 0 0 0 0 0 0 0 0 0 0 0 0
636 914 946 940 907 918 945 909 907 922 916 943 950 948 945 934 953 943 963 955 936 920 907 902 884 904 946 964 995 0 0 0 0 0 0 0 0 0 0 0 0 0 0 0 0 0 0 2878 2950 2921 2885 2902 2840 2855 2923 2913 2878 2891 2856 2897 2896 2897 2922 2889 2862 0 0 0 0 0 0 0 0 0 0 0 0 0 0 0 0 0 0 0 0 0 0 0 0 0 0 0 0 0 0 0 0 0 0 0 0 0 0 0 0 0 0 0 0 0 0 0 0 0 0 0 0 0 0 0
562 694 0 0 0 0 0 0 0 0 984 924 995 987 958 954 976 952 955 945 943 956 930 938 966 987 973 984 1029 1048 989 0 0 0 0 0 0 0 0 0 0 0 0 0 0 0 0 2878 2935 2857 2898 2878 2896 2913 2893 2898 2938 2896 2885 2896 2869 2918 2893 2882 2915 2870 0 0 0 0 0 0 0 0 0 0 0 0 0 0 0 0 0 0 0 0 0 0 0 0 0 0 0 0 0 0 0 0 0 0 0 0 0 0 0 0 0 0 0 0 0 0 0 0 0 0 0 0 0 0
631 641 666 0 1103 1128 1153 1150 1145 1166 1165 1123 1158 1145 1151 1148 1110 1038 0 0 1023 1097 1060 997 1008 1036 1132 1132 1124 1101 1076 0 0 0 0 0 0 0 0 0 0 0 0 0 0 0 0 2891 2889 2924 2900 2891 2884 2917 2912 2892 2898 2922 2866 2872 2848 2905 2849 2851 2863 2871 0 0 0 0 0 0 0 0 0 0 0 0 0 0 0 0 0 0 0 0 0 0 0 0 0 0 0 0 0 0 0 0 0 0 0 0 0 0 0 0 0 0 0 0 0 0 0 0 0 0 0 0 0 0
585 604 604 635 0 0 0 0 0 0 0 0 0 0 0 0 1404 1028 956 0 0 1159 1076 0 0 1137 1136 1150 1160 1169 1139 0 0 0 0 0 0 0 0 0 0 0 0 0 0 0 0 2876 2920 2863 2941 2914 2926 2884 2915 2837 2882 2917 2878 2848 2834 2904 2909 2894 2829 2837 0 0 0 0 0 0 0 0 0 0 0 0 0 0 0 0 0 0 0 0 0 0 0 0 0 0 0 0 0 0 0 0 0 0 0 0 0 0 0 0 0 0 0 0 0 0 0 0 0 0 0 0 0 0
635 606 589 621 603 0 0 0 0 0 0 0 0 0 0 0 0 1048 967 0 0 0 0 0 0 0 0 0 0 0 0 0 0 0 0 0 0 0 0 0 0 0 0 0 0 0 0 2924 2925 2903 2925 2921 2891 2952 2896 2961 2898 2894 2920 2869 2900 2938 2914 2893 2911 0 0 0 0 0 0 0 0 0 0 0 0 0 0 0 0 0 0 0 0 0 0 0 0 0 0 0 0 0 0 0 0 0 0 0 0 0 0 0 0 0 0 0 0 0 0 0 0 0 0 0 0 0 0 0
585 596 582 622 603 650 0 0 0 0 0 0 0 0 0 0 0 0 0 0 0 0 0 0 0 0 0 0 0 0 0 0 0 0 0 0 0 0 0 0 0 0 0 0 0 0 0 2903 2884 2929 2929 2866 2907 2874 2910 2915 2910 2949 2956 2886 2897 2882 2904 2898 2871 0 0 0 0 0 0 0 0 0 0 0 0 0 0 0 0 0 0 0 0 0 0 0 0 0 0 0 0 0 0 0 0 0 0 0 0 0 0 0 0 0 0 0 0 0 0 0 0 0 0 0 0 0 0 0
596 612 604 602 605 613 0 0 0 0 0 0 0 0 0 0 0 0 0 0 0 0 948 0 0 0 0 0 0 0 0 0 0 0 0 0 0 0 0 0 0 0 0 0 0 0 0 2872 2885 2900 2900 2865 2891 2921 2932 2893 2907 2844 2899 2877 2873 2909 2882 2904 2919 2868 0 0 0 0 0 0 0 0 0 0 0 0 0 0 0 0 0 0 0 0 0 0 0 0 0 0 0 0 0 0 0 0 0 0 0 0 0 0 0 0 0 0 0 0 0 0 0 0 0 0 0 0 0 0
575 627 592 609 593 597 643 0 0 0 0 0 0 0 0 0 0 0 0 0 0 0 0 0 0 0 0 0 0 0 0 0 0 0 0 0 0 0 0 0 0 0 0 0 0 0 0 2910 2946 2930 2883 2915 2865 2909 2889 2868 2895 2904 2889 2934 2892 2900 2908 2855 2888 2912 0 0 0 0 0 0 0 0 0 0 0 0 0 0 0 0 0 0 0 0 0 0 0 0 0 0 0 0 0 0 0 0 0 0 0 0 0 0 0 0 0 0 0 0 0 0 0 0 0 0 0 0 0 0
587 580 596 608 619 608 585 0 0 0 0 0 0 0 0 0 0 0 0 0 0 0 0 0 0 0 0 0 0 0 0 0 0 0 0 0 0 0 0 0 0 0 0 0 0 0 0 2968 2927 2889 2900 2902 2946 2868 2894 2942 2909 2942 2927 2908 2927 2914 2925 2887 2885 2929 0 0 0 0 0 0 0 0 0 0 0 0 0 0 0 0 0 0 0 0 0 0 0 0 0 0 0 0 0 0 0 0 0 0 0 0 0 0 0 0 0 0 0 0 0 0 0 0 0 0 0 0 0 0
587 600 613 637 592 622 615 0 0 0 0 0 0 0 0 0 2283 0 0 0 0 0 958 954 0 0 0 0 0 0 0 0 0 0 0 0 0 0 0 0 0 0 0 0 0 0 0 2938 2929 2875 2909 2920 2931 2892 2925 2913 2908 2895 2938 2856 2891 2908 2896 2868 2883 2888 0 0 0 0 0 0 0 0 0 0 0 0 0 0 0 0 0 0 0 0 0 0 0 0 0 0 0 0 0 0 0 0 0 0 0 0 0 0 0 0 0 0 0 0 0 0 0 0 0 0 0 0 0 0
584 603 584 622 600 592 627 0 0 0 0 0 0 0 0 0 0 0 0 0 0 0 0 0 0 0 0 0 0 0 0 0 0 0 0 0 0 0 0 0 0 0 0 0 0 0 0 2957 2912 2870 2881 2903 2880 2882 2943 2922 2881 2911 2925 2899 2875 2924 2888 2865 2861 2828 0 0 0 0 0 0 0 0 0 0 0 0 0 0 0 0 0 0 0 0 0 0 0 0 0 0 0 0 0 0 0 0 0 0 0 0 0 0 0 0 0 0 0 0 0 0 0 0 0 0 0 0 0 0
586 604 580 645 596 612 0 0 0 0 0 0 0 0 0 0 0 0 0 0 0 0 0 0 0 0 0 0 0 0 0 0 0 0 0 0 0 0 0 0 0 0 0 0 0 0 0 0 0 0 0 0 0 0 0 0 0 0 0 0 0 0 3041 2909 2895 0 0 0 0 0 0 0 0 0 0 0 0 0 0 0 0 0 0 0 0 0 0 0 0 0 0 0 0 0 0 0 0 0 0 0 0 0 0 0 0 0 0 0 0 0 0 0 0 0 0 0 0 0 0 0
584 580 612 584 583 586 0 0 0 0 0 0 0 0 0 0 0 0 0 0 0 0 0 0 0 0 0 0 0 0 0 0 0 0 0 0 0 0 0 0 0 0 0 0 0 0 0 0 0 0 0 0 0 0 0 0 0 0 0 0 0 0 0 0 0 0 0 0 0 0 0 0 0 0 0 0 0 0 0 0 0 0 0 0 0 0 0 0 0 0 0 0 0 0 0 0 0 0 0 0 0 0 0 0 0 0 0 0 0 0 0 0 0 0 0 0 0 0 0 0
597 608 612 593 582 620 0 0 0 0 0 0 0 0 0 0 0 0 0 0 0 0 0 0 0 0 0 0 0 0 0 0 0 0 0 0 0 0 0 0 0 0 0 0 0 0 0 0 0 0 0 0 0 0 0 0 0 0 0 0 0 0 0 0 0 0 0 0 0 0 0 0 0 0 0 0 0 0 0 0 0 0 0 0 0 0 0 0 0 0 0 0 0 0 0 0 0 0 0 0 0 0 0 0 0 0 0 0 0 0 0 0 0 0 0 0 0 0 0 0
585 590 597 561 638 0 0 0 0 0 0 0 0 0 0 0 0 0 0 0 0 0 0 0 0 0 0 0 0 0 0 0 0 0 0 0 0 0 0 0 0 0 0 0 0 0 0 0 0 0 0 0 0 0 0 0 0 0 0 0 0 0 0 0 0 0 0 0 0 0 0 0 0 0 0 0 0 0 0 0 0 0 0 0 0 0 0 0 0 0 0 0 0 0 0 0 0 0 0 0 0 0 0 0 0 0 0 0 0 0 0 0 0 0 0 0 0 0 0 0
609 599 592 644 0 0 0 0 0 0 0 0 0 0 0 0 0 0 0 0 0 0 0 0 0 0 881 888 916 846 887 892 904 907 893 924 0 933 911 900 904 0 0 0 0 0 0 0 0 0 0 0 0 0 0 0 0 0 0 0 0 0 0 0 0 0 0 0 0 0 0 0 0 0 0 0 0 0 0 0 0 0 0 0 0 0 0 0 0 0 0 0 0 0 0 0 0 0 0 0 0 0 0 0 0 0 0 0 0 0 0 0 0 0 0 0 0 0 0 0
597 587 0 0 0 0 651 678 676 682 691 706 671 717 702 710 689 713 708 734 722 722 720 628 730 715 704 718 692 706 691 714 728 710 730 684 752 761 751 747 733 765 742 794 729 794 696 789 787 773 771 707 736 785 737 736 759 765 778 814 736 809 814 783 823 792 787 813 822 749 764 749 788 0 0 774 0 0 0 0 0 0 0 0 0 0 0 0 0 0 0 0 0 0 0 0 0 0 0 0 0 0 0 0 0 0 0 0 0 0 0 0 0 0 0 0 0 0 0 0
554 564 596 587 608 553 571 583 592 584 547 550 594 584 574 579 572 577 593 572 596 595 597 600 609 603 594 614 578 604 605 598 622 607 562 607 633 599 590 626 627 625 626 602 631 650 641 658 625 627 606 619 656 667 639 638 628 634 647 612 657 597 693 663 652 676 647 656 672 693 663 663 701 654 696 644 674 736 642 714 676 680 724 649 673 704 677 709 655 689 709 697 725 749 673 0 663 724 660 725 703 0 0 0 0 0 0 0 0 0 0 0 0 0 0 0 0 0 0 0
499 491 504 490 506 526 505 492 511 490 511 516 532 500 500 516 493 509 506 503 495 525 506 512 494 504 501 512 510 510 522 524 522 511 517 509 514 517 526 539 531 524 527 522 526 516 526 545 536 545 520 541 537 542 533 534 522 533 538 532 542 544 532 525 560 569 535 540 541 543 516 542 514 528 587 561 554 554 550 533 586 571 548 581 557 545 574 557 556 558 580 566 558 567 584 597 595 577 592 593 571 568 564 610 0 642 0 593 578 616 0 0 0 0 0 0 0 0 0 0
431 413 402 418 425 436 427 428 439 448 429 459 423 440 439 432 441 455 448 447 465 449 445 460 442 441 446 449 441 450 453 449 455 436 448 450 469 457 457 462 472 465 461 452 474 462 466 474 459 484 470 468 486 470 478 474 481 469 476 481 480 482 477 490 462 484 498 484 480 482 494 470 476 488 469 480 491 475 473 486 489 482 492 482 512 493 495 496 487 504 483 512 509 493 480 472 524 469 477 489 519 516 463 484 506 463 467 518 528 490 519 518 0 0 0 0 0 0 0 0
385 388 391 393 381 395 397 409 392 396 403 389 409 387 403 382 416 388 402 403 397 410 416 404 408 399 400 418 407 412 410 411 419 419 425 414 415 414 407 421 415 406 411 419 420 417 417 420 425 431 418 431 435 412 429 413 424 414 427 424 410 434 434 429 431 436 423 429 432 439 439 426 432 425 429 418 425 434 426 429 428 428 436 438 438 427 437 447 439 431 424 454 441 422 416 458 448 438 441 448 428 445 437 455 442 422 425 435 430 421 438 443 420 415 0 0 0 0 0 0
351 365 362 332 352 370 356 359 353 358 386 345 354 371 359 372 372 368 370 356 369 364 361 374 363 370 367 360 369 365 365 390 361 379 362 368 384 378 366 378 368 377 368 373 368 374 384 371 383 376 387 382 386 374 377 390 371 384 364 387 389 384 373 394 380 396 391 390 389 395 395 382 387 392 377 393 400 386 390 387 390 386 397 409 383 392 400 387 388 403 392 399 400 398 390 395 393 396 367 391 395 395 387 372 397 406 411 393 376 414 393 392 380 403 363 410 0 0 0 0
311 322 334 321 334 325 331 334 328 340 327 356 337 323 332 332 354 353 328 340 338 348 339 331 342 335 346 349 336 348 341 336 331 345 347 346 339 339 335 349 344 343 340 340 342 334 352 347 348 357 335 346 339 349 342 348 358 335 341 352 337 340 339 342 341 334 342 344 339 351 355 349 348 356 364 360 340 350 355 340 356 349 354 343 346 345 351 351 355 340 351 367 365 333 345 357 346 344 355 368 347 346 358 356 366 356 352 356 383 356 375 351 359 343 378 334 336 0 0 0
301 302 291 293 299 295 300 313 302 315 306 293 310 297 296 305 311 302 296 301 298 302 299 307 296 304 308 308 292 311 298 303 297 315 307 311 307 306 312 316 315 300 312 315 312 308 310 306 322 312 307 315 320 304 310 318 317 316 304 316 322 304 314 325 318 313 322 315 322 312 312 320 321 320 305 330 303 321 309 323 316 314 313 316 316 322 319 322 323 328 320 316 322 310 319 331 331 326 325 338 319 321 341 334 310 337 325 346 331 337 319 358 332 320 335 326 321 316 323 0
277 270 273 280 271 285 276 282 278 273 277 278 283 286 284 282 281 269 282 288 279 271 275 275 281 278 287 272 285 281 277 276 282 273 279 278 278 279 288 286 286 278 292 284 283 280 285 284 284 284 288 285 287 286 284 288 282 287 286 283 285 287 287 291 292 290 286 283 288 291 287 287 291 287 291 293 279 286 305 285 293 303 288 296 297 289 287 292 297 294 285 292 296 294 295 300 291 292 303 290 292 294 287 314 308 294 287 304 306 287 297 284 307 286 295 285 326 281 320 324
263 249 265 253 248 247 252 256 247 254 252 252 256 254 264 256 258 263 258 261 247 260 262 263 261 261 257 258 256 250 259 257 261 255 255 258 267 269 263 254 260 257 263 263 261 262 258 256 267 268 263 273 264 257 270 261 265 269 260 259 269 261 271 263 266 265 267 266 267 268 265 264 265 269 263 267 269 264 264 259 259 265 265 263 268 264 268 267 264 265 269 268 275 266 258 269 265 272 271 273 277 261 257 281 274 277 283 266 264 282 267 271 275 281 278 281 257 272 271 293
231 228 237 235 241 234 246 234 237 240 236 236 240 251 245 238 231 243 244 239 239 244 240 241 241 234 240 242 248 250 240 244 249 245 244 258 248 243 250 248 246 247 240 246 253 247 250 251 247 252 248 252 245 249 247 246 248 250 247 247 251 256 257 255 252 253 255 250 249 255 252 244 252 247 246 246 252 256 251 254 255 254 259 248 254 259 248 253 251 254 252 253 264 251 259 256 258 251 255 254 261 251 250 252 256 251 258 249 255 258 259 259 250 257 261 259 266 264 243 270
214 219 219 213 220 222 227 215 225 210 223 223 229 227 225 217 226 227 227 227 228 222 229 232 227 220 221 228 226 234 230 229 230 228 240 236 231 230 226 232 225 242 233 222 235 226 233 234 239 231 230 231 230 230 232 234 231 230 234 228 240 235 232 231 233 235 236 235 229 232 236 233 232 238 233 233 235 234 230 234 231 230 235 229 239 235 234 232 235 226 241 230 229 231 232 237 236 232 240 246 248 244 247 236 238 226 238 247 237 248 238 241 231 255 240 240 239 241 230 238
209 207 220 217 212 205 210 204 209 214 210 213 206 215 217 213 215 212 209 218 217 209 214 215 209 220 215 215 212 214 216 219 221 216 217 199 215 219 199 216 217 202 195 221 221 223 224 219 218 218 217 223 224 204 208 220 204 201 224 222 221 218 221 225 218 221 228 221 223 222 219 223 221 205 217 224 224 222 220 218 221 226 222 227 221 228 221 214 220 217 224 220 227 218 232 221 226 217 223 216 224 221 221 227 225 221 218 227 228 232 223 217 223 228 224 236 222 208 219 240
191 197 200 203 209 199 206 198 189 199 204 203 183 195 203 191 192 206 193 193 189 191 196 206 189 187 189 196 183 193 191 189 191 184 200 197 192 187 192 186 197 194 197 191 193 194 193 196 201 194 190 202 199 194 191 199 202 205 195 201 199 201 197 199 200 198 194 193 204 192 192 200 192 189 191 193 193 193 201 195 194 197 199 199 198 198 198 190 213 198 213 209 210 207 191 189 194 191 209 211 205 205 208 195 216 207 212 205 202 206 208 220 208 218 217 202 200 201 166 199
178 177 192 193 181 176 183 182 183 184 180 178 181 185 184 183 183 188 189 190 189 190 185 188 191 193 192 182 185 194 191 188 190 193 196 191 188 191 191 192 188 198 197 199 187 196 195 200 199 195 196 198 197 197 194 193 197 199 199 198 194 199 199 198 201 195 197 197 198 198 201 195 197 197 192 194 190 197 197 197 193 194 197 196 188 185 192 193 186 193 192 194 185 192 191 187 182 189 188 183 187 183 182 186 186 182 187 185 208 203 183 199 189 177 176 179 187 179 206 190
171 177 176 175 181 177 177 186 173 183 184 178 180 180 179 180 185 186 186 189 187 189 185 186 184 185 184 185 189 184 186 183 186 185 186 186 184 185 181 185 184 185 191 189 187 188 187 193 189 189 190 190 188 192 183 191 189 194 190 193 188 186 184 189 189 190 187 189 184 189 193 187 190 193 186 188 192 192 186 190 190 190 186 189 189 192 187 188 188 191 183 180 187 187 191 191 191 189 178 182 182 187 177 185 187 185 185 185 181 176 178 186 186 178 172 170 194 197 194 198
172 169 160 169 169 168 165 174 170 168 170 174 168 172 182 173 174 180 183 184 172 175 173 172 171 175 178 174 171 185 176 180 179 175 179 179 180 172 177 180 173 182 176 179 183 180 180 181 181 185 177 185 175 185 179 179 182 180 176 179 182 179 182 183 175 184 184 182 177 176 181 182 178 182 180 178 179 182 184 182 185 179 175 174 174 177 175 178 181 186 177 181 177 174 173 183 172 176 179 177 182 179 173 178 182 179 170 176 179 183 169 173 175 175 175 171 169 176 170 173
170 166 165 164 162 168 159 157 167 167 168 167 171 171 164 168 166 169 174 171 168 167 167 170 171 160 169 171 166 172 169 172 168 169 166 171 172 168 171 169 169 172 176 172 171 173 167 174 172 167 174 170 173 175 172 171 174 177 172 173 170 172 177 173 172 172 177 176 169 167 173 175 177 176 171 173 175 175 171 166 168 173 174 169 170 174 175 166 174 168 170 170 174 170 174 173 173 170 176 175 170 173 174 174 176 176 173 167 164 166 167 169 171 178 170 175 172 178 176 172
155 154 164 157 159 161 165 159 162 160 160 158 159 164 162 166 162 165 163 162 161 163 169 163 163 163 163 157 160 163 163 167 163 164 158 160 160 158 161 163 166 164 163 163 164 167 163 163 160 170 162 168 162 165 165 166 165 165 161 165 165 164 162 161 167 166 161 163 160 162 165 160 167 167 166 165 172 168 165 171 162 163 169 156 162 168 172 166 164 163 167 163 164 164 166 165 163 163 169 167 168 166 160 165 160 163 164 168 158 162 159 179 159 157 170 158 156 159 168 155
145 147 156 145 149 151 150 150 155 155 152 150 147 154 156 154 150 158 153 160 157 148 156 158 157 156 155 155 156 158 158 158 156 157 151 156 152 152 153 161 155 158 159 160 157 156 154 154 156 156 156 155 158 162 155 152 159 155 158 158 164 154 160 161 160 159 156 154 158 160 158 159 156 160 161 160 160 165 161 156 158 157 159 155 154 154 158 159 157 157 157 157 155 156 157 156 153 154 154 158 154 154 153 159 158 152 153 153 161 161 156 156 150 153 154 151 147 143 134 161
136 140 145 142 149 144 143 146 148 143 150 149 143 148 147 143 147 149 139 151 150 154 150 149 151 148 148 150 149 147 151 144 151 148 147 148 152 152 147 151 152 152 153 151 146 151 149 153 147 150 152 157 149 153 150 148 148 156 150 156 154 149 150 156 151 145 155 147 150 148 148 151 149 157 154 154 159 155 157 154 153 151 153 145 149 155 151 150 153 151 154 152 153 150 157 149 148 152 154 158 154 149 154 156 147 154 147 151 151 153 153 158 162 155 159 147 137 140 147 124
138 138 137 138 143 139 138 139 138 137 143 140 143 142 140 146 144 141 143 148 142 146 148 145 141 143 151 141 145 145 139 142 147 141 139 141 139 141 143 147 146 141 149 142 144 146 146 144 147 141 144 146 145 143 145 147 148 152 148 143 152 146 142 147 148 145 148 148 146 149 144 145 146 143 147 146 152 149 152 148 143 145 146 142 145 144 146 145 156 147 145 149 148 147 148 149 142 146 150 151 140 148 150 139 144 140 143 146 149 148 145 139 150 149 149 167 158 137 144 140
131 135 132 131 134 141 137 138 135 137 140 0 132 140 137 139 141 141 140 139 147 140 142 137 140 145 143 140 139 143 128 127 132 130 141 131 132 129 128 139 132 145 138 143 138 139 129 132 126 125 131 144 141 142 143 144 144 146 142 130 128 135 133 147 144 131 142 143 135 127 140 144 133 142 139 143 146 139 145 146 145 129 125 129 143 143 142 141 141 141 128 141 142 141 138 139 145 141 144 142 140 144 141 137 142 140 138 144 140 131 136 134 132 134 139 141 133 124 146 108
130 129 128 133 132 136 142 137 133 138 136 135 136 140 138 133 126 137 137 132 140 140 137 139 142 137 140 136 138 124 126 129 138 128 127 127 130 129 127 130 143 140 139 138 0 140 129 139 131 128 133 128 132 135 0 141 0 130 131 133 129 130 133 131 127 131 146 127 142 131 126 128 129 139 129 128 133 130 132 129 137 141 138 127 139 137 129 125 141 132 125 129 140 136 135 127 137 142 141 141 135 122 127 136 135 120 135 133 139 132 136 139 137 140 136 136 129 142 134 150
111 101 116 106 124 128 135 133 116 118 124 116 120 124 123 125 124 124 131 119 118 127 128 126 137 137 135 139 0 131 129 120 117 119 117 124 129 128 124 126 128 132 129 129 139 0 130 128 127 126 120 119 126 129 125 127 129 128 126 122 127 122 128 125 126 129 127 132 122 124 126 121 123 125 116 127 121 130 124 126 129 127 127 122 116 140 121 125 124 129 123 127 135 126 123 121 136 142 127 131 130 121 125 118 114 122 116 119 129 128 128 131 144 134 121 111 135 136 115 101
109 117 121 110 114 116 122 117 119 119 115 118 118 121 119 118 106 125 123 122 124 125 128 115 125 123 125 128 127 129 128 0 122 117 115 111 122 121 0 122 128 123 0 0 0 0 122 126 124 122 122 126 124 122 125 123 119 121 125 119 124 123 118 123 121 131 122 125 123 117 126 118 126 121 118 117 121 128 124 122 118 118 125 118 114 118 118 119 130 122 115 121 122 122 121 121 136 121 123 122 124 117 122 116 112 127 116 120 130 133 117 129 139 137 112 132 108 105 105 120
104 100 111 122 113 113 112 117 112 109 120 116 111 109 111 113 116 117 114 120 113 111 113 121 115 109 118 120 123 121 124 0 117 120 116 112 116 0 115 117 121 0 0 121 122 0 121 118 112 114 117 121 120 120 120 121 118 122 116 119 118 121 122 121 124 123 122 124 118 118 114 121 117 109 114 110 109 112 116 125 114 121 117 118 119 112 119 124 111 120 119 119 123 113 104 118 125 116 110 118 118 120 112 108 117 110 130 117 127 130 114 126 120 130 123 133 128 112 99 160
96 106 106 101 99 97 111 111 107 113 108 109 107 112 118 117 112 113 110 102 114 105 113 103 110 109 114 116 114 112 120 115 111 114 119 111 107 113 0 115 111 113 110 110 108 114 115 0 115 0 113 109 121 116 0 0 107 107 115 110 123 116 104 111 112 116 114 110 119 110 108 109 108 101 107 110 109 109 110 114 112 109 109 106 111 108 114 115 108 118 107 110 98 108 111 115 112 117 110 107 114 111 117 110 109 108 98 109 111 107 106 107 98 105 100 115 107 113 111 101
101 96 107 107 103 105 110 109 112 106 107 116 107 109 117 116 109 115 114 101 109 101 105 108 116 108 110 114 106 109 113 106 107 109 116 112 115 0 107 110 110 104 110 101 110 108 106 108 113 0 107 110 113 114 110 111 108 108 111 110 106 111 115 0 116 108 105 113 114 112 107 106 107 105 102 103 104 106 102 110 106 105 109 120 100 103 98 110 107 107 106 108 106 102 102 107 107 107 110 109 101 109 113 114 107 105 103 115 94 111 111 110 110 112 121 101 106 112 122 123
83 97 108 106 99 93 100 92 93 90 100 103 101 103 100 101 97 101 102 100 99 102 95 102 100 101 106 98 99 107 110 106 105 101 109 99 105 108 101 104 105 102 102 99 100 103 108 102 104 100 105 107 101 103 106 104 98 103 104 104 99 108 106 0 108 105 0 110 106 105 105 103 100 105 103 107 93 103 0 102 0 101 96 102 95 103 96 100 100 99 100 101 100 100 98 92 102 101 105 94 98 100 107 101 96 103 98 97 96 86 103 92 93 111 111 98 88 112 99 132
91 93 85 90 96 92 96 88 99 94 103 100 93 101 101 94 96 95 105 98 98 91 94 88 97 98 105 99 101 99 104 98 108 100 101 100 99 99 103 98 101 100 104 91 108 100 103 105 102 104 107 100 97 101 95 104 100 106 102 103 104 103 109 99 109 103 104 106 109 98 100 105 99 105 96 96 104 102 99 99 0 102 98 91 100 96 99 107 95 99 98 97 97 100 92 106 90 97 86 101 99 94 100 82 92 102 104 104 93 102 93 89 98 90 94 114 102 88 83 118
86 98 90 99 93 96 96 93 89 94 94 97 94 86 97 87 92 92 101 106 100 96 81 91 94 87 100 93 89 99 98 100 104 99 96 102 98 93 96 107 93 95 93 88 101 97 103 98 94 99 101 94 87 96 97 103 89 95 98 99 95 94 100 0 100 105 99 95 97 96 96 103 101 103 84 105 100 103 100 102 97 96 88 106 100 95 90 92 95 97 101 98 99 82 88 89 91 93 102 93 92 100 97 97 97 95 107 81 91 81 95 94 92 84 94 98 114 96 96 86
83 88 78 89 89 82 83 90 85 80 85 90 95 91 85 92 89 87 82 90 91 93 94 90 89 86 98 96 89 96 92 86 100 95 85 93 88 95 92 95 84 89 86 87 91 94 87 87 96 96 90 93 91 93 93 99 96 91 95 92 98 96 89 98 92 94 91 90 96 96 89 94 99 91 99 92 93 88 97 96 87 95 95 97 88 83 92 93 92 91 93 88 91 93 94 90 94 93 94 90 93 86 86 91 89 80 91 80 85 86 75 73 89 90 82 87 83 63 92 84
92 82 83 88 90 85 84 94 88 90 91 88 88 89 88 87 98 84 89 86 83 92 94 93 94 91 95 93 91 85 89 93 96 93 98 96 92 92 96 95 89 95 97 89 96 97 95 95 92 94 97 99 96 98 93 92 97 89 93 96 97 91 99 94 97 98 91 92 86 93 97 99 98 89 95 91 93 98 84 96 90 85 93 93 96 87 93 90 95 90 97 93 95 89 93 92 87 86 92 97 91 90 93 94 85 98 87 91 86 86 86 87 86 88 95 83 80 106 0 0
86 92 87 83 89 94 83 88 86 0 85 84 83 82 91 78 93 91 85 85 92 92 88 98 81 90 87 89 96 92 90 94 97 96 95 95 93 94 92 94 84 91 95 85 95 87 94 98 91 86 90 95 97 92 96 86 89 92 92 95 95 99 95 93 89 90 92 88 96 96 97 92 98 93 96 91 86 92 89 84 95 92 92 92 93 87 91 99 109 94 89 94 101 92 89 87 83 91 89 91 90 90 90 88 92 81 92 89 90 81 90 76 81 88 83 78 84 83 80 0
81 76 80 86 81 83 91 87 87 80 80 80 91 86 88 90 80 87 84 88 85 87 92 85 86 82 91 87 95 86 87 87 88 92 93 89 89 89 91 93 91 90 95 97 97 86 92 96 91 90 95 96 93 84 97 95 90 97 96 93 93 94 96 90 85 94 86 87 92 94 92 96 94 92 92 86 89 92 89 84 88 89 90 95 85 87 91 89 90 87 91 88 90 89 83 82 85 89 92 88 72 79 89 91 85 83 90 88 70 86 81 92 90 82 77 92 84 52 0 0
78 77 81 79 87 83 90 95 81 88 80 84 85 81 78 89 79 90 87 92 85 89 93 89 81 94 88 87 91 94 90 91 90 87 90 87 91 89 88 90 87 88 91 92 95 90 96 88 89 96 89 81 89 80 84 96 86 93 87 94 94 90 85 87 88 93 87 85 89 96 82 88 95 91 95 89 92 90 93 87 95 88 84 85 91 92 90 92 93 92 91 93 86 87 84 87 90 86 91 89 84 91 81 84 84 88 86 92 87 71 87 85 84 85 106 97 0 0 0 0
80 69 64 62 78 77 83 84 86 75 83 75 77 89 81 74 80 79 80 78 81 75 82 75 73 75 79 79 83 78 88 70 80 87 87 80 81 82 85 79 86 79 83 72 80 84 79 87 81 81 84 77 73 82 83 83 88 83 87 75 86 80 78 78 78 84 79 77 80 77 88 83 85 73 87 80 80 82 89 85 76 80 81 76 78 86 83 83 77 80 84 68 84 76 77 83 71 82 75 81 68 72 75 69 71 77 70 69 72 89 80 74 87 81 74 77 0 0 0 0
69 70 82 78 67 79 85 87 81 82 81 86 76 81 74 80 80 85 74 73 73 86 75 82 87 84 76 71 84 78 81 74 75 81 80 72 73 71 75 74 86 81 84 86 85 89 82 77 85 80 82 72 74 81 86 73 83 79 86 65 81 78 83 81 78 77 82 72 89 67 81 75 80 79 77 85 80 86 84 85 81 74 78 81 71 77 82 70 86 88 64 84 65 72 78 74 89 80 70 70 89 67 74 73 65 80 68 78 74 78 65 59 59 67 77 0 0 0 0 0
