0 0 0 0 0 0 0 0 0 0 0 0 0 0 0 0 0 0 0 0 0 0 0 0 0 0 0 0 0 0 0 0 0 0 0 0 0 0 0 0 0 0 0 0 0 0 0 0 0 0 0 0 0 0 0 0 0 0 0 0 0 0 0 0 0 0 0 0 0 0 0 0 0 0 0 0 0 0 0 0 0 0 0 0 0 0 0 0 0 0 0 0 0 0 0 0 0 0 0 0 0 0 0 0 0 0 0 0 0 0 0 0 0 0 0 0 0 0 0 0
0 0 0 0 0 0 0 0 0 0 0 0 0 0 0 0 0 0 0 0 0 0 0 0 0 0 0 0 0 0 0 0 0 0 0 0 0 0 0 0 0 0 0 0 0 0 0 0 0 0 0 0 0 0 0 0 0 0 0 0 0 0 0 0 0 0 0 0 0 0 0 0 0 0 0 0 0 0 0 0 0 0 0 0 0 0 0 0 0 0 0 0 0 0 0 0 0 0 0 0 0 0 0 0 0 0 0 0 0 0 0 0 0 0 0 0 0 0 0 0
0 0 0 0 0 0 0 0 0 0 0 0 0 0 0 0 0 1327 0 0 0 0 0 0 0 0 0 0 0 0 0 0 0 0 0 0 0 0 0 0 0 0 0 0 0 0 0 0 0 0 0 0 0 0 0 0 0 0 0 0 0 0 0 0 0 0 0 0 0 0 0 0 0 0 0 0 0 0 0 0 0 0 0 0 0 0 0 0 0 0 0 0 0 0 0 0 0 0 0 0 0 0 0 0 0 0 0 0 0 0 0 0 0 0 0 0 0 0 0 0
0 0 0 0 0 0 0 0 0 0 0 1135 1146 1187 0 0 1333 1348 0 0 0 0 1239 0 0 0 0 0 0 0 0 0 0 0 0 0 0 0 0 0 0 0 0 0 0 0 0 0 0 0 0 0 0 0 0 0 0 0 0 0 0 0 0 0 0 0 0 0 0 0 0 0 0 0 0 0 0 0 0 0 0 0 0 0 0 0 0 0 0 0 0 0 0 0 0 0 0 0 0 0 0 0 0 0 0 0 0 0 0 0 0 0 0 0 0 0 0 0 0 0
0 0 0 0 0 0 0 0 1128 1139 1135 1149 1156 1158 1157 0 1268 1305 1284 0 1333 1264 1249 0 0 0 0 0 0 0 0 0 0 0 0 0 0 0 0 0 0 0 0 0 0 0 0 0 0 0 0 0 0 0 0 0 0 0 0 0 0 0 0 0 0 0 0 0 0 0 0 0 0 0 0 0 0 0 0 0 0 0 0 0 0 0 0 0 0 0 0 0 0 0 0 0 0 0 0 0 0 0 0 0 0 0 0 0 0 0 0 0 0 0 0 0 0 0 0 0
0 0 0 0 0 0 0 1112 1137 1144 0 1166 1192 1165 1202 1241 1302 1280 1296 1292 1246 1258 1269 1267 0 0 0 0 0 0 0 0 0 0 0 0 0 0 0 0 0 0 0 0 0 0 0 0 0 0 0 0 0 0 0 0 0 0 0 0 0 0 0 0 0 0 0 0 0 0 0 0 0 0 0 0 0 0 0 0 0 0 0 0 0 0 0 0 0 0 0 0 0 0 0 0 0 0 0 0 0 0 0 0 0 0 0 0 0 0 0 0 0 0 0 0 0 0 0 0
0 0 0 0 0 0 0 0 0 0 0 0 1198 1226 1275 1235 1314 1252 1292 1307 1255 1246 1253 1290 1298 0 0 0 0 0 0 1404 0 0 0 0 0 0 0 0 0 0 0 0 0 0 0 0 0 0 0 0 0 0 0 0 0 0 0 0 0 0 0 0 0 0 0 0 0 0 0 0 0 0 0 0 0 0 0 0 0 0 0 0 0 0 0 0 0 0 0 0 0 0 0 0 0 0 0 0 0 0 0 0 0 0 0 0 0 0 0 0 0 0 0 0 0 0 0 0
0 0 0 0 0 0 0 0 0 0 0 0 1273 1267 1243 1296 1282 1294 1258 1235 1255 1243 1270 1240 0 1318 1325 1365 1363 1337 0 1408 0 0 0 0 0 0 0 0 0 0 0 0 0 0 0 0 0 0 0 0 0 0 0 0 0 0 0 0 0 0 0 0 0 0 0 0 0 0 0 0 0 0 0 0 0 0 0 0 0 0 0 0 0 0 0 0 0 0 0 0 0 0 0 0 0 0 0 0 0 0 0 0 0 0 0 0 0 0 0 0 0 0 0 0 0 0 0 0
0 0 0 0 0 0 0 0 0 0 0 0 1266 1263 1274 1286 1280 1289 1284 1293 1253 1272 1244 1271 0 0 1363 1353 1350 1388 1350 1405 0 0 0 0 0 0 0 0 0 0 0 0 0 0 0 0 0 0 0 0 0 0 0 0 0 0 0 0 0 0 0 0 0 0 0 0 0 0 0 0 0 0 0 0 0 0 0 0 0 0 0 0 0 0 0 0 0 0 0 0 0 0 0 0 0 0 0 0 0 0 0 0 0 0 0 0 0 0 0 0 0 0 0 0 0 0 0 0
0 0 0 0 0 0 0 0 0 0 0 0 0 1278 1270 1266 1269 1283 1251 1277 1218 1249 1252 1240 1238 0 0 1319 1350 1369 1324 1429 1407 0 0 0 0 0 0 0 0 0 0 0 0 0 0 0 0 0 0 0 0 0 0 0 0 0 0 0 0 0 0 0 0 0 0 0 0 0 0 0 0 0 0 0 0 0 0 0 0 0 0 0 0 0 0 0 0 0 0 0 0 0 0 0 0 0 0 0 0 0 0 0 0 0 0 0 0 0 0 0 0 0 0 0 0 0 0 0
0 0 0 0 0 0 0 0 0 0 0 0 0 0 0 0 0 0 0 0 0 1277 1269 1277 1305 0 0 1370 1346 1359 1354 1411 1466 0 0 0 0 0 0 0 0 0 0 0 0 0 0 0 0 0 0 0 0 0 0 0 0 0 0 0 0 0 0 0 0 0 0 0 0 0 0 0 0 0 0 0 0 0 0 0 0 0 0 0 0 0 0 0 0 0 0 0 0 0 0 0 0 0 0 0 0 0 0 0 0 0 0 0 0 0 0 0 0 0 0 0 0 0 0 0
0 0 0 0 0 0 0 0 0 0 0 0 0 0 0 0 0 0 0 0 0 0 0 1355 1333 0 0 0 1367 1347 1365 1417 1433 0 0 0 0 0 0 0 0 0 0 0 0 0 0 0 0 0 0 0 0 0 0 0 0 0 0 0 0 0 0 0 0 0 0 0 0 0 0 0 0 0 0 0 0 0 0 0 0 0 0 0 0 0 0 0 0 0 0 0 0 0 0 0 0 0 0 0 0 0 0 0 0 0 0 1723 0 0 0 0 0 0 0 0 0 0 0 0
0 0 0 0 0 0 0 0 0 0 0 0 0 0 0 0 0 0 0 0 0 0 0 1398 1394 1292 1311 1325 1364 1356 1353 1375 1409 0 0 0 0 0 0 0 0 0 0 0 0 0 0 0 0 0 0 0 0 0 0 0 0 0 0 0 0 0 0 0 0 0 0 0 0 0 0 0 0 0 0 0 0 0 0 0 0 0 0 0 0 0 0 0 0 0 0 0 0 0 0 0 0 0 0 0 0 0 0 0 0 0 1737 1734 1680 0 0 0 0 0 0 0 0 0 0 0
0 0 0 0 0 0 0 0 0 0 0 0 0 0 0 0 0 0 0 0 0 0 0 1372 1380 1371 1357 1359 1343 1325 1348 1464 1453 0 0 0 0 0 0 0 0 0 0 0 0 0 0 0 0 0 0 0 0 0 0 0 0 0 0 0 0 0 0 0 0 0 0 0 0 0 0 0 0 0 0 0 0 0 0 0 0 0 0 0 0 0 0 0 0 0 0 0 0 0 0 0 0 0 0 0 0 0 0 0 0 1764 1806 1723 1745 0 0 0 0 0 0 0 0 0 0 0
0 0 0 0 0 0 0 0 0 0 0 0 0 0 0 0 0 0 0 0 0 0 0 1352 1380 1392 1374 1343 1332 1309 1372 1394 1424 0 0 0 0 0 0 0 0 0 0 0 0 0 0 0 0 0 0 0 0 0 0 0 0 0 0 0 0 0 0 0 0 0 0 0 0 0 0 0 0 0 0 0 0 0 0 0 0 0 0 0 0 0 0 0 0 0 0 0 0 0 0 0 0 0 0 0 0 0 0 0 0 0 1723 0 1725 0 0 0 0 0 0 0 0 0 0 0
0 0 0 0 0 0 0 0 0 0 0 0 0 0 0 0 0 0 0 0 0 0 0 1307 1386 1384 1381 1356 1340 1326 1339 1428 1408 0 0 0 0 0 0 0 0 0 0 0 0 0 0 0 0 0 0 0 0 0 0 0 0 0 0 0 0 0 0 0 0 0 0 0 0 0 0 0 0 0 0 0 0 0 0 0 0 0 0 0 0 0 0 0 0 0 0 0 0 0 0 0 0 0 0 0 0 0 0 0 0 1753 0 1705 1706 0 0 0 0 0 0 0 0 0 0 0
1242 1295 1232 1278 1277 1288 1322 0 0 0 0 0 0 0 0 0 0 0 0 0 0 0 0 0 1367 1374 1359 1368 1379 1385 1343 1438 1403 0 0 0 0 0 0 0 0 0 0 0 0 0 0 0 0 0 0 0 0 0 0 0 0 0 0 0 0 0 0 0 0 0 0 0 0 0 0 0 0 0 0 0 0 0 0 0 0 0 0 0 0 0 0 0 0 0 0 0 0 0 0 0 0 0 0 0 0 0 0 0 1764 1779 1727 1710 1705 1717 0 1664 0 0 0 0 0 0 0 0
1254 1255 1250 1262 1276 1266 1297 1286 1311 1350 1356 0 0 0 0 0 0 0 0 0 0 0 0 1383 1358 1355 1361 1359 1367 1373 1370 1419 1425 0 0 0 0 0 0 0 0 0 0 0 0 0 0 0 0 0 0 0 0 0 0 0 0 0 0 0 0 0 0 0 0 0 0 0 0 0 0 0 0 0 0 0 0 0 0 0 0 0 0 0 0 0 0 0 0 0 0 0 0 0 0 0 0 0 0 0 0 0 0 1727 1784 1759 1712 1745 1718 1655 0 1606 0 0 0 0 0 0 0 0
1251 1270 1243 1279 1295 1283 1291 1323 1320 1343 1360 1393 1366 1386 1413 1450 0 0 0 0 0 0 0 0 0 1359 0 0 1397 0 0 1438 1415 0 0 0 0 0 0 0 0 0 0 0 0 0 0 0 0 0 0 0 0 0 0 0 0 0 0 0 0 0 0 0 0 0 0 0 0 0 0 0 0 0 0 0 0 0 0 0 0 0 0 0 0 0 0 0 0 0 0 0 0 0 0 0 0 0 0 0 0 0 1789 1758 1793 1698 1729 1745 1707 1693 1649 1685 0 0 0 0 0 0 0 0
0 0 0 0 1301 1300 1301 1311 1320 1332 1337 1351 1344 1367 1382 1400 1409 1429 1443 1450 1470 0 0 0 0 0 0 0 0 0 0 1443 1432 1450 0 0 0 0 0 0 0 0 0 0 0 0 0 0 0 0 0 0 0 0 0 0 0 0 0 0 0 0 0 0 0 0 0 0 0 0 0 0 0 0 0 0 0 0 0 0 0 0 0 0 0 0 0 0 0 0 0 0 0 0 0 0 0 0 0 0 0 0 1828 1815 1759 1741 1756 1676 1666 1682 0 0 0 0 0 0 0 0 0 0
0 0 0 0 0 0 0 0 0 1342 1341 1326 1340 1392 1390 1385 1399 1425 1418 1448 1447 1464 0 0 0 0 0 0 0 0 0 1437 1474 1492 0 0 0 0 0 0 0 0 0 0 0 0 0 0 0 0 0 0 0 0 0 0 0 0 0 0 0 0 0 0 0 0 0 0 0 0 0 0 0 0 0 0 0 0 0 0 0 0 0 0 0 0 0 0 0 0 0 0 0 0 0 0 0 0 0 0 0 0 0 1725 1681 1669 1589 1593 1600 1582 1564 1617 1589 1543 0 0 0 0 0 0
0 0 0 0 0 0 0 0 0 0 0 0 0 0 0 1381 1434 1430 1427 1446 1461 1520 0 0 0 0 0 0 0 0 0 0 1486 0 0 0 0 0 0 0 0 0 0 0 0 0 0 0 0 0 0 0 0 0 0 0 0 0 0 0 0 0 0 0 0 0 0 0 0 0 0 0 0 0 0 0 0 0 0 0 0 0 0 0 0 0 0 0 0 0 0 0 0 0 0 0 0 0 0 0 0 1798 1640 1614 1610 1580 1630 1588 1582 1606 1594 1603 1609 1607 1532 0 0 0 0 0
0 0 0 0 0 0 0 0 0 0 0 0 0 0 0 0 0 0 0 0 0 1476 0 0 0 0 0 0 0 0 0 0 0 0 0 0 0 0 0 0 0 0 0 0 0 0 0 0 0 0 0 0 0 0 0 0 0 0 0 0 0 0 0 0 0 0 0 0 0 0 0 0 0 0 0 0 0 0 0 0 0 0 0 0 0 0 0 0 0 0 0 0 0 0 0 0 0 0 0 0 0 1598 1602 1606 1594 1613 1612 1582 1577 1571 1593 1553 1529 1619 0 0 0 0 0 0
0 0 0 0 0 0 0 0 0 0 0 0 0 0 0 0 0 0 0 0 0 0 0 0 0 0 0 0 0 0 0 0 0 0 0 0 0 0 0 0 0 0 0 0 0 0 0 0 0 0 0 0 0 0 0 0 0 0 0 0 0 0 0 0 0 0 0 0 0 0 0 0 0 0 0 0 0 0 0 0 0 0 0 0 0 0 0 0 0 0 0 0 0 0 0 0 0 0 0 0 0 0 1615 1586 1596 1598 1595 1596 1604 1595 1632 1570 0 0 0 0 0 0 0 0
0 0 0 0 0 0 0 0 0 0 0 0 0 0 0 0 0 0 0 0 0 0 0 0 0 0 0 0 0 0 0 0 0 0 0 0 0 0 0 0 0 0 0 0 0 0 0 0 0 0 0 0 0 0 0 0 0 0 0 0 0 0 0 0 0 0 0 0 0 0 0 0 0 0 0 0 0 0 0 0 0 0 0 0 0 0 0 0 0 0 0 0 0 0 0 0 0 0 0 0 0 0 0 0 0 0 1598 1575 0 0 0 0 0 0 0 0 0 0 0 0
0 0 0 0 0 0 0 0 0 0 0 0 0 0 0 0 0 0 0 0 0 0 0 0 0 0 0 0 0 0 0 0 0 0 0 0 0 0 0 0 0 0 0 0 0 0 0 0 0 0 0 0 0 0 0 0 0 0 0 0 0 0 0 0 0 0 0 0 0 0 0 0 0 0 0 0 0 0 0 0 0 0 0 0 0 0 0 0 0 0 0 0 0 0 0 0 0 0 0 0 0 0 0 0 0 0 0 0 0 0 0 0 0 0 0 0 0 0 0 0
561 544 0 0 0 0 0 0 0 0 0 0 0 0 0 0 0 0 0 0 0 0 0 0 0 1827 1895 0 0 0 0 0 0 0 0 0 0 0 0 0 0 0 0 0 0 0 0 2989 2933 2907 2907 2938 2894 2896 2929 2866 2922 2898 2914 0 2930 2878 2920 2901 2898 2913 0 0 0 0 0 0 0 0 0 0 0 0 0 0 0 0 0 0 0 0 0 0 0 0 0 0 0 0 0 0 1747 0 0 0 0 0 0 0 0 0 0 0 0 0 0 0 0 0 0 0 0 0 0 0
571 588 597 579 614 630 0 0 0 0 0 0 0 0 0 0 0 0 0 0 0 0 0 0 0 0 1827 1907 1937 0 0 0 0 0 0 0 0 0 0 0 0 0 0 0 0 0 0 2902 2938 2929 2882 2891 2899 2860 2896 2942 2898 2921 2885 2864 2889 2887 2911 2892 2870 2937 0 0 0 0 0 0 0 0 0 0 0 0 0 0 0 0 0 0 0 0 0 0 0 0 0 0 0 0 0 0 0 0 0 0 0 0 0 0 0 0 0 0 0 0 0 0 0 0 0 0 0 0 0 0
575 582 588 594 627 620 631 626 655 0 0 0 0 0 0 0 0 0 0 0 0 0 0 0 0 0 0 0 0 0 0 0 0 0 0 0 0 0 0 0 0 0 0 0 0 0 0 2908 2916 2923 2887 2853 2926 2919 2943 2936 2886 2938 2899 2945 2915 2913 2919 2923 2921 2920 0 0 0 0 0 0 0 0 0 0 0 0 0 0 0 0 0 0 0 0 0 0 0 0 0 0 0 0 0 0 0 0 0 0 0 0 0 0 0 0 0 0 0 0 0 0 0 0 0 0 0 0 0 0
596 587 598 608 613 642 634 651 680 678 696 758 0 0 0 0 0 0 0 0 0 0 0 0 0 0 0 0 0 0 0 0 0 0 0 0 0 0 0 0 0 0 0 0 0 0 0 2875 2935 2893 2926 2901 2932 2929 2893 2909 2855 2861 2898 2913 2921 2878 2874 2908 2886 2863 0 0 0 0 0 0 0 0 0 0 0 0 0 0 0 0 0 0 0 0 0 0 0 0 0 0 0 0 0 0 0 0 0 0 0 0 0 0 0 0 0 0 0 0 0 0 0 0 0 0 0 0 0 0
601 591 591 582 632 651 641 622 654 679 688 696 712 706 755 0 0 0 0 0 0 0 0 0 0 0 0 0 0 0 0 0 0 0 0 0 0 0 0 0 0 0 0 0 0 0 0 2887 2942 2925 2911 2911 2920 2881 2923 2864 2913 2955 2871 2882 2888 2865 2859 2836 2901 2873 0 0 0 0 0 0 0 0 0 0 0 0 0 0 0 0 0 0 0 0 0 0 0 0 0 0 0 0 0 0 0 0 0 0 0 0 0 0 0 0 0 0 0 0 1776 0 0 0 0 0 0 0 0 0
728 783 757 718 714 656 639 661 679 659 671 699 707 738 753 756 782 826 0 0 0 0 0 0 0 0 0 0 0 0 0 0 0 0 0 0 0 0 0 0 0 0 0 0 0 0 0 2908 2933 2934 2939 2908 2907 2919 2903 2962 2915 2907 2897 2906 2906 2945 2927 2873 2957 2974 0 0 0 0 0 0 0 0 0 0 0 0 0 0 0 0 0 0 0 0 0 0 0 0 0 0 0 0 0 0 0 0 0 0 0 0 0 0 0 0 0 0 0 0 0 0 0 0 0 0 0 0 0 0
778 804 807 809 813 833 847 840 844 783 744 745 723 720 765 737 777 787 795 820 849 0 0 0 0 0 0 0 0 0 0 0 0 0 0 0 0 0 0 0 0 0 0 0 0 0 0 2945 2924 2909 2918 2862 2916 2939 2871 2899 2920 2872 2881 2920 2900 2904 2891 2926 2924 2903 0 0 0 0 0 0 0 0 0 0 0 0 0 0 0 0 0 0 0 0 0 0 0 0 0 0 0 0 0 0 0 0 0 0 0 0 0 0 0 0 0 0 0 0 0 0 0 0 0 0 0 0 0 0
759 786 802 820 833 845 849 868 880 895 907 914 928 882 847 801 760 786 796 817 836 847 863 855 0 0 0 0 0 0 0 0 0 0 0 0 0 0 0 0 0 0 0 0 0 0 0 2953 2935 2930 2895 2930 2961 2944 2911 2884 2926 2943 2902 2906 2881 2894 2940 2897 2900 2852 0 0 0 0 0 0 0 0 0 0 0 0 0 0 0 0 0 0 0 0 0 0 0 0 0 0 0 0 0 0 0 0 0 0 0 0 0 0 0 0 0 0 0 0 0 0 0 0 0 0 0 0 0 0
632 0 838 812 821 873 877 894 910 920 930 947 958 955 952 954 936 933 912 865 836 841 881 892 915 949 0 0 0 0 0 0 0 0 0 0 0 0 0 0 0 0 0 0 0 0 0 2922 2957 2894 2934 2918 2917 2928 2861 2894 2930 2882 2861 2884 2883 2887 2952 2853 2853 2883 0 0 0 0 0 0 0 0 0 0 0 0 0 0 0 0 0 0 0 0 0 0 0 0 0 0 0 0 0 0 0 0 0 0 0 0 0 0 0 0 0 0 0 0 0 0 0 0 0 0 0 0 0 0
677 938 959 932 941 962 0 937 931 945 945 950 950 961 956 953 970 952 955 949 938 936 914 915 961 944 950 1011 994 0 0 0 0 0 0 0 0 0 0 0 0 0 0 0 0 0 0 2951 2877 2923 2938 2815 2908 2870 2901 2913 2862 2878 2875 2872 2889 2860 2870 2903 2880 0 0 0 0 0 0 0 0 0 0 0 0 0 0 0 0 0 0 0 0 0 0 0 0 0 0 0 0 0 0 0 0 0 0 0 0 0 0 0 0 0 0 0 0 0 0 0 0 0 0 0 0 0 0 0
598 725 0 0 0 0 0 0 0 0 971 980 981 982 963 978 940 940 950 952 961 958 954 932 968 969 972 1000 1020 1049 1097 0 0 0 0 0 0 0 0 0 0 0 0 0 0 0 0 2923 2912 2900 2923 2910 2910 2918 2902 2911 2848 2902 2867 2880 2881 2905 2877 2889 2877 2850 0 0 0 0 0 0 0 0 0 0 0 0 0 0 0 0 0 0 0 0 0 0 0 0 0 0 0 0 0 0 0 0 0 0 0 0 0 0 0 0 0 0 0 0 0 0 0 0 0 0 0 0 0 0
584 596 654 0 1136 1126 1156 1158 1145 1154 1151 1147 1149 1153 1147 1141 1119 1038 0 0 1030 1058 1070 1012 1039 1043 1128 1113 1118 1073 1125 0 0 0 0 0 0 0 0 0 0 0 0 0 0 0 0 2894 2916 2874 2905 2888 2863 2930 2871 2931 2889 2877 2876 2864 2879 2899 2920 2844 2822 2897 0 0 0 0 0 0 0 0 0 0 0 0 0 0 0 0 0 0 0 0 0 0 0 0 0 0 0 0 0 0 0 0 0 0 0 0 0 0 0 0 0 0 0 0 0 0 0 0 0 0 0 0 0 0
576 616 615 613 0 0 0 0 0 0 0 0 0 0 0 0 1378 1044 971 0 0 1166 1099 0 0 1073 1174 1184 1138 1142 1136 0 0 0 0 0 0 0 0 0 0 0 0 0 0 0 0 2911 2910 2933 2838 2894 2873 2899 2938 2925 2878 2864 2892 2892 2844 2901 2878 2838 2896 0 0 0 0 0 0 0 0 0 0 0 0 0 0 0 0 0 0 0 0 0 0 0 0 0 0 0 0 0 0 0 0 0 0 0 0 0 0 0 0 0 0 0 0 0 0 0 0 0 0 0 0 0 0 0
570 593 587 612 581 0 0 0 0 0 0 0 0 0 0 0 0 992 972 0 0 0 0 0 0 0 0 0 0 0 0 0 0 0 0 0 0 0 0 0 0 0 0 0 0 0 0 2942 2924 2933 2927 2907 2900 2910 2956 2927 2951 2900 2937 2904 2941 2929 2922 2901 2894 2905 0 0 0 0 0 0 0 0 0 0 0 0 0 0 0 0 0 0 0 0 0 0 0 0 0 0 0 0 0 0 0 0 0 0 0 0 0 0 0 0 0 0 0 0 0 0 0 0 0 0 0 0 0 0
585 614 605 601 599 616 0 0 0 0 0 0 0 0 0 0 0 0 0 0 0 0 0 0 0 0 0 0 0 0 0 0 0 0 0 0 0 0 0 0 0 0 0 0 0 0 0 2882 2890 2865 2915 2885 2910 2927 2903 2878 2849 2896 2886 2887 2850 2858 2881 2880 2853 0 0 0 0 0 0 0 0 0 0 0 0 0 0 0 0 0 0 0 0 0 0 0 0 0 0 0 0 0 0 0 0 0 0 0 0 0 0 0 0 0 0 0 0 0 0 0 0 0 0 0 0 0 0 0
592 579 637 613 605 649 0 0 0 0 0 0 0 0 0 0 0 0 0 0 0 0 0 0 0 0 0 0 0 0 0 0 0 0 0 0 0 0 0 0 0 0 0 0 0 0 0 2928 2951 2900 2923 2892 2924 2951 2907 2929 2916 2934 2930 2890 2915 2941 2937 2898 2885 2896 0 0 0 0 0 0 0 0 0 0 0 0 0 0 0 0 0 0 0 0 0 0 0 0 0 0 0 0 0 0 0 0 0 0 0 0 0 0 0 0 0 0 0 0 0 0 0 0 0 0 0 0 0 0
583 593 585 596 609 610 0 0 0 0 0 0 0 0 0 0 0 0 0 0 0 0 953 0 0 0 0 0 0 0 0 0 0 0 0 0 0 0 0 0 0 0 0 0 0 0 0 2895 2892 2920 2902 2910 2914 2914 2881 2917 2894 2946 2888 2910 2894 2886 2874 2886 2896 0 0 0 0 0 0 0 0 0 0 0 0 0 0 0 0 0 0 0 0 0 0 0 0 0 0 0 0 0 0 0 0 0 0 0 0 0 0 0 0 0 0 0 0 0 0 0 0 0 0 0 0 0 0 0
572 599 615 617 582 583 607 0 0 0 0 0 0 0 0 0 0 0 0 0 0 0 0 0 0 0 0 0 0 0 0 0 0 0 0 0 0 0 0 0 0 0 0 0 0 0 0 2899 2927 2889 2904 2934 2878 2887 2953 2892 2884 2898 2879 2890 2877 2884 2885 2890 2866 2853 0 0 0 0 0 0 0 0 0 0 0 0 0 0 0 0 0 0 0 0 0 0 0 0 0 0 0 0 0 0 0 0 0 0 0 0 0 0 0 0 0 0 0 0 0 0 0 0 0 0 0 0 0 0
599 609 600 596 592 618 615 0 0 0 0 0 0 0 0 0 2285 0 0 0 0 0 954 962 0 0 0 0 0 0 0 0 0 0 0 0 0 0 0 0 0 0 0 0 0 0 0 2899 2872 2920 2909 2900 2905 2863 2898 2876 2912 2886 2861 2905 2884 2881 2862 2872 2897 2852 0 0 0 0 0 0 0 0 0 0 0 0 0 0 0 0 0 0 0 0 0 0 0 0 0 0 0 0 0 0 0 0 0 0 0 0 0 0 0 0 0 0 0 0 0 0 0 0 0 0 0 0 0 0
602 578 580 606 647 562 645 0 0 0 0 0 0 0 0 0 0 0 0 0 0 0 0 0 0 0 0 0 0 0 0 0 0 0 0 0 0 0 0 0 0 0 0 0 0 0 0 2926 2890 2888 2895 2842 2885 2866 2860 2848 2856 2898 2853 2856 2888 2870 2860 2866 2859 2874 0 0 0 0 0 0 0 0 0 0 0 0 0 0 0 0 0 0 0 0 0 0 0 0 0 0 0 0 0 0 0 0 0 0 0 0 0 0 0 0 0 0 0 0 0 0 0 0 0 0 0 0 0 0
585 572 606 603 581 613 0 0 0 0 0 0 0 0 0 0 0 0 0 0 0 0 0 0 0 0 0 0 0 0 0 0 0 0 0 0 0 0 0 0 0 0 0 0 0 0 0 0 0 0 0 0 0 0 0 0 0 0 0 0 0 2948 3046 2903 2878 0 0 0 0 0 0 0 0 0 0 0 0 0 0 0 0 0 0 0 0 0 0 0 0 0 0 0 0 0 0 0 0 0 0 0 0 0 0 0 0 0 0 0 0 0 0 0 0 0 0 0 0 0 0 0
567 590 576 587 624 585 0 0 0 0 0 0 0 0 0 0 0 0 0 0 0 0 0 0 0 0 0 0 0 0 0 0 0 0 0 0 0 0 0 0 0 0 0 0 0 0 0 0 0 0 0 0 0 0 0 0 0 0 0 0 0 0 0 0 0 0 0 0 0 0 0 0 0 0 0 0 0 0 0 0 0 0 0 0 0 0 0 0 0 0 0 0 0 0 0 0 0 0 0 0 0 0 0 0 0 0 0 0 0 0 0 0 0 0 0 0 0 0 0 0
603 602 585 595 615 0 0 0 0 0 0 0 0 0 0 0 0 0 0 0 0 0 0 0 0 0 0 0 0 0 0 0 0 0 0 0 0 0 0 0 0 0 0 0 0 0 0 0 0 0 0 0 0 0 0 0 0 0 0 0 0 0 0 0 0 0 0 0 0 0 0 0 0 0 0 0 0 0 0 0 0 0 0 0 0 0 0 0 0 0 0 0 0 0 0 0 0 0 0 0 0 0 0 0 0 0 0 0 0 0 0 0 0 0 0 0 0 0 0 0
606 587 566 586 573 0 0 0 0 0 0 0 0 0 0 0 0 0 0 0 0 0 0 0 0 0 0 0 0 0 0 0 0 0 0 0 0 0 0 0 0 0 0 0 0 0 0 0 0 0 0 0 0 0 0 0 0 0 0 0 0 0 0 0 0 0 0 0 0 0 0 0 0 0 0 0 0 0 0 0 0 0 0 0 0 0 0 0 0 0 0 0 0 0 0 0 0 0 0 0 0 0 0 0 0 0 0 0 0 0 0 0 0 0 0 0 0 0 0 0
581 605 603 638 0 0 0 0 0 0 0 0 0 0 0 0 0 0 0 0 0 0 0 0 0 0 900 924 871 914 865 942 0 882 929 929 0 892 877 885 0 891 0 0 0 0 0 0 0 0 0 0 0 0 0 0 0 0 0 0 0 0 0 0 0 0 0 0 0 0 0 0 0 0 0 0 0 0 0 0 0 0 0 0 0 0 0 0 0 0 0 0 0 0 0 0 0 0 0 0 0 0 0 0 0 0 0 0 0 0 0 0 0 0 0 0 0 0 0 0
595 562 568 0 0 0 659 685 749 714 691 706 702 717 738 698 730 673 715 694 707 735 714 738 694 701 675 710 725 708 736 751 752 716 709 716 736 701 720 774 753 715 750 742 769 736 767 767 755 789 756 748 781 802 813 743 811 780 792 788 782 751 793 759 754 783 805 812 786 814 813 785 788 0 0 819 0 0 0 0 0 0 0 0 0 0 0 0 0 0 0 0 0 0 0 0 0 0 0 0 0 0 0 0 0 0 0 0 0 0 0 0 0 0 0 0 0 0 0 0
545 556 577 593 571 552 561 578 564 568 602 568 587 590 574 614 572 605 583 584 609 601 591 589 603 621 581 611 617 614 603 587 607 630 600 612 598 620 596 618 622 639 594 631 599 598 644 632 617 644 645 637 619 613 622 628 632 646 591 640 680 616 655 643 654 638 619 630 660 661 639 652 680 667 651 623 682 614 669 690 648 644 667 715 717 634 634 647 686 668 697 719 717 723 710 0 663 658 710 699 626 735 0 0 0 0 0 0 0 0 0 0 0 0 0 0 0 0 0 0
521 518 482 520 484 476 482 518 500 501 505 503 485 510 510 488 478 498 508 530 509 511 503 512 506 515 506 521 510 511 508 515 510 511 511 523 509 513 525 522 522 517 517 530 529 543 536 523 530 519 520 534 529 525 523 529 527 531 532 537 537 550 536 568 558 561 555 555 555 547 564 534 555 549 533 529 577 566 558 562 578 569 599 552 541 545 578 542 593 562 555 564 543 568 597 608 578 620 591 592 615 591 593 637 0 658 0 600 575 584 0 0 0 0 0 0 0 0 0 0
428 429 421 446 429 431 446 418 438 423 440 441 438 438 441 447 434 470 451 453 459 455 456 453 445 460 444 439 460 453 459 450 478 460 455 455 468 457 459 467 465 456 482 474 482 462 467 451 499 481 479 461 470 477 474 457 480 473 480 480 463 469 473 490 478 465 481 487 484 461 488 481 481 485 480 468 479 482 486 481 477 498 487 489 480 498 481 467 487 466 480 497 486 503 485 474 512 503 502 501 480 488 473 464 512 489 451 495 523 521 478 486 0 0 0 0 0 0 0 0
402 377 401 392 387 379 380 397 397 384 402 382 402 385 402 396 396 397 395 394 395 404 401 402 404 412 402 403 399 414 403 405 406 401 408 426 417 410 416 406 415 400 419 416 418 419 421 413 425 415 419 422 409 410 418 416 420 406 435 415 417 424 408 417 416 417 426 433 419 423 431 420 432 423 421 408 421 439 425 416 431 432 424 408 426 435 438 427 433 431 428 431 423 426 422 437 424 428 434 435 441 439 401 453 431 418 437 423 440 444 437 424 443 452 0 0 0 0 0 0
353 358 347 347 341 363 363 345 362 360 364 359 356 365 360 362 362 349 359 357 361 360 358 366 370 368 366 375 356 355 373 383 370 364 368 350 379 373 362 372 375 379 370 372 366 373 393 387 378 366 380 374 375 380 382 377 372 378 378 380 389 385 384 381 385 392 389 393 375 390 382 392 391 386 382 392 414 406 387 390 383 383 384 391 371 390 389 373 380 402 400 400 395 395 393 380 383 398 393 395 409 382 380 398 396 388 395 401 417 389 417 418 408 408 394 380 0 0 0 0
294 301 318 319 309 335 330 339 345 340 322 319 318 336 328 336 335 347 332 332 340 350 328 329 340 335 325 326 342 334 330 330 334 332 338 328 353 324 326 339 329 347 331 331 323 337 350 346 347 347 347 335 348 343 342 335 346 330 335 342 343 343 351 349 352 344 337 348 350 346 351 355 346 346 343 350 338 349 347 337 347 342 349 345 336 357 343 341 345 356 358 344 348 342 352 349 336 361 361 359 357 344 334 354 365 353 353 369 378 343 357 342 378 367 352 351 310 0 0 0
299 296 302 287 300 281 293 301 298 301 305 292 303 298 296 297 295 305 300 308 294 292 298 299 294 291 295 301 298 314 293 297 290 304 301 298 308 310 320 303 310 315 311 307 311 304 306 310 310 312 314 301 312 319 318 311 323 317 312 302 316 322 312 313 304 318 315 306 317 315 320 316 314 309 313 314 322 316 306 310 326 324 318 323 319 321 322 330 326 314 322 325 317 318 324 328 328 312 324 339 311 342 344 314 317 341 327 333 352 326 329 324 301 336 334 331 304 339 347 0
277 276 271 268 292 281 281 288 273 289 276 275 288 288 285 288 284 282 273 285 276 278 279 278 274 279 283 276 289 275 281 278 287 278 283 279 281 278 284 289 285 279 282 293 280 284 284 293 286 280 292 288 291 287 291 289 273 290 292 290 287 283 280 298 291 290 292 283 292 285 294 297 289 288 294 290 289 279 296 291 290 294 293 300 294 293 291 297 302 292 286 296 290 305 297 303 282 291 293 295 291 297 297 286 283 305 302 300 287 292 315 299 298 304 292 299 322 283 296 343
260 252 255 262 251 261 255 244 266 259 247 253 253 254 262 251 252 250 253 258 249 263 260 260 257 260 259 262 258 258 264 262 256 257 262 265 261 258 259 263 261 264 261 263 262 270 265 261 262 271 261 269 265 260 270 263 266 259 260 268 270 267 271 266 272 263 265 270 271 267 263 259 264 269 271 264 261 263 264 264 262 258 267 265 268 265 271 270 260 266 269 269 279 267 261 268 270 275 282 272 273 267 279 280 269 291 265 272 277 276 276 270 287 261 256 286 247 251 276 268
234 231 233 236 245 231 245 227 248 234 233 243 242 247 237 247 244 238 245 246 242 246 243 238 244 238 240 240 246 249 241 246 243 246 246 248 241 240 250 251 238 243 246 242 249 256 246 246 244 246 250 251 247 245 251 245 248 248 249 251 259 249 252 250 253 253 252 250 253 252 252 248 247 246 252 252 252 252 246 246 253 245 258 245 252 254 255 248 254 249 252 256 258 251 256 247 253 247 251 259 259 253 265 255 248 249 264 261 249 259 249 241 278 263 237 261 249 261 239 241
218 219 220 214 218 228 226 218 223 217 227 219 224 232 219 222 219 225 232 230 227 225 232 228 225 221 226 226 232 232 226 227 228 223 231 229 236 233 227 228 224 230 237 231 238 238 239 237 231 230 233 232 229 232 233 233 229 228 233 233 235 236 235 232 242 236 229 237 231 230 235 240 233 234 228 236 237 238 229 231 235 232 232 232 235 237 236 234 232 233 234 231 233 233 228 236 245 240 239 229 237 245 239 240 229 229 231 236 236 237 230 247 243 243 235 240 240 233 253 236
207 205 220 216 218 200 208 210 212 212 212 215 211 220 210 209 213 207 210 217 208 212 211 212 208 212 212 215 210 216 215 217 218 208 213 217 221 203 194 200 201 216 222 215 217 221 221 206 220 220 214 217 205 218 219 221 220 220 221 222 219 207 219 225 223 219 223 223 221 203 220 219 221 216 221 214 218 220 199 219 222 222 224 232 221 218 230 216 222 215 222 211 218 216 221 221 222 216 225 231 215 216 214 231 225 220 223 224 222 232 226 217 221 213 226 228 225 229 225 204
192 198 200 202 210 202 198 202 198 197 183 199 200 206 189 204 192 189 210 190 191 204 194 206 191 190 191 192 189 193 193 190 192 194 194 194 188 197 192 191 191 190 198 197 194 194 197 192 197 191 195 191 194 215 200 202 196 199 196 202 199 196 200 216 192 199 198 193 196 198 191 194 198 194 190 193 198 195 198 190 189 193 215 199 199 199 198 185 198 216 209 198 209 207 207 186 193 209 210 197 209 211 204 197 210 211 215 213 208 210 209 210 212 211 203 201 203 191 202 204
173 176 196 196 191 178 184 181 173 183 184 179 178 181 184 186 179 185 189 177 178 185 183 184 191 193 191 192 185 194 194 189 195 190 193 195 185 187 190 191 187 192 197 198 198 193 195 201 199 194 194 199 196 193 191 197 196 197 200 202 195 196 197 201 200 196 198 199 192 190 196 190 190 197 198 196 198 193 187 195 194 194 194 196 185 189 192 192 192 186 193 188 182 190 177 183 182 182 185 185 187 182 176 188 185 178 178 201 202 207 189 183 186 200 175 176 205 170 201 170
177 173 175 168 179 182 175 181 181 184 184 182 178 180 187 183 183 178 184 186 187 187 186 187 185 187 184 184 189 191 188 181 184 186 184 180 188 183 188 182 186 184 193 188 185 187 192 193 187 187 194 185 189 187 190 195 191 193 187 194 184 190 186 193 191 190 190 190 186 186 191 188 189 186 186 190 190 195 186 188 191 191 186 188 185 192 191 187 186 190 185 186 191 184 188 189 189 190 189 189 185 180 185 179 185 186 180 179 177 183 174 178 177 204 174 181 200 173 175 206
170 171 158 169 172 170 164 174 171 170 173 172 179 171 174 177 174 180 176 178 175 173 171 175 172 169 175 173 173 184 181 178 176 174 178 169 175 173 179 180 177 184 177 179 181 180 181 182 181 183 178 179 178 182 181 183 180 182 180 183 178 182 184 180 179 181 179 185 179 180 179 183 176 183 182 182 184 184 181 179 179 190 176 177 174 179 180 178 178 178 173 175 170 178 185 181 176 177 183 180 174 181 183 179 179 180 164 171 168 178 179 176 179 172 179 167 172 176 170 170
166 164 168 166 166 168 157 161 163 163 171 167 170 167 164 170 166 172 170 167 172 164 166 165 163 164 172 170 170 166 173 174 168 165 164 166 174 164 172 167 165 166 174 168 166 174 168 169 178 172 172 174 176 173 176 171 172 178 171 174 168 171 174 174 175 173 170 169 168 172 174 170 173 165 173 172 171 175 173 170 168 168 174 170 168 175 179 173 175 167 164 170 170 174 167 171 174 171 169 177 165 169 175 169 177 173 177 160 167 161 175 167 167 172 177 172 172 168 164 170
155 160 165 165 162 159 161 160 157 160 166 158 157 161 162 163 166 162 164 166 161 169 168 169 162 162 160 156 164 163 164 170 164 160 159 158 162 157 161 156 164 169 165 165 166 167 166 163 162 163 162 166 166 165 167 168 162 170 164 172 163 164 168 170 163 167 164 162 164 162 161 164 166 164 166 168 172 172 166 167 160 159 169 163 171 167 166 159 164 169 164 160 164 162 162 162 161 161 172 169 168 165 159 167 163 164 167 158 162 160 159 169 166 162 178 159 166 156 160 161
140 150 149 149 151 147 150 152 159 156 147 151 149 148 152 152 151 155 156 161 158 154 158 157 153 155 148 161 161 158 158 157 155 155 153 156 150 156 152 160 154 154 155 155 159 156 155 159 155 155 161 160 161 160 159 154 157 150 162 162 164 154 159 155 156 162 156 162 155 154 158 160 161 159 159 165 162 160 158 156 156 159 159 155 154 158 157 158 160 157 160 155 157 156 163 152 155 157 155 162 151 155 154 153 160 147 152 152 153 158 152 163 154 157 156 152 149 162 152 169
135 140 148 139 148 141 144 149 150 142 146 150 147 149 145 144 140 146 140 149 149 152 155 156 147 150 146 147 150 149 147 148 145 145 148 148 149 151 142 151 155 148 151 150 148 149 149 154 150 151 148 147 143 151 150 145 146 156 153 157 151 148 154 153 149 150 154 154 152 148 149 151 148 150 152 153 156 160 153 150 151 155 151 146 148 148 152 154 152 152 149 151 153 153 156 150 150 150 151 154 146 155 154 153 154 149 150 142 146 149 153 148 143 145 156 139 151 152 151 138
135 135 138 136 142 135 134 134 141 139 140 143 141 141 139 137 146 138 143 148 142 146 143 149 143 144 147 146 146 145 141 132 139 139 138 140 140 145 142 148 150 147 150 146 148 148 140 140 149 148 140 147 144 145 145 148 142 152 148 146 148 145 141 147 145 148 152 151 149 151 146 147 145 143 147 148 148 150 149 149 145 142 147 141 139 142 149 146 148 146 149 148 143 148 148 151 142 146 149 151 146 146 150 140 144 144 144 139 142 145 136 146 147 141 139 144 132 148 147 140
129 135 132 133 135 141 136 137 138 138 138 0 133 138 133 139 142 139 140 140 145 142 141 137 142 145 0 138 137 128 136 128 129 140 129 140 140 129 128 139 140 145 139 142 138 131 130 127 127 121 141 141 141 142 137 142 142 135 144 143 136 132 133 143 135 140 143 141 145 141 141 133 130 141 143 140 141 142 143 147 144 142 128 126 140 143 141 138 142 143 139 140 143 144 141 137 141 141 144 142 138 137 142 143 145 137 135 136 146 136 132 141 130 134 136 141 141 127 136 127
130 132 125 134 135 136 141 135 131 138 136 134 139 135 139 125 127 136 134 125 141 140 140 139 140 135 140 139 139 125 128 125 141 130 127 126 127 130 126 130 138 140 129 129 0 140 128 139 128 129 125 125 131 141 0 143 0 132 138 129 142 132 133 132 128 132 141 129 140 139 125 128 131 129 131 128 140 140 139 132 141 129 129 128 129 125 137 128 142 131 125 142 143 138 135 135 140 138 143 141 135 122 135 139 126 135 122 134 137 140 134 132 132 142 130 132 126 144 132 156
119 101 123 107 126 126 136 133 125 111 123 117 122 132 127 133 120 133 131 122 132 127 128 128 126 136 137 138 0 138 127 125 122 120 125 118 129 126 126 121 129 127 134 128 0 0 128 124 127 124 122 123 127 125 122 130 130 128 131 122 126 119 125 128 125 126 127 129 127 126 124 125 122 124 123 124 120 139 121 124 130 128 124 127 124 127 120 125 126 128 127 137 127 124 119 119 125 136 135 130 132 123 122 122 118 116 128 121 122 121 129 134 136 128 115 132 118 142 138 100
112 116 109 113 109 118 133 118 130 116 117 116 120 125 116 111 114 123 123 125 126 128 126 119 121 123 131 126 124 123 127 0 126 121 113 119 117 121 0 119 128 123 0 0 0 0 122 126 126 120 121 124 122 121 124 123 121 121 119 119 125 124 114 123 126 125 128 122 126 122 124 120 130 123 118 119 116 127 124 127 117 118 121 123 119 117 124 121 127 121 116 121 120 125 121 118 125 125 118 121 115 121 119 119 114 119 121 116 122 136 129 131 115 128 113 109 130 107 126 141
109 97 118 115 112 109 114 113 112 114 122 116 116 116 111 114 119 112 112 125 119 112 109 119 115 110 119 117 117 119 125 0 118 119 117 113 112 0 115 117 125 0 0 121 126 0 121 119 114 110 116 119 122 119 122 122 119 118 114 118 122 122 122 118 121 119 120 119 119 117 118 117 111 117 114 119 119 113 116 120 114 119 116 117 118 116 119 116 115 121 118 120 120 114 106 119 123 118 118 120 117 117 116 109 117 110 116 116 109 132 126 129 120 137 116 112 132 126 108 111
92 108 109 104 100 107 111 112 100 112 107 109 108 110 120 115 110 111 107 104 116 104 110 103 111 109 118 116 115 119 117 115 111 111 112 110 111 115 0 115 115 114 112 109 112 119 118 0 115 0 112 112 118 116 0 0 107 105 116 112 125 115 107 111 109 115 104 106 116 104 114 110 111 106 107 105 109 112 108 111 108 107 111 108 112 108 109 111 110 115 111 105 92 113 112 117 113 114 110 108 109 111 114 106 106 115 102 102 107 114 110 111 102 112 85 105 106 96 97 125
99 91 109 109 106 105 107 108 107 110 106 111 111 107 117 121 107 114 110 107 109 97 99 102 111 110 109 107 103 112 109 108 102 106 115 113 113 0 107 108 105 108 113 101 103 105 107 106 117 0 111 111 109 117 110 117 105 110 113 111 106 109 118 0 116 106 108 110 112 111 110 102 104 110 102 104 102 104 102 112 108 105 107 107 100 109 102 115 105 102 104 112 102 100 94 105 109 104 107 103 98 113 109 111 103 100 102 109 100 116 102 92 115 101 110 105 95 126 104 131
89 89 103 110 98 93 99 99 96 95 102 99 99 101 105 105 97 106 104 96 107 101 94 107 103 103 106 100 100 103 106 105 107 100 104 103 104 104 105 106 101 102 101 99 99 104 112 97 105 97 107 105 103 106 102 104 99 103 108 100 104 107 104 0 111 105 0 110 104 105 98 105 100 110 104 108 101 102 0 99 0 104 95 101 98 101 102 99 96 101 100 103 97 91 95 92 91 100 103 102 99 100 101 102 99 103 99 95 90 87 93 100 90 104 109 90 89 96 102 119
94 88 81 90 94 96 95 90 92 92 97 95 99 98 98 96 97 98 101 98 100 94 91 86 93 101 103 99 102 99 102 103 104 109 99 102 100 99 103 99 98 97 95 95 94 98 103 102 101 102 110 99 100 102 94 98 101 107 107 101 106 105 104 103 110 100 105 108 102 101 100 105 101 100 94 98 104 95 98 98 0 103 93 93 101 97 96 104 98 98 101 101 95 99 93 106 91 93 93 101 99 87 101 86 98 105 93 90 97 98 84 90 97 86 85 102 110 81 83 86
95 100 92 99 90 101 98 87 88 94 93 90 97 82 92 87 93 87 108 104 100 90 81 87 91 88 96 95 93 98 97 101 104 102 93 100 102 95 102 106 93 95 92 89 99 96 102 102 90 98 98 97 87 94 96 102 92 94 94 96 92 94 98 0 98 101 96 99 97 97 95 105 102 104 88 103 100 96 100 102 93 101 90 107 96 101 93 93 90 95 97 93 99 80 89 86 96 91 103 91 94 99 100 96 97 99 97 74 93 89 94 86 92 94 93 84 118 111 101 77
86 89 76 89 89 83 87 88 84 90 86 87 96 89 86 81 88 89 94 81 93 91 94 93 92 88 101 89 91 94 92 89 96 97 92 90 88 89 92 97 91 97 87 91 93 98 94 90 98 97 92 89 98 97 95 94 92 91 97 92 91 90 87 92 94 90 91 91 91 96 98 95 92 90 85 93 93 90 95 98 92 94 96 95 86 96 88 89 90 95 90 87 91 91 94 93 83 88 93 89 93 90 86 77 86 84 90 80 91 90 83 79 85 85 87 93 124 109 72 100
90 82 86 88 90 87 90 99 86 92 85 86 88 90 92 87 96 92 93 92 82 96 91 85 94 88 94 95 90 85 93 96 98 90 100 87 94 91 90 97 91 94 87 90 96 93 92 91 92 92 99 88 95 89 95 96 95 88 91 92 93 93 97 92 89 93 98 91 87 93 99 89 98 91 92 98 94 96 89 93 95 86 100 82 86 87 95 95 92 93 98 100 94 88 90 95 89 85 89 104 92 85 90 95 92 91 92 84 84 79 88 94 85 85 92 92 80 87 0 0
81 85 84 86 86 83 81 86 84 0 82 90 86 91 81 90 93 90 90 85 88 92 90 98 93 88 92 85 90 96 89 90 92 95 94 91 86 95 96 93 84 91 91 86 98 97 90 96 87 98 90 97 86 94 96 95 94 92 97 94 93 86 94 97 98 97 99 93 93 98 98 96 97 97 90 90 85 90 88 97 95 84 90 89 93 87 83 92 104 94 89 95 102 95 88 89 89 93 92 88 84 91 86 90 89 91 86 87 89 89 86 77 85 83 83 80 104 90 126 0
80 83 75 85 86 84 94 89 87 79 83 81 91 90 81 88 81 88 85 91 89 88 91 84 88 85 88 86 93 92 87 89 91 93 84 93 91 92 91 90 91 84 95 97 96 82 91 98 93 94 96 94 87 84 95 97 94 92 89 95 93 95 90 87 87 93 87 89 90 97 91 95 92 97 98 88 91 95 94 88 96 85 93 89 85 90 89 86 84 87 92 89 83 88 84 81 88 88 85 90 77 79 91 80 83 84 88 81 74 82 73 87 82 93 80 80 85 70 0 0
80 75 77 81 83 82 89 89 81 84 79 88 85 84 91 88 79 89 87 89 89 90 85 79 81 83 85 86 90 92 89 86 85 89 86 85 86 89 85 91 84 84 86 95 92 92 86 87 89 90 90 84 87 82 87 90 88 94 86 96 94 89 85 87 87 93 83 84 93 95 88 91 92 85 96 86 90 91 93 85 89 91 86 86 92 93 87 86 94 87 87 91 82 84 85 83 87 92 83 84 91 85 83 76 83 89 85 86 83 76 82 84 79 85 74 67 0 0 0 0
77 71 68 64 78 78 82 82 82 77 81 79 79 90 84 79 81 78 78 79 82 76 85 82 77 74 73 81 82 74 88 75 79 84 89 76 87 81 86 81 88 79 81 74 78 83 80 88 83 80 87 78 79 82 80 83 88 87 85 73 78 80 76 81 82 78 75 79 74 78 82 84 82 74 85 80 74 83 87 85 72 79 76 73 77 86 80 71 75 80 87 71 83 75 82 74 80 79 79 77 74 75 77 61 78 62 76 78 68 84 85 87 80 74 77 81 0 0 0 0
72 67 79 81 69 79 85 87 82 78 79 87 77 80 75 84 83 83 76 78 75 81 75 74 82 82 73 68 76 81 85 78 82 81 77 68 82 81 74 77 85 81 83 81 81 87 79 76 83 82 83 73 72 77 79 73 79 76 85 73 82 77 80 77 82 74 79 75 83 72 76 84 83 79 84 75 82 85 81 84 78 75 82 77 70 80 75 71 78 85 73 83 70 72 84 77 82 73 71 74 88 67 74 73 59 80 64 78 68 85 74 57 66 39 36 0 0 0 0 0
