0 0 0 0 0 0 0 0 0 0 0 0 0 0 0 0 0 0 0 0 0 0 0 0 0 0 0 0 0 0 0 0 0 0 0 0 0 0 0 0 0 0 0 0 0 0 0 0 0 0 0 0 0 0 0 0 0 0 0 0 0 0 0 0 0 0 0 0 0 0 0 0 0 0 0 0 0 0 0 0 0 0 0 0 0 0 0 0 0 0 0 0 0 0 0 0 0 0 0 0 0 0 0 0 0 0 0 0 0 0 0 0 0 0 0 0 0 0 0 0
0 0 0 0 0 0 0 0 0 0 0 0 0 0 0 0 0 0 0 0 0 0 0 0 0 0 0 0 0 0 0 0 0 0 0 0 0 0 0 0 0 0 0 0 0 0 0 0 0 0 0 0 0 0 0 0 0 0 0 0 0 0 0 0 0 0 0 0 0 0 0 0 0 0 0 0 0 0 0 0 0 0 0 0 0 0 0 0 0 0 0 0 0 0 0 0 0 0 0 0 0 0 0 0 0 0 0 0 0 0 0 0 0 0 0 0 0 0 0 0
0 0 0 0 0 0 0 0 0 0 0 0 0 0 0 0 0 1291 0 0 0 0 0 0 0 0 0 0 0 0 0 0 0 0 0 0 0 0 0 0 0 0 0 0 0 0 0 0 0 0 0 0 0 0 0 0 0 0 0 0 0 0 0 0 0 0 0 0 0 0 0 0 0 0 0 0 0 0 0 0 0 0 0 0 0 0 0 0 0 0 0 0 0 0 0 0 0 0 0 0 0 0 0 0 0 0 0 0 0 0 0 0 0 0 0 0 0 0 0 0
0 0 0 0 0 0 0 0 0 0 0 1115 1145 1164 1176 0 1306 1314 0 0 0 0 1315 0 0 0 0 0 0 0 0 0 0 0 0 0 0 0 0 0 0 0 0 0 0 0 0 0 0 0 0 0 0 0 0 0 0 0 0 0 0 0 0 0 0 0 0 0 0 0 0 0 0 0 0 0 0 0 0 0 0 0 0 0 0 0 0 0 0 0 0 0 0 0 0 0 0 0 0 0 0 0 0 0 0 0 0 0 0 0 0 0 0 0 0 0 0 0 0 0
0 0 0 0 0 0 0 0 1144 1149 1170 1130 1163 1179 1184 0 1278 1299 0 0 1267 1255 1290 0 0 0 0 0 0 0 0 0 0 0 0 0 0 0 0 0 0 0 0 0 0 0 0 0 0 0 0 0 0 0 0 0 0 0 0 0 0 0 0 0 0 0 0 0 0 0 0 0 0 0 0 0 0 0 0 0 0 0 0 0 0 0 0 0 0 0 0 0 0 0 0 0 0 0 0 0 0 0 0 0 0 0 0 0 0 0 0 0 0 0 0 0 0 0 0 0
0 0 0 0 0 0 0 1117 1102 1113 1152 0 1161 1146 1157 1185 1306 1260 1275 1292 1223 1226 1245 1250 0 0 0 0 0 0 0 0 0 0 0 0 0 0 0 0 0 0 0 0 0 0 0 0 0 0 0 0 0 0 0 0 0 0 0 0 0 0 0 0 0 0 0 0 0 0 0 0 0 0 0 0 0 0 0 0 0 0 0 0 0 0 0 0 0 0 0 0 0 0 0 0 0 0 0 0 0 0 0 0 0 0 0 0 0 0 0 0 0 0 0 0 0 0 0 0
0 0 0 0 0 0 0 0 0 0 0 0 1221 1225 1242 1268 1293 1250 1275 1271 1296 1276 1264 1286 1333 0 0 0 0 0 0 1413 0 0 0 0 0 0 0 0 0 0 0 0 0 0 0 0 0 0 0 0 0 0 0 0 0 0 0 0 0 0 0 0 0 0 0 0 0 0 0 0 0 0 0 0 0 0 0 0 0 0 0 0 0 0 0 0 0 0 0 0 0 0 0 0 0 0 0 0 0 0 0 0 0 0 0 0 0 0 0 0 0 0 0 0 0 0 0 0
0 0 0 0 0 0 0 0 0 0 0 0 1247 1245 1248 1252 1260 1259 1264 1275 1255 1234 1239 1248 1274 1298 1336 1355 1315 1342 0 1409 0 0 0 0 0 0 0 0 0 0 0 0 0 0 0 0 0 0 0 0 0 0 0 0 0 0 0 0 0 0 0 0 0 0 0 0 0 0 0 0 0 0 0 0 0 0 0 0 0 0 0 0 0 0 0 0 0 0 0 0 0 0 0 0 0 0 0 0 0 0 0 0 0 0 0 0 0 0 0 0 0 0 0 0 0 0 0 0
0 0 0 0 0 0 0 0 0 0 0 0 1269 1278 1284 1297 1294 1275 1268 1251 1290 1267 1289 1283 0 0 1361 1362 1338 1381 1407 1386 0 0 0 0 0 0 0 0 0 0 0 0 0 0 0 0 0 0 0 0 0 0 0 0 0 0 0 0 0 0 0 0 0 0 0 0 0 0 0 0 0 0 0 0 0 0 0 0 0 0 0 0 0 0 0 0 0 0 0 0 0 0 0 0 0 0 0 0 0 0 0 0 0 0 0 0 0 0 0 0 0 0 0 0 0 0 0 0
0 0 0 0 0 0 0 0 0 0 0 0 0 0 1301 1262 1276 1279 1271 1264 1282 1252 1278 1279 1255 0 0 1346 1367 1366 1356 1393 1465 0 0 0 0 0 0 0 0 0 0 0 0 0 0 0 0 0 0 0 0 0 0 0 0 0 0 0 0 0 0 0 0 0 0 0 0 0 0 0 0 0 0 0 0 0 0 0 0 0 0 0 0 0 0 0 0 0 0 0 0 0 0 0 0 0 0 0 0 0 0 0 0 0 0 0 0 0 0 0 0 0 0 0 0 0 0 0
0 0 0 0 0 0 0 0 0 0 0 0 0 0 0 0 0 0 0 0 0 1306 1256 1276 1275 0 0 1368 1328 1367 1357 1416 1412 0 0 0 0 0 0 0 0 0 0 0 0 0 0 0 0 0 0 0 0 0 0 0 0 0 0 0 0 0 0 0 0 0 0 0 0 0 0 0 0 0 0 0 0 0 0 0 0 0 0 0 0 0 0 0 0 0 0 0 0 0 0 0 0 0 0 0 0 0 0 0 0 0 0 0 0 0 0 0 0 0 0 0 0 0 0 0
0 0 0 0 0 0 0 0 0 0 0 0 0 0 0 0 0 0 0 0 0 0 0 1343 1332 0 0 0 1356 1356 1361 1396 1433 0 0 0 0 0 0 0 0 0 0 0 0 0 0 0 0 0 0 0 0 0 0 0 0 0 0 0 0 0 0 0 0 0 0 0 0 0 0 0 0 0 0 0 0 0 0 0 0 0 0 0 0 0 0 0 0 0 0 0 0 0 0 0 0 0 0 0 0 0 0 0 0 0 1805 1771 0 0 0 0 0 0 0 0 0 0 0 0
0 0 0 0 0 0 0 0 0 0 0 0 0 0 0 0 0 0 0 0 0 0 0 1432 1379 1302 1302 1361 1321 1341 1348 1391 1415 0 0 0 0 0 0 0 0 0 0 0 0 0 0 0 0 0 0 0 0 0 0 0 0 0 0 0 0 0 0 0 0 0 0 0 0 0 0 0 0 0 0 0 0 0 0 0 0 0 0 0 0 0 0 0 0 0 0 0 0 0 0 0 0 0 0 0 0 0 0 0 0 0 1741 1777 0 0 0 0 0 0 0 0 0 0 0 0
0 0 0 0 0 0 0 0 0 0 0 0 0 0 0 0 0 0 0 0 0 0 0 1384 1380 1355 1306 1298 1305 1328 1351 1383 1412 0 0 0 0 0 0 0 0 0 0 0 0 0 0 0 0 0 0 0 0 0 0 0 0 0 0 0 0 0 0 0 0 0 0 0 0 0 0 0 0 0 0 0 0 0 0 0 0 0 0 0 0 0 0 0 0 0 0 0 0 0 0 0 0 0 0 0 0 0 0 0 0 1701 1693 1694 1657 0 0 0 0 0 0 0 0 0 0 0
0 0 0 0 0 0 0 0 0 0 0 0 0 0 0 0 0 0 0 0 0 0 0 1397 1374 1382 1370 1340 1347 1340 1366 1409 1432 0 0 0 0 0 0 0 0 0 0 0 0 0 0 0 0 0 0 0 0 0 0 0 0 0 0 0 0 0 0 0 0 0 0 0 0 0 0 0 0 0 0 0 0 0 0 0 0 0 0 0 0 0 0 0 0 0 0 0 0 0 0 0 0 0 0 0 0 0 0 0 0 1783 1789 0 1731 0 0 0 0 0 0 0 0 0 0 0
0 0 0 0 0 0 0 0 0 0 0 0 0 0 0 0 0 0 0 0 0 0 0 1354 1357 1356 1374 1370 1354 1323 1316 1406 1406 0 0 0 0 0 0 0 0 0 0 0 0 0 0 0 0 0 0 0 0 0 0 0 0 0 0 0 0 0 0 0 0 0 0 0 0 0 0 0 0 0 0 0 0 0 0 0 0 0 0 0 0 0 0 0 0 0 0 0 0 0 0 0 0 0 0 0 0 0 0 0 0 0 0 1737 1693 0 0 0 0 1618 0 0 0 0 0 0
1248 1261 1247 1308 1291 1285 1289 0 0 0 0 0 0 0 0 0 0 0 0 0 0 0 0 0 1363 1362 1366 1359 1377 1368 1356 1427 1416 0 0 0 0 0 0 0 0 0 0 0 0 0 0 0 0 0 0 0 0 0 0 0 0 0 0 0 0 0 0 0 0 0 0 0 0 0 0 0 0 0 0 0 0 0 0 0 0 0 0 0 0 0 0 0 0 0 0 0 0 0 0 0 0 0 0 0 0 0 0 0 1782 1716 1692 1703 1742 1691 0 1663 0 0 0 0 0 0 0 0
1257 1265 1258 1273 1285 1286 1298 1303 1330 1333 1341 1350 0 0 0 0 0 0 0 0 0 0 0 1366 1356 1374 1374 1359 1386 1362 1385 1420 1416 0 0 0 0 0 0 0 0 0 0 0 0 0 0 0 0 0 0 0 0 0 0 0 0 0 0 0 0 0 0 0 0 0 0 0 0 0 0 0 0 0 0 0 0 0 0 0 0 0 0 0 0 0 0 0 0 0 0 0 0 0 0 0 0 0 0 0 0 0 0 1782 1747 1737 1736 1722 1673 1708 1679 1647 0 0 0 0 0 0 0 0
1221 1284 1265 1269 1282 1289 1301 1327 1316 1337 1356 1379 1367 1368 1367 1379 0 0 0 0 0 0 0 0 0 1391 0 0 1372 0 0 1406 1403 0 0 0 0 0 0 0 0 0 0 0 0 0 0 0 0 0 0 0 0 0 0 0 0 0 0 0 0 0 0 0 0 0 0 0 0 0 0 0 0 0 0 0 0 0 0 0 0 0 0 0 0 0 0 0 0 0 0 0 0 0 0 0 0 0 0 0 0 0 1763 1780 1747 1712 1724 1698 1760 1734 1683 1641 0 0 0 0 0 0 0 0
0 0 0 0 1286 1325 1294 1309 1333 1330 1332 1345 1354 1402 1395 1416 1421 1448 1471 1452 0 0 0 0 0 0 0 0 0 0 0 1435 1462 1448 0 0 0 0 0 0 0 0 0 0 0 0 0 0 0 0 0 0 0 0 0 0 0 0 0 0 0 0 0 0 0 0 0 0 0 0 0 0 0 0 0 0 0 0 0 0 0 0 0 0 0 0 0 0 0 0 0 0 0 0 0 0 0 0 0 0 0 0 1820 1795 1755 1739 1739 1714 1709 1706 0 0 0 0 0 0 0 0 0 0
0 0 0 0 0 0 0 0 0 1331 1365 1356 1376 1385 1417 1383 1393 1433 1409 1436 1453 1469 0 0 0 0 0 0 0 0 0 1459 1476 1469 0 0 0 0 0 0 0 0 0 0 0 0 0 0 0 0 0 0 0 0 0 0 0 0 0 0 0 0 0 0 0 0 0 0 0 0 0 0 0 0 0 0 0 0 0 0 0 0 0 0 0 0 0 0 0 0 0 0 0 0 0 0 0 0 0 0 0 0 0 1741 1689 1611 1586 1608 1594 1608 1579 1613 1581 1606 1588 0 0 0 0 0
0 0 0 0 0 0 0 0 0 0 0 0 0 0 0 1356 1377 1415 1423 1416 1425 1444 0 0 0 0 0 0 0 0 0 0 1476 0 0 0 0 0 0 0 0 0 0 0 0 0 0 0 0 0 0 0 0 0 0 0 0 0 0 0 0 0 0 0 0 0 0 0 0 0 0 0 0 0 0 0 0 0 0 0 0 0 0 0 0 0 0 0 0 0 0 0 0 0 0 0 0 0 0 0 0 1661 1583 1592 1601 1583 1565 1586 1563 1576 1559 1533 1551 1563 1576 0 0 0 0 0
0 0 0 0 0 0 0 0 0 0 0 0 0 0 0 0 0 0 0 0 0 1464 0 0 0 0 0 0 0 0 0 0 0 0 0 0 0 0 0 0 0 0 0 0 0 0 0 0 0 0 0 0 0 0 0 0 0 0 0 0 0 0 0 0 0 0 0 0 0 0 0 0 0 0 0 0 0 0 0 0 0 0 0 0 0 0 0 0 0 0 0 0 0 0 0 0 0 0 0 0 0 1578 1620 1621 1567 1573 1588 1579 1592 1527 1601 1592 1590 1601 0 0 0 0 0 0
0 0 0 0 0 0 0 0 0 0 0 0 0 0 0 0 0 0 0 0 0 0 0 0 0 0 0 0 0 0 0 0 0 0 0 0 0 0 0 0 0 0 0 0 0 0 0 0 0 0 0 0 0 0 0 0 0 0 0 0 0 0 0 0 0 0 0 0 0 0 0 0 0 0 0 0 0 0 0 0 0 0 0 0 0 0 0 0 0 0 0 0 0 0 0 0 0 0 0 0 0 0 0 1556 1599 1581 1563 1552 1577 1572 1596 1548 0 0 0 0 0 0 0 0
0 0 0 0 0 0 0 0 0 0 0 0 0 0 0 0 0 0 0 0 0 0 0 0 0 0 0 0 0 0 0 0 0 0 0 0 0 0 0 0 0 0 0 0 0 0 0 0 0 0 0 0 0 0 0 0 0 0 0 0 0 0 0 0 0 0 0 0 0 0 0 0 0 0 0 0 0 0 0 0 0 0 0 0 0 0 0 0 0 0 0 0 0 0 0 0 0 0 0 0 0 0 0 0 0 0 0 1590 1607 0 0 0 0 0 0 0 0 0 0 0
0 0 0 0 0 0 0 0 0 0 0 0 0 0 0 0 0 0 0 0 0 0 0 0 0 0 0 0 0 0 0 0 0 0 0 0 0 0 0 0 0 0 0 0 0 0 0 0 0 0 0 0 0 0 0 0 0 0 0 0 0 0 0 0 0 0 0 0 0 0 0 0 0 0 0 0 0 0 0 0 0 0 0 0 0 0 0 0 0 0 0 0 0 0 0 0 0 0 0 0 0 0 0 0 0 0 0 0 0 0 0 0 0 0 0 0 0 0 0 0
561 575 0 0 0 0 0 0 0 0 0 0 0 0 0 0 0 0 0 0 0 0 0 0 0 1840 1903 0 0 0 0 0 0 0 0 0 0 0 0 0 0 0 0 0 0 0 0 2837 2885 2902 2912 2940 2935 2919 2934 2859 2854 2936 2960 2912 2882 2907 2892 2864 2861 2940 0 0 0 0 0 0 0 0 0 0 0 0 0 0 0 0 0 0 0 0 0 0 0 0 0 0 0 0 0 1805 1700 0 0 0 0 0 0 0 0 0 0 0 0 0 0 0 0 0 0 0 0 0 0 0
564 578 610 605 620 643 0 0 0 0 0 0 0 0 0 0 0 0 0 0 0 0 0 0 0 0 0 1945 1954 0 0 0 0 0 0 0 0 0 0 0 0 0 0 0 0 0 0 2882 2902 2921 2921 2934 2922 2921 2906 2919 2922 2890 2904 2882 2919 2918 2879 2874 2945 2883 0 0 0 0 0 0 0 0 0 0 0 0 0 0 0 0 0 0 0 0 0 0 0 0 0 0 0 0 0 0 0 0 0 0 0 0 0 0 0 0 0 0 0 0 0 0 0 0 0 0 0 0 0 0
570 582 578 596 621 620 621 645 673 0 0 0 0 0 0 0 0 0 0 0 0 0 0 0 0 0 0 0 0 0 0 0 0 0 0 0 0 0 0 0 0 0 0 0 0 0 0 2928 2921 2894 2874 2936 2907 2919 2960 2866 2927 2894 2935 2892 2958 2927 2872 2910 2887 0 0 0 0 0 0 0 0 0 0 0 0 0 0 0 0 0 0 0 0 0 0 0 0 0 0 0 0 0 0 0 0 0 0 0 0 0 0 0 0 0 0 0 0 0 0 0 0 0 0 0 0 0 0 0
582 608 600 605 613 619 629 646 672 670 664 713 0 0 0 0 0 0 0 0 0 0 0 0 0 0 0 0 0 0 0 0 0 0 0 0 0 0 0 0 0 0 0 0 0 0 0 2924 2916 2869 2904 2932 2927 2898 2951 2902 2966 2883 2907 2843 2958 2895 2896 2846 2919 0 0 0 0 0 0 0 0 0 0 0 0 0 0 0 0 0 0 0 0 0 0 0 0 0 0 0 0 0 0 0 0 0 0 0 0 0 0 0 0 0 0 0 0 0 0 0 0 0 0 0 0 0 0 0
570 598 569 602 612 628 622 649 656 686 674 687 705 726 759 0 0 0 0 0 0 0 0 0 0 0 0 0 0 0 0 0 0 0 0 0 0 0 0 0 0 0 0 0 0 0 0 2873 2912 2912 2867 2925 2864 2952 2945 2938 2867 2918 2932 2866 2916 2908 2919 2907 2927 2906 0 0 0 0 0 0 0 0 0 0 0 0 0 0 0 0 0 0 0 0 0 0 0 0 0 0 0 0 0 0 0 0 0 0 0 0 0 0 0 0 0 0 0 0 0 0 0 0 0 0 0 0 0 0
739 756 770 742 724 661 661 664 643 660 694 696 719 699 713 762 772 712 0 0 0 0 0 0 0 0 0 0 0 0 0 0 0 0 0 0 0 0 0 0 0 0 0 0 0 0 0 2898 2928 2893 2880 2957 2862 2872 2878 2907 2930 2915 2891 2877 2919 2904 2918 2905 2851 0 0 0 0 0 0 0 0 0 0 0 0 0 0 0 0 0 0 0 0 0 0 0 0 0 0 0 0 0 0 0 0 0 0 0 0 0 0 0 0 0 0 0 0 0 0 0 0 0 0 0 0 0 0 0
771 783 803 804 821 842 823 828 822 808 747 718 715 716 733 760 759 764 793 796 857 0 0 0 0 0 0 0 0 0 0 0 0 0 0 0 0 0 0 0 0 0 0 0 0 0 0 2956 2893 2926 2889 2919 2929 2945 2904 2906 2889 2900 2951 2904 2927 2903 2942 2915 2924 2894 0 0 0 0 0 0 0 0 0 0 0 0 0 0 0 0 0 0 0 0 0 0 0 0 0 0 0 0 0 0 0 0 0 0 0 0 0 0 0 0 0 0 0 0 0 0 0 0 0 0 0 0 0 0
771 790 836 838 847 860 887 881 909 920 903 926 939 876 842 798 776 798 779 810 848 859 856 927 0 0 0 0 0 0 0 0 0 0 0 0 0 0 0 0 0 0 0 0 0 0 0 2877 2871 2925 2907 2885 2877 2871 2906 2930 2918 2884 2883 2872 2883 2911 2893 2904 2907 2892 0 0 0 0 0 0 0 0 0 0 0 0 0 0 0 0 0 0 0 0 0 0 0 0 0 0 0 0 0 0 0 0 0 0 0 0 0 0 0 0 0 0 0 0 0 0 0 0 0 0 0 0 0 0
601 0 867 852 841 852 890 889 899 907 931 953 958 964 945 959 944 924 908 853 844 852 863 892 952 914 0 0 0 0 0 0 0 0 0 0 0 0 0 0 0 0 0 0 0 0 0 2892 2954 2964 2879 2858 2862 2912 2886 2909 2873 2864 2861 2904 2899 2863 2875 2911 2870 2881 0 0 0 0 0 0 0 0 0 0 0 0 0 0 0 0 0 0 0 0 0 0 0 0 0 0 0 0 0 0 0 0 0 0 0 0 0 0 0 0 0 0 0 0 0 0 0 0 0 0 0 0 0 0
639 932 929 937 932 925 899 0 927 912 943 966 930 970 957 953 951 948 950 959 953 923 906 916 915 954 977 971 966 0 0 0 0 0 0 0 0 0 0 0 0 0 0 0 0 0 0 2931 2916 2875 2894 2877 2926 2890 2879 2935 2919 2913 2862 2869 2936 2854 2882 2891 2875 2899 0 0 0 0 0 0 0 0 0 0 0 0 0 0 0 0 0 0 0 0 0 0 0 0 0 0 0 0 0 0 0 0 0 0 0 0 0 0 0 0 0 0 0 0 0 0 0 0 0 0 0 0 0 0
616 726 0 0 0 0 0 0 0 0 958 976 984 979 965 942 946 960 944 953 927 949 939 937 951 988 972 962 1039 1008 1040 0 0 0 0 0 0 0 0 0 0 0 0 0 0 0 0 2921 2916 2922 2900 2888 2921 2874 2938 2911 2873 2929 2917 2912 2919 2923 2912 2894 2879 2871 0 0 0 0 0 0 0 0 0 0 0 0 0 0 0 0 0 0 0 0 0 0 0 0 0 0 0 0 0 0 0 0 0 0 0 0 0 0 0 0 0 0 0 0 0 0 0 0 0 0 0 0 0 0
576 601 618 0 1093 1125 1137 1148 1128 1137 1127 1157 1140 1142 1144 1148 1118 1040 0 986 1033 1055 1073 981 1017 1024 1123 1119 1076 1089 1078 0 0 0 0 0 0 0 0 0 0 0 0 0 0 0 0 2901 2934 2960 2857 2933 2934 2907 2972 2911 2841 2943 2913 2880 2919 2892 2935 2862 2917 2885 0 0 0 0 0 0 0 0 0 0 0 0 0 0 0 0 0 0 0 0 0 0 0 0 0 0 0 0 0 0 0 0 0 0 0 0 0 0 0 0 0 0 0 0 0 0 0 0 0 0 0 0 0 0
581 574 588 605 0 0 0 0 0 0 0 0 0 0 0 0 1384 1025 994 0 0 1144 1101 0 0 1105 1132 1150 1133 1148 1123 0 0 0 0 0 0 0 0 0 0 0 0 0 0 0 0 2846 2893 2906 2925 2937 2882 2881 2907 2919 2959 2890 2912 2867 2892 2916 2889 2867 2867 0 0 0 0 0 0 0 0 0 0 0 0 0 0 0 0 0 0 0 0 0 0 0 0 0 0 0 0 0 0 0 0 0 0 0 0 0 0 0 0 0 0 0 0 0 0 0 0 0 0 0 0 0 0 0
572 575 596 593 638 0 0 0 0 0 0 0 0 0 0 0 0 993 955 0 0 0 0 0 0 0 0 0 0 0 0 0 0 0 0 0 0 0 0 0 0 0 0 0 0 0 0 2948 2913 2931 2897 2931 2911 2942 2945 2935 2947 2899 2924 2955 2887 2922 2900 2899 2925 0 0 0 0 0 0 0 0 0 0 0 0 0 0 0 0 0 0 0 0 0 0 0 0 0 0 0 0 0 0 0 0 0 0 0 0 0 0 0 0 0 0 0 0 0 0 0 0 0 0 0 0 0 0 0
588 554 604 602 602 615 0 0 0 0 0 0 0 0 0 0 0 0 0 0 0 0 0 0 0 0 0 0 0 0 0 0 0 0 0 0 0 0 0 0 0 0 0 0 0 0 0 2902 2908 2852 2917 2867 2901 2884 2961 2909 2890 2930 2908 2898 2876 2926 2901 2923 2939 0 0 0 0 0 0 0 0 0 0 0 0 0 0 0 0 0 0 0 0 0 0 0 0 0 0 0 0 0 0 0 0 0 0 0 0 0 0 0 0 0 0 0 0 0 0 0 0 0 0 0 0 0 0 0
609 610 633 641 616 614 0 0 0 0 0 0 0 0 0 0 0 0 0 0 0 0 1001 0 0 0 0 0 0 0 0 0 0 0 0 0 0 0 0 0 0 0 0 0 0 0 0 2922 2889 2902 2908 2846 2921 2909 2910 2878 2868 2912 2904 2902 2878 2854 2880 2865 2866 2869 0 0 0 0 0 0 0 0 0 0 0 0 0 0 0 0 0 0 0 0 0 0 0 0 0 0 0 0 0 0 0 0 0 0 0 0 0 0 0 0 0 0 0 0 0 0 0 0 0 0 0 0 0 0
572 578 588 604 607 621 0 0 0 0 0 0 0 0 0 0 0 0 0 0 0 0 969 0 0 0 0 0 0 0 0 0 0 0 0 0 0 0 0 0 0 0 0 0 0 0 0 2850 2867 2866 2887 2875 2911 2869 2900 2892 2868 2883 2922 2881 2934 2903 2912 2905 2896 2845 0 0 0 0 0 0 0 0 0 0 0 0 0 0 0 0 0 0 0 0 0 0 0 0 0 0 0 0 0 0 0 0 0 0 0 0 0 0 0 0 0 0 0 0 0 0 0 0 0 0 0 0 0 0
606 600 603 611 580 596 601 0 0 0 0 0 0 0 0 0 0 0 0 0 0 0 0 0 0 0 0 0 0 0 0 0 0 0 0 0 0 0 0 0 0 0 0 0 0 0 0 2900 2914 2905 2913 2870 2884 2952 2899 2890 2867 2888 2932 2906 2877 2864 2878 2887 2906 2915 0 0 0 0 0 0 0 0 0 0 0 0 0 0 0 0 0 0 0 0 0 0 0 0 0 0 0 0 0 0 0 0 0 0 0 0 0 0 0 0 0 0 0 0 0 0 0 0 0 0 0 0 0 0
602 570 615 613 585 592 582 0 0 0 0 0 0 0 0 0 2330 0 0 0 0 0 958 1012 0 0 0 0 0 0 0 0 0 0 0 0 0 0 0 0 0 0 0 0 0 0 0 2910 2888 2910 2943 2900 2931 2861 2879 2871 2867 2881 2886 2914 2900 2878 2901 2865 2882 2848 0 0 0 0 0 0 0 0 0 0 0 0 0 0 0 0 0 0 0 0 0 0 0 0 0 0 0 0 0 0 0 0 0 0 0 0 0 0 0 0 0 0 0 0 0 0 0 0 0 0 0 0 0 0
569 595 592 581 609 596 598 0 0 0 0 0 0 0 0 0 0 0 0 0 0 0 0 0 0 0 0 0 0 0 0 0 0 0 0 0 0 0 0 0 0 0 0 0 0 0 0 2907 2904 2923 2900 2935 2890 2982 2891 2893 2907 2904 2903 2899 2872 2891 2879 2895 2872 2853 0 0 0 0 0 0 0 0 0 0 0 0 0 0 0 0 0 0 0 0 0 0 0 0 0 0 0 0 0 0 0 0 0 0 0 0 0 0 0 0 0 0 0 0 0 0 0 0 0 0 0 0 0 0
614 582 580 596 591 642 0 0 0 0 0 0 0 0 0 0 0 0 0 0 0 0 0 0 0 0 0 0 0 0 0 0 0 0 0 0 0 0 0 0 0 0 0 0 0 0 0 0 0 0 0 0 0 0 0 0 0 0 0 0 0 2964 3007 2896 2869 0 0 0 0 0 0 0 0 0 0 0 0 0 0 0 0 0 0 0 0 0 0 0 0 0 0 0 0 0 0 0 0 0 0 0 0 0 0 0 0 0 0 0 0 0 0 0 0 0 0 0 0 0 0 0
597 591 600 610 581 588 0 0 0 0 0 0 0 0 0 0 0 0 0 0 0 0 0 0 0 0 0 0 0 0 0 0 0 0 0 0 0 0 0 0 0 0 0 0 0 0 0 0 0 0 0 0 0 0 0 0 0 0 0 0 0 0 0 0 0 0 0 0 0 0 0 0 0 0 0 0 0 0 0 0 0 0 0 0 0 0 0 0 0 0 0 0 0 0 0 0 0 0 0 0 0 0 0 0 0 0 0 0 0 0 0 0 0 0 0 0 0 0 0 0
595 605 596 590 597 0 0 0 0 0 0 0 0 0 0 0 0 0 0 0 0 0 0 0 0 0 0 0 0 0 0 0 0 0 0 0 0 0 0 0 0 0 0 0 0 0 0 0 0 0 0 0 0 0 0 0 0 0 0 0 0 0 0 0 0 0 0 0 0 0 0 0 0 0 0 0 0 0 0 0 0 0 0 0 0 0 0 0 0 0 0 0 0 0 0 0 0 0 0 0 0 0 0 0 0 0 0 0 0 0 0 0 0 0 0 0 0 0 0 0
588 566 611 587 588 0 0 0 0 0 0 0 0 0 0 0 0 0 0 0 0 0 0 0 0 0 0 0 0 0 0 0 0 0 0 0 0 0 0 0 0 0 0 0 0 0 0 0 0 0 0 0 0 0 0 0 0 0 0 0 0 0 0 0 0 0 0 0 0 0 0 0 0 0 0 0 0 0 0 0 0 0 0 0 0 0 0 0 0 0 0 0 0 0 0 0 0 0 0 0 0 0 0 0 0 0 0 0 0 0 0 0 0 0 0 0 0 0 0 0
608 595 556 581 0 0 0 0 0 0 0 0 0 0 0 0 0 0 0 0 0 0 0 0 0 0 885 880 871 858 884 0 877 929 0 858 0 931 0 885 0 0 0 0 0 0 0 0 0 0 0 0 0 0 0 0 0 0 0 0 0 0 0 0 0 0 0 0 0 0 0 0 0 0 0 0 0 0 0 0 0 0 0 0 0 0 0 0 0 0 0 0 0 0 0 0 0 0 0 0 0 0 0 0 0 0 0 0 0 0 0 0 0 0 0 0 0 0 0 0
592 548 0 0 0 0 0 678 742 701 696 706 656 680 738 728 716 707 707 710 714 708 720 722 730 722 725 785 717 716 689 721 759 715 754 762 774 754 769 741 760 757 792 756 745 794 733 788 745 811 747 769 751 770 776 791 774 772 844 803 798 788 808 836 799 820 771 780 727 831 837 796 790 0 0 0 0 0 0 0 0 0 0 0 0 0 0 0 0 0 0 0 0 0 0 0 0 0 0 0 0 0 0 0 0 0 0 0 0 0 0 0 0 0 0 0 0 0 0 0
576 592 559 573 588 572 607 590 570 582 570 550 570 599 652 623 549 616 597 604 584 564 604 581 589 581 568 618 643 597 613 596 591 605 582 624 595 611 623 594 600 614 648 626 599 616 620 621 601 639 641 619 599 614 628 650 656 649 634 604 623 628 670 622 643 656 625 641 650 660 630 634 653 657 638 654 668 642 629 655 700 684 691 671 661 676 737 685 703 740 637 678 680 674 654 0 706 716 643 715 728 0 0 0 0 0 0 0 0 0 0 0 0 0 0 0 0 0 0 0
486 514 497 477 460 474 482 450 486 481 495 485 463 489 491 489 488 472 499 491 489 509 504 511 494 498 506 506 511 516 501 519 494 519 520 501 538 508 517 492 504 519 504 543 510 529 532 511 507 510 512 512 520 532 502 503 521 526 508 525 554 526 550 519 549 538 499 515 524 554 528 509 550 527 533 552 547 518 511 559 555 557 535 554 526 519 573 552 551 520 578 592 557 551 514 612 570 561 576 583 575 588 531 549 0 547 612 573 560 517 0 0 0 0 0 0 0 0 0 0
436 412 433 393 414 435 423 437 430 429 432 445 454 440 448 443 438 475 434 442 462 465 455 454 450 455 446 451 449 444 458 444 448 445 477 455 454 452 465 455 455 465 475 459 472 468 461 470 478 472 466 464 464 476 470 471 474 473 474 464 459 472 474 483 462 475 469 457 475 472 485 484 472 480 481 477 488 484 479 471 471 477 491 477 494 488 481 496 478 478 478 514 493 480 478 477 470 481 498 479 480 496 494 512 499 475 495 485 500 466 467 519 0 0 0 0 0 0 0 0
387 395 378 394 380 389 378 398 393 384 391 394 397 405 397 393 405 398 395 408 400 405 402 419 400 403 413 408 398 389 410 408 408 411 418 419 405 409 412 417 416 403 414 414 418 414 411 423 414 425 421 438 421 435 423 417 411 431 427 423 409 420 423 418 419 414 415 427 428 425 428 421 416 419 419 414 418 423 434 437 422 429 446 421 437 430 438 430 441 438 433 412 432 421 431 429 427 443 439 431 435 441 452 424 410 429 428 434 435 431 445 435 434 431 0 0 0 0 0 0
358 362 344 341 347 369 357 358 358 362 358 348 362 383 364 352 368 364 368 348 359 381 354 384 369 371 369 359 366 378 379 377 361 383 359 370 372 374 379 377 382 375 373 367 366 378 393 380 390 376 390 372 376 377 383 379 376 374 377 383 389 388 385 379 387 391 386 398 387 381 396 394 386 399 388 385 394 396 395 395 384 383 395 385 404 397 379 402 404 402 393 408 386 379 409 400 391 383 395 387 399 397 393 414 387 392 405 388 395 387 404 376 388 364 412 400 0 0 0 0
319 336 331 319 344 345 322 326 347 341 329 332 314 338 333 352 344 339 336 340 349 324 329 349 339 332 351 343 350 353 341 350 345 350 348 347 338 344 340 345 335 347 343 353 333 339 346 342 342 361 354 344 343 349 339 341 348 335 347 360 344 348 339 360 353 337 346 356 346 349 357 344 350 364 358 349 330 350 353 348 355 353 359 352 349 353 350 352 355 356 352 346 353 357 354 355 352 370 360 370 356 357 364 364 364 353 357 348 378 355 364 353 369 379 366 357 330 0 0 0
301 292 292 285 296 301 295 295 296 305 292 278 293 298 305 296 295 297 301 312 292 298 297 303 292 301 308 314 303 305 303 304 296 311 306 305 311 303 306 309 305 311 309 306 310 317 323 313 319 307 312 315 318 310 317 312 311 310 311 306 315 310 313 318 314 319 322 318 312 315 316 318 322 312 305 319 310 307 305 321 315 314 324 317 317 326 318 318 323 325 334 311 317 322 315 329 340 317 333 332 329 325 341 323 321 337 300 333 330 343 327 318 313 313 318 313 321 320 342 0
276 271 279 268 278 283 276 274 272 279 272 284 276 283 287 293 285 284 278 290 278 274 280 267 278 275 275 282 283 276 269 280 281 276 281 285 283 283 284 282 282 277 281 278 294 290 285 299 287 288 289 287 284 285 281 290 288 291 279 289 284 285 283 292 293 286 291 274 291 288 284 297 280 288 286 294 289 286 286 291 298 295 289 290 295 295 291 295 300 305 287 290 294 307 283 294 295 286 302 306 294 295 294 295 290 291 291 294 288 287 311 303 300 308 290 287 296 298 323 295
248 250 262 248 244 250 247 255 252 254 250 249 244 258 262 251 260 246 258 242 253 263 261 249 247 255 253 254 254 255 252 262 251 260 257 259 258 261 265 264 263 257 260 262 259 259 261 262 265 264 266 272 265 267 263 260 264 264 264 264 265 268 266 266 269 267 270 261 262 267 262 275 268 271 261 262 268 264 261 265 265 261 266 266 274 264 264 267 265 264 264 265 270 263 263 265 264 270 274 264 287 270 268 277 267 284 276 273 264 289 272 263 276 279 255 249 244 258 264 254
236 231 238 235 235 235 237 237 240 242 239 236 235 247 242 242 237 243 246 240 236 243 237 236 241 238 240 237 245 252 249 247 250 248 233 251 241 244 249 247 245 245 240 246 243 253 252 247 250 256 250 250 245 246 251 245 248 247 251 248 256 256 249 252 247 253 249 249 256 252 247 241 249 244 240 253 257 254 250 248 248 246 248 242 256 251 249 248 247 242 251 259 246 257 258 249 253 250 252 261 249 251 263 249 250 255 251 239 252 248 255 248 269 252 258 257 249 248 265 247
213 214 215 216 220 223 222 217 220 212 223 226 224 226 223 222 232 223 231 225 219 225 228 229 230 228 222 229 227 231 225 234 230 232 231 237 230 224 227 233 231 228 230 233 234 233 227 240 231 236 229 231 226 231 228 232 225 235 240 230 232 238 245 233 237 237 236 238 235 235 236 238 234 234 232 237 231 230 233 231 232 231 240 227 231 236 236 234 234 231 228 238 233 234 237 232 229 240 237 238 245 234 242 237 231 228 235 231 242 245 231 231 240 252 230 233 227 248 229 227
205 200 219 218 215 206 203 204 218 215 209 208 205 218 211 215 212 210 212 220 212 208 216 193 212 219 212 219 210 214 217 220 194 211 221 212 215 200 199 198 217 216 198 216 220 218 203 218 223 217 219 217 222 205 223 222 219 204 223 204 218 207 229 224 225 217 221 223 222 223 223 227 222 204 216 217 221 215 218 218 220 223 223 232 219 221 222 221 219 215 228 217 224 222 218 213 230 217 234 225 220 219 228 237 222 225 217 220 231 231 233 216 228 221 218 217 214 239 216 207
195 203 193 202 204 200 199 200 186 183 201 198 200 193 207 203 205 207 208 193 191 188 197 191 185 185 184 193 186 195 193 192 192 186 196 194 198 197 191 186 193 192 199 196 194 189 197 193 192 193 200 197 196 199 190 199 199 202 195 197 196 191 194 200 192 202 192 195 194 196 189 202 197 191 193 196 200 194 196 191 198 195 199 198 200 196 212 185 214 214 208 214 192 190 192 191 185 192 217 197 210 216 204 196 219 215 190 202 204 209 209 210 214 214 204 184 201 192 209 206
178 179 195 177 191 177 184 184 199 185 183 180 182 186 201 182 185 179 184 178 182 182 183 185 183 181 189 192 194 193 192 188 195 187 194 193 187 190 188 191 191 195 199 199 196 196 190 196 197 192 198 195 195 193 194 199 196 195 195 197 200 201 193 200 201 195 199 196 198 197 199 192 198 199 195 197 198 187 196 195 188 187 197 188 189 186 191 191 190 193 191 196 191 179 177 189 190 190 192 188 185 205 187 189 182 184 187 189 183 209 184 200 186 171 209 207 205 190 207 170
176 177 173 174 181 181 181 199 181 174 183 176 184 178 186 180 183 189 183 182 187 187 186 182 183 186 183 189 188 191 190 182 182 182 189 186 185 183 191 186 189 188 187 189 189 189 189 193 186 186 188 192 187 192 191 192 188 192 185 191 184 190 185 194 192 190 185 190 186 186 191 188 187 189 190 190 190 192 189 185 189 196 187 195 187 189 181 190 188 188 185 191 192 187 186 191 190 190 178 186 187 187 180 183 186 179 178 176 187 173 177 178 182 180 180 178 169 185 173 183
172 166 160 169 168 171 164 177 166 170 172 173 171 172 180 180 174 180 178 177 173 177 172 169 174 167 174 173 168 182 177 172 172 181 177 174 182 172 177 177 178 179 173 178 182 178 179 182 180 186 180 180 179 177 182 182 183 181 183 183 177 179 178 178 177 178 184 181 173 177 180 180 178 183 182 179 179 183 182 180 178 183 177 176 176 181 182 178 179 180 179 184 178 174 177 179 181 180 182 182 180 186 183 182 178 180 172 174 180 178 177 179 171 171 177 167 160 174 175 171
162 164 168 166 163 163 158 160 166 169 166 167 167 167 165 169 166 172 173 169 167 169 172 167 170 160 169 168 169 169 172 167 168 172 166 170 172 170 171 169 171 166 177 161 174 174 172 166 172 169 165 176 174 171 172 169 173 174 172 172 174 175 179 173 173 174 175 169 171 169 175 170 172 173 168 174 170 173 172 169 171 169 172 174 168 175 170 170 173 169 169 174 167 172 164 168 173 165 170 175 167 173 174 175 176 173 172 167 171 169 173 173 164 180 166 171 172 168 167 167
151 158 159 164 161 159 167 156 151 155 157 156 158 159 160 167 163 166 166 166 162 161 166 162 158 160 161 157 162 163 164 165 164 162 157 161 160 165 157 159 161 162 159 164 166 165 161 162 159 163 164 166 164 162 165 164 166 164 163 167 163 165 164 163 163 161 161 166 161 165 161 164 161 161 166 168 168 166 164 165 166 159 165 163 158 163 163 159 165 166 167 163 164 164 164 163 161 161 169 165 169 160 155 169 157 163 167 161 163 160 160 170 163 160 173 154 154 172 151 165
144 151 150 147 149 146 151 154 153 154 148 150 149 153 153 149 148 156 150 159 152 157 156 153 158 157 150 154 151 158 154 156 154 155 154 155 153 153 154 155 157 155 161 156 160 153 157 153 156 153 153 153 153 159 156 156 154 158 159 159 161 161 157 161 160 157 160 157 152 158 155 161 160 155 157 161 161 159 163 155 160 162 161 158 157 155 158 156 162 161 156 155 155 158 157 156 153 151 155 155 153 159 155 157 161 146 157 151 158 159 151 155 154 160 154 140 155 163 158 168
139 139 148 142 147 147 142 148 149 145 151 151 147 146 148 143 147 154 139 145 150 158 163 147 151 152 149 148 149 148 150 148 147 147 147 143 146 154 144 147 152 150 151 153 154 153 149 145 150 149 144 147 151 149 158 148 150 154 154 154 153 151 154 155 148 155 149 152 152 157 150 154 149 155 153 153 159 156 152 152 153 152 150 143 144 148 149 152 156 151 151 147 156 152 157 154 151 148 152 154 155 153 155 156 151 149 145 149 150 146 154 151 154 142 163 137 138 144 160 124
136 134 136 134 132 138 138 141 140 137 144 142 144 140 141 139 143 138 143 147 144 145 148 148 145 141 147 145 143 143 141 141 144 139 142 141 141 148 147 147 147 145 151 145 144 148 146 142 135 147 143 143 144 144 142 145 146 145 149 142 148 143 142 144 146 145 146 145 152 147 142 150 146 149 148 147 153 150 150 146 145 145 143 144 141 143 146 144 147 146 144 150 149 147 149 145 145 146 147 148 146 146 155 138 141 148 141 140 142 150 132 139 141 148 147 149 138 141 142 140
130 135 132 129 131 137 137 139 141 135 136 0 134 136 133 137 136 141 139 139 145 143 145 136 140 141 146 137 139 141 136 128 129 127 130 138 132 126 141 138 132 142 142 137 141 128 139 129 130 128 129 141 132 141 143 142 143 146 133 129 136 141 130 146 144 141 141 141 146 142 132 130 132 142 141 145 145 143 143 147 143 140 140 130 141 139 132 141 130 140 126 141 141 144 143 140 142 141 142 141 138 138 137 140 137 139 134 136 145 141 137 135 131 132 128 142 128 132 139 133
130 128 125 130 135 138 140 136 139 140 137 134 137 139 138 131 127 137 135 133 138 140 141 138 140 135 139 135 139 125 126 136 130 126 127 126 129 126 125 128 141 138 140 138 0 140 132 140 123 123 126 141 131 140 0 141 0 130 129 131 132 128 134 131 130 130 142 130 144 142 129 126 128 140 132 129 131 139 133 131 127 141 125 126 141 126 138 124 130 141 124 141 140 135 127 122 144 146 141 140 143 124 127 136 137 124 120 131 130 133 135 140 130 137 142 138 123 139 140 142
117 109 123 108 126 126 136 124 114 110 121 119 119 117 126 125 121 124 122 119 122 129 126 135 126 134 134 137 0 127 125 121 118 119 121 117 130 124 122 120 128 128 128 128 0 0 128 127 127 120 122 123 128 130 126 127 132 132 128 126 125 123 125 124 126 128 127 128 120 128 129 126 123 124 117 122 121 133 124 124 126 124 124 121 123 130 120 127 130 130 128 124 126 125 120 121 133 138 127 129 117 120 120 122 118 109 112 120 124 131 118 135 136 135 115 134 114 143 152 120
109 117 110 107 113 121 121 121 117 117 120 115 121 121 117 115 117 125 121 120 122 122 125 123 122 125 129 126 124 127 130 0 125 117 115 115 122 119 0 119 126 124 0 0 0 0 125 125 120 126 123 124 125 124 123 126 121 120 121 116 123 123 120 120 121 126 125 122 120 120 123 121 124 121 117 119 118 127 125 125 118 116 121 125 117 123 123 116 122 124 116 120 120 121 121 117 125 125 119 122 119 114 122 119 108 122 119 120 120 129 132 132 120 134 108 130 134 111 110 130
111 98 113 115 114 109 118 116 111 113 120 120 108 108 114 113 115 113 106 118 116 108 110 116 115 114 120 116 116 123 123 0 120 117 115 111 116 0 114 117 120 0 0 123 123 0 121 117 112 114 116 117 121 122 120 121 121 116 114 119 120 125 122 116 122 120 119 123 120 116 114 118 114 115 118 113 117 114 116 124 110 122 114 118 115 109 114 113 120 122 114 120 123 111 107 119 123 120 111 117 115 118 116 108 113 112 119 118 110 121 110 126 130 117 118 121 130 115 103 122
97 98 109 107 102 100 114 112 102 112 110 111 109 108 122 114 113 113 105 106 115 107 112 104 113 109 114 117 117 115 119 116 117 115 112 109 107 115 0 112 116 112 109 108 112 114 114 0 113 0 117 110 118 117 0 0 106 108 117 113 123 116 107 110 106 109 109 107 119 108 111 106 111 98 107 109 107 105 104 112 111 107 109 111 117 103 110 113 105 115 105 113 101 112 104 119 115 116 111 107 104 109 113 103 111 105 100 106 109 116 110 113 95 107 102 102 107 98 107 92
102 97 109 107 107 105 108 109 108 108 108 108 106 110 115 113 109 108 109 102 105 97 99 103 112 109 108 112 103 117 110 108 105 105 115 111 114 0 107 107 108 105 106 101 107 108 107 109 117 0 111 108 111 112 111 114 104 108 111 109 107 107 114 0 115 110 108 107 110 105 105 99 106 111 102 106 102 101 101 113 106 106 112 110 98 107 102 109 110 98 107 102 100 102 98 109 99 102 109 103 105 115 113 114 106 103 107 114 101 114 103 98 107 110 113 104 103 106 129 124
86 97 106 108 96 95 96 101 93 93 106 102 96 97 103 107 97 105 106 101 98 104 99 97 103 103 106 99 101 107 105 102 103 101 103 100 105 107 104 102 104 102 100 96 96 105 109 99 104 99 106 104 105 108 103 104 102 103 107 101 107 111 103 0 108 103 0 109 105 105 104 103 100 106 102 106 100 103 0 102 0 104 95 100 94 103 97 100 98 102 103 102 103 96 94 97 101 100 104 97 102 99 101 104 103 101 101 95 102 93 89 89 95 113 97 87 97 134 103 114
92 89 85 92 94 94 97 88 99 97 96 98 100 94 104 95 99 94 104 92 100 89 93 91 97 95 99 101 105 98 105 105 109 105 100 103 100 98 102 94 101 102 101 92 101 96 100 102 102 101 109 100 100 99 92 103 100 105 100 99 104 102 109 100 112 103 105 104 106 101 100 102 103 101 96 95 102 98 98 98 0 104 98 89 99 98 97 109 93 96 96 95 101 101 91 103 95 95 88 102 99 91 102 87 96 102 100 95 104 94 98 86 98 79 90 108 98 84 86 124
90 94 94 99 90 92 90 84 88 90 90 95 98 86 96 81 90 94 106 103 97 97 93 94 90 90 101 93 94 102 96 101 102 95 95 100 96 94 94 106 93 96 87 88 101 93 99 99 92 99 99 94 85 96 91 102 94 88 96 97 90 99 103 0 101 102 97 97 94 96 96 94 101 104 85 102 100 98 103 103 94 95 90 108 105 98 91 90 94 96 96 96 91 82 92 88 95 88 107 87 92 99 104 90 100 95 102 77 90 87 91 88 92 89 101 87 105 88 95 68
83 81 76 82 81 87 90 92 87 91 86 87 93 88 93 81 86 89 82 94 92 79 95 88 92 91 99 95 88 98 88 87 96 91 89 90 91 91 98 91 87 84 98 85 90 95 89 89 89 90 97 94 90 96 96 97 97 99 98 93 89 92 97 90 93 96 92 94 96 96 99 92 90 89 98 97 95 89 88 96 92 91 94 94 93 82 91 90 95 91 92 87 95 90 81 93 87 91 90 82 83 87 83 81 89 80 87 85 88 86 84 89 72 87 86 85 76 86 109 93
91 89 82 83 96 87 87 96 81 91 87 91 94 86 91 87 90 88 89 93 92 90 95 89 91 91 92 90 90 84 91 92 92 92 98 97 91 89 92 96 89 92 96 91 96 94 94 93 87 92 100 97 94 97 97 91 96 89 90 94 93 89 98 93 92 91 88 91 87 90 98 91 98 96 92 91 94 98 83 88 101 91 92 92 94 92 90 94 94 91 98 93 102 89 93 91 93 83 94 98 92 92 83 97 91 94 84 91 87 86 85 89 87 83 86 88 84 78 0 0
80 88 83 88 89 85 76 89 84 0 84 81 83 86 82 92 87 90 90 86 89 93 92 96 88 87 95 84 86 95 85 94 91 96 93 92 91 93 93 92 95 90 97 87 85 88 91 96 89 87 98 96 91 87 99 99 95 95 95 91 92 95 94 96 94 97 96 90 93 95 87 92 83 94 89 90 87 92 91 91 96 95 94 92 94 96 95 92 104 90 90 93 99 90 92 86 93 84 88 87 87 87 92 88 89 90 90 89 89 79 89 86 75 83 71 81 89 82 73 0
77 79 76 88 83 90 100 86 86 79 79 85 86 90 87 86 85 91 84 83 88 87 92 87 80 88 86 87 93 87 89 89 85 92 89 94 90 90 89 89 90 90 92 98 98 87 94 93 90 90 93 92 93 86 85 88 92 93 97 92 93 93 97 89 85 96 88 86 90 95 89 92 90 91 87 82 88 95 96 87 92 87 89 88 88 90 89 89 89 82 92 86 83 87 84 66 83 88 84 83 77 75 91 86 87 84 87 88 73 86 72 90 85 86 84 72 71 61 0 0
77 78 79 78 81 84 92 93 82 87 79 90 87 86 88 88 78 84 87 91 90 92 87 84 81 93 88 90 93 91 84 83 91 91 87 84 90 87 88 89 94 88 92 95 85 87 90 92 90 98 88 88 88 86 87 95 90 97 87 97 95 88 89 86 88 97 82 86 87 97 93 89 86 92 90 88 89 94 85 84 92 91 84 83 91 94 92 86 89 93 87 90 78 85 87 90 90 92 95 83 85 87 89 86 83 90 80 88 85 86 82 84 86 72 92 117 0 0 0 93
77 64 63 62 79 80 88 84 84 76 84 79 77 79 85 80 80 79 78 77 84 79 80 83 72 69 83 84 79 78 88 75 76 81 91 77 79 81 85 75 85 82 79 71 81 85 83 88 85 81 84 75 80 83 82 85 78 88 86 71 84 81 79 79 73 81 78 80 85 74 82 79 76 73 80 78 78 83 86 85 70 85 71 83 78 91 83 72 74 79 82 70 83 76 80 83 76 87 66 79 70 81 68 62 70 79 80 71 72 86 85 61 60 67 88 35 0 0 0 0
70 69 76 82 70 83 88 82 83 78 83 86 74 81 78 89 75 77 77 78 79 82 76 80 88 86 78 70 81 83 80 81 80 80 78 76 81 78 81 78 83 81 85 84 86 86 82 76 85 83 80 77 81 82 80 82 80 80 89 77 83 81 82 84 78 82 86 80 87 67 80 86 85 84 85 82 82 86 86 82 79 81 82 83 74 86 81 70 79 89 71 78 70 77 85 73 86 75 71 83 86 66 72 67 72 80 78 84 69 85 75 57 51 110 95 0 0 0 0 0
