0 0 0 0 0 0 0 0 0 0 0 0 0 0 0 0 0 0 0 0 0 0 0 0 0 0 0 0 0 0 0 0 0 0 0 0 0 0 0 0 0 0 0 0 0 0 0 0 0 0 0 0 0 0 0 0 0 0 0 0 0 0 0 0 0 0 0 0 0 0 0 0 0 0 0 0 0 0 0 0 0 0 0 0 0 0 0 0 0 0 0 0 0 0 0 0 0 0 0 0 0 0 0 0 0 0 0 0 0 0 0 0 0 0 0 0 0 0 0 0
0 0 0 0 0 0 0 0 0 0 0 0 0 0 0 0 0 0 0 0 0 0 0 0 0 0 0 0 0 0 0 0 0 0 0 0 0 0 0 0 0 0 0 0 0 0 0 0 0 0 0 0 0 0 0 0 0 0 0 0 0 0 0 0 0 0 0 0 0 0 0 0 0 0 0 0 0 0 0 0 0 0 0 0 0 0 0 0 0 0 0 0 0 0 0 0 0 0 0 0 0 0 0 0 0 0 0 0 0 0 0 0 0 0 0 0 0 0 0 0
0 0 0 0 0 0 0 0 0 0 0 0 0 0 0 0 0 1336 0 0 0 0 0 0 0 0 0 0 0 0 0 0 0 0 0 0 0 0 0 0 0 0 0 0 0 0 0 0 0 0 0 0 0 0 0 0 0 0 0 0 0 0 0 0 0 0 0 0 0 0 0 0 0 0 0 0 0 0 0 0 0 0 0 0 0 0 0 0 0 0 0 0 0 0 0 0 0 0 0 0 0 0 0 0 0 0 0 0 0 0 0 0 0 0 0 0 0 0 0 0
0 0 0 0 0 0 0 0 0 0 0 1166 1131 1167 1156 0 1310 1303 0 0 0 0 1279 0 0 0 0 0 0 0 0 0 0 0 0 0 0 0 0 0 0 0 0 0 0 0 0 0 0 0 0 0 0 0 0 0 0 0 0 0 0 0 0 0 0 0 0 0 0 0 0 0 0 0 0 0 0 0 0 0 0 0 0 0 0 0 0 0 0 0 0 0 0 0 0 0 0 0 0 0 0 0 0 0 0 0 0 0 0 0 0 0 0 0 0 0 0 0 0 0
0 0 0 0 0 0 0 1077 1091 1100 1117 1153 1139 1127 1154 0 1256 1266 1246 1265 1259 1227 1227 0 0 0 0 0 0 0 0 0 0 0 0 0 0 0 0 0 0 0 0 0 0 0 0 0 0 0 0 0 0 0 0 0 0 0 0 0 0 0 0 0 0 0 0 0 0 0 0 0 0 0 0 0 0 0 0 0 0 0 0 0 0 0 0 0 0 0 0 0 0 0 0 0 0 0 0 0 0 0 0 0 0 0 0 0 0 0 0 0 0 0 0 0 0 0 0 0
0 0 0 0 0 0 1088 1114 1087 1162 1140 0 1161 1159 1184 1193 1309 1257 1299 0 1253 1250 1265 1250 0 0 0 0 0 0 0 0 0 0 0 0 0 0 0 0 0 0 0 0 0 0 0 0 0 0 0 0 0 0 0 0 0 0 0 0 0 0 0 0 0 0 0 0 0 0 0 0 0 0 0 0 0 0 0 0 0 0 0 0 0 0 0 0 0 0 0 0 0 0 0 0 0 0 0 0 0 0 0 0 0 0 0 0 0 0 0 0 0 0 0 0 0 0 0 0
0 0 0 0 0 0 0 0 0 0 0 0 1172 1194 1229 1294 1276 1290 1298 1254 1282 1235 1229 1246 1302 0 0 0 0 0 0 1386 0 0 0 0 0 0 0 0 0 0 0 0 0 0 0 0 0 0 0 0 0 0 0 0 0 0 0 0 0 0 0 0 0 0 0 0 0 0 0 0 0 0 0 0 0 0 0 0 0 0 0 0 0 0 0 0 0 0 0 0 0 0 0 0 0 0 0 0 0 0 0 0 0 0 0 0 0 0 0 0 0 0 0 0 0 0 0 0
0 0 0 0 0 0 0 0 0 0 0 0 1236 1267 1266 1290 1293 1283 1267 1286 1272 1231 1282 1271 1275 1335 1328 1338 1372 1364 0 1394 0 0 0 0 0 0 0 0 0 0 0 0 0 0 0 0 0 0 0 0 0 0 0 0 0 0 0 0 0 0 0 0 0 0 0 0 0 0 0 0 0 0 0 0 0 0 0 0 0 0 0 0 0 0 0 0 0 0 0 0 0 0 0 0 0 0 0 0 0 0 0 0 0 0 0 0 0 0 0 0 0 0 0 0 0 0 0 0
0 0 0 0 0 0 0 0 0 0 0 0 1262 1297 1290 1302 1308 1269 1313 1285 1278 1291 1260 1272 0 0 1333 1382 1378 1358 1357 1421 0 0 0 0 0 0 0 0 0 0 0 0 0 0 0 0 0 0 0 0 0 0 0 0 0 0 0 0 0 0 0 0 0 0 0 0 0 0 0 0 0 0 0 0 0 0 0 0 0 0 0 0 0 0 0 0 0 0 0 0 0 0 0 0 0 0 0 0 0 0 0 0 0 0 0 0 0 0 0 0 0 0 0 0 0 0 0 0
0 0 0 0 0 0 0 0 0 0 0 0 0 1322 1314 1273 1292 1302 1268 1268 1262 1250 1289 1267 1284 0 0 1363 1352 1337 1395 1388 1462 0 0 0 0 0 0 0 0 0 0 0 0 0 0 0 0 0 0 0 0 0 0 0 0 0 0 0 0 0 0 0 0 0 0 0 0 0 0 0 0 0 0 0 0 0 0 0 0 0 0 0 0 0 0 0 0 0 0 0 0 0 0 0 0 0 0 0 0 0 0 0 0 0 0 0 0 0 0 0 0 0 0 0 0 0 0 0
0 0 0 0 0 0 0 0 0 0 0 0 0 0 0 0 0 0 0 0 0 1268 1265 1262 1322 0 0 1360 1350 1354 1358 1427 1475 0 0 0 0 0 0 0 0 0 0 0 0 0 0 0 0 0 0 0 0 0 0 0 0 0 0 0 0 0 0 0 0 0 0 0 0 0 0 0 0 0 0 0 0 0 0 0 0 0 0 0 0 0 0 0 0 0 0 0 0 0 0 0 0 0 0 0 0 0 0 0 0 0 0 0 0 0 0 0 0 0 0 0 0 0 0 0
0 0 0 0 0 0 0 0 0 0 0 0 0 0 0 0 0 0 0 0 0 0 0 1327 1306 0 0 0 1349 1348 1348 1411 1397 0 0 0 0 0 0 0 0 0 0 0 0 0 0 0 0 0 0 0 0 0 0 0 0 0 0 0 0 0 0 0 0 0 0 0 0 0 0 0 0 0 0 0 0 0 0 0 0 0 0 0 0 0 0 0 0 0 0 0 0 0 0 0 0 0 0 0 0 0 0 0 0 0 0 0 0 0 0 0 0 0 0 0 0 0 0 0
0 0 0 0 0 0 0 0 0 0 0 0 0 0 0 0 0 0 0 0 0 0 0 1324 1365 1285 1297 1327 1328 1341 1348 1414 1413 0 0 0 0 0 0 0 0 0 0 0 0 0 0 0 0 0 0 0 0 0 0 0 0 0 0 0 0 0 0 0 0 0 0 0 0 0 0 0 0 0 0 0 0 0 0 0 0 0 0 0 0 0 0 0 0 0 0 0 0 0 0 0 0 0 0 0 0 0 0 0 0 0 0 0 0 0 0 0 0 0 0 0 0 0 0 0
0 0 0 0 0 0 0 0 0 0 0 0 0 0 0 0 0 0 0 0 0 0 0 1356 1391 1366 1328 1317 1323 1332 1318 1428 1446 0 0 0 0 0 0 0 0 0 0 0 0 0 0 0 0 0 0 0 0 0 0 0 0 0 0 0 0 0 0 0 0 0 0 0 0 0 0 0 0 0 0 0 0 0 0 0 0 0 0 0 0 0 0 0 0 0 0 0 0 0 0 0 0 0 0 0 0 0 0 0 0 0 0 0 0 0 0 0 0 0 0 0 0 0 0 0
0 0 0 0 0 0 0 0 0 0 0 0 0 0 0 0 0 0 0 0 0 0 0 1341 1361 1371 1366 1343 1333 1350 1317 1395 1406 0 0 0 0 0 0 0 0 0 0 0 0 0 0 0 0 0 0 0 0 0 0 0 0 0 0 0 0 0 0 0 0 0 0 0 0 0 0 0 0 0 0 0 0 0 0 0 0 0 0 0 0 0 0 0 0 0 0 0 0 0 0 0 0 0 0 0 0 0 0 0 0 0 0 0 0 0 0 0 0 0 0 0 0 0 0 0
0 0 0 0 0 0 0 0 0 0 0 0 0 0 0 0 0 0 0 0 0 0 0 1335 1358 1380 1361 1384 1358 1336 1346 1401 1424 0 0 0 0 0 0 0 0 0 0 0 0 0 0 0 0 0 0 0 0 0 0 0 0 0 0 0 0 0 0 0 0 0 0 0 0 0 0 0 0 0 0 0 0 0 0 0 0 0 0 0 0 0 0 0 0 0 0 0 0 0 0 0 0 0 0 0 0 0 0 0 0 0 0 0 0 0 0 0 0 0 0 0 0 0 0 0
1270 1269 1270 1297 1287 1301 1311 0 0 0 0 0 0 0 0 0 0 0 0 0 0 0 0 0 1391 1373 1395 1394 1378 1388 1393 1425 1451 0 0 0 0 0 0 0 0 0 0 0 0 0 0 0 0 0 0 0 0 0 0 0 0 0 0 0 0 0 0 0 0 0 0 0 0 0 0 0 0 0 0 0 0 0 0 0 0 0 0 0 0 0 0 0 0 0 0 0 0 0 0 0 0 0 0 0 0 0 0 0 0 0 0 0 0 0 0 0 0 0 0 0 0 0 0 0
1254 1256 1248 1275 1268 1292 1313 1304 1330 1356 1337 0 0 0 0 0 0 0 0 0 0 0 0 1373 1362 1355 1366 1364 1364 1384 1390 1423 1424 0 0 0 0 0 0 0 0 0 0 0 0 0 0 0 0 0 0 0 0 0 0 0 0 0 0 0 0 0 0 0 0 0 0 0 0 0 0 0 0 0 0 0 0 0 0 0 0 0 0 0 0 0 0 0 0 0 0 0 0 0 0 0 0 0 0 0 0 0 0 0 0 0 0 0 0 0 0 0 0 0 0 0 0 0 0 0
1245 1273 1284 1290 1302 1299 1323 1314 1322 1367 1357 1376 1393 1379 1420 1409 0 0 0 0 0 0 0 0 0 1397 0 0 1396 0 0 1435 1417 0 0 0 0 0 0 0 0 0 0 0 0 0 0 0 0 0 0 0 0 0 0 0 0 0 0 0 0 0 0 0 0 0 0 0 0 0 0 0 0 0 0 0 0 0 0 0 0 0 0 0 0 0 0 0 0 0 0 0 0 0 0 0 0 0 0 0 0 0 0 0 0 0 0 0 0 0 0 0 0 0 0 0 0 0 0 0
0 0 0 0 1297 1302 1305 1309 1326 1335 1327 1334 1364 1378 1391 1393 1389 1402 1426 1479 1465 0 0 0 0 0 0 0 0 0 0 1442 1420 1457 0 0 0 0 0 0 0 0 0 0 0 0 0 0 0 0 0 0 0 0 0 0 0 0 0 0 0 0 0 0 0 0 0 0 0 0 0 0 0 0 0 0 0 0 0 0 0 0 0 0 0 0 0 0 0 0 0 0 0 0 0 0 0 0 0 0 0 0 0 0 0 0 0 0 0 0 0 0 0 0 0 0 0 0 0 0
0 0 0 0 0 0 0 0 0 1296 1335 1339 1333 1354 1363 1385 1398 1419 1408 1417 1431 1454 0 0 0 0 0 0 0 0 0 1426 1437 1466 0 0 0 0 0 0 0 0 0 0 0 0 0 0 0 0 0 0 0 0 0 0 0 0 0 0 0 0 0 0 0 0 0 0 0 0 0 0 0 0 0 0 0 0 0 0 0 0 0 0 0 0 0 0 0 0 0 0 0 0 0 0 0 0 0 0 0 0 0 0 0 0 0 0 0 0 0 0 0 0 0 0 0 0 0 0
0 0 0 0 0 0 0 0 0 0 0 0 0 0 0 1396 1373 1409 1418 1433 1439 1462 0 0 0 0 0 0 0 0 0 0 1454 0 0 0 0 0 0 0 0 0 0 0 0 0 0 0 0 0 0 0 0 0 0 0 0 0 0 0 0 0 0 0 0 0 0 0 0 0 0 0 0 0 0 0 0 0 0 0 0 0 0 0 0 0 0 0 0 0 0 0 0 0 0 0 0 0 0 0 0 0 0 0 0 0 0 1725 1705 1713 0 0 0 0 0 0 0 0 0 0
0 0 0 0 0 0 0 0 0 0 0 0 0 0 0 0 0 0 0 0 0 1431 0 0 0 0 0 0 0 0 0 0 0 0 0 0 0 0 0 0 0 0 0 0 0 0 0 0 0 0 0 0 0 0 0 0 0 0 0 0 0 0 0 0 0 0 0 0 0 0 0 0 0 0 0 0 0 0 0 0 0 0 0 0 0 0 0 0 0 0 0 0 0 0 0 0 0 0 0 0 0 0 0 0 0 0 0 0 0 0 0 0 0 0 0 0 0 0 0 0
0 0 0 0 0 0 0 0 0 0 0 0 0 0 0 0 0 0 0 0 0 0 0 0 0 0 0 0 0 0 0 0 0 0 0 0 0 0 0 0 0 0 0 0 0 0 0 0 0 0 0 0 0 0 0 0 0 0 0 0 0 0 0 0 0 0 0 0 0 0 0 0 0 0 0 0 0 0 0 0 0 0 0 0 0 0 0 0 0 0 0 0 0 0 0 0 0 0 0 0 0 0 0 0 0 0 1597 1602 1570 1531 1533 1545 1511 1516 0 0 0 0 0 0
0 0 0 0 0 0 0 0 0 0 0 0 0 0 0 0 0 0 0 0 0 0 0 0 0 0 0 0 0 0 0 0 0 0 0 0 0 0 0 0 0 0 0 0 0 0 0 0 0 0 0 0 0 0 0 0 0 0 0 0 0 0 0 0 0 0 0 0 0 0 0 0 0 0 0 0 0 0 0 0 0 0 0 0 0 0 0 0 0 0 0 0 0 0 0 0 0 0 0 0 1730 1712 1688 1722 1672 1609 1627 1648 1605 1605 1623 1563 1566 1567 1557 0 0 0 0 0
0 0 0 0 0 0 0 0 0 0 0 0 0 0 0 0 0 0 0 0 0 0 0 0 0 0 0 0 0 0 0 0 0 0 0 0 0 0 0 0 0 0 0 0 0 0 0 0 0 0 0 0 0 0 0 0 0 0 0 0 0 0 0 0 0 0 0 0 0 0 0 0 0 0 0 0 0 0 0 0 0 0 0 0 0 0 0 0 0 0 0 0 0 0 0 1680 1748 1745 1703 1663 1696 1647 1634 1653 1613 1630 1589 1584 1600 1550 0 0 0 0 0 0 0 0 0 0
568 585 0 0 0 0 0 0 0 0 0 0 0 0 0 0 0 0 0 0 0 0 0 0 0 1903 1910 0 0 0 0 0 0 0 0 0 0 0 0 0 0 0 0 0 0 0 0 2879 2917 2931 2860 2938 2900 2907 2934 2952 2916 2939 2899 2843 2899 2894 2858 2892 2920 2863 0 0 0 0 0 0 0 0 0 0 0 0 0 0 0 0 0 0 0 0 0 0 0 0 1896 1817 1859 1816 1809 1786 1735 1738 1736 1696 1714 1668 1676 1679 0 0 0 0 0 0 0 0 0 0 0 0 0 0 0 0
573 596 594 597 636 674 0 0 0 0 0 0 0 0 0 0 0 0 0 0 0 0 0 0 0 0 0 1908 1973 0 0 0 0 0 0 0 0 0 0 0 0 0 0 0 0 0 0 2878 2881 2909 2863 2905 2889 2851 2907 2912 2869 2899 2939 2885 2925 2864 2897 2905 2885 2896 0 0 0 0 0 0 0 0 0 0 0 0 0 0 0 0 0 0 0 0 0 0 0 0 1876 1850 1795 1793 1768 1765 1746 0 0 0 0 0 0 0 0 0 0 0 0 0 0 0 0 0 0 0 0 0 0 0
558 567 581 589 619 619 644 667 648 0 0 0 0 0 0 0 0 0 0 0 0 0 0 0 0 0 0 0 0 0 0 0 0 0 0 0 0 0 0 0 0 0 0 0 0 0 0 2939 2956 2949 2901 2959 2971 2914 2914 2903 2967 2909 2939 2916 2913 2901 2891 2888 2903 0 0 0 0 0 0 0 0 0 0 0 0 0 0 0 0 0 0 0 0 0 0 0 0 0 0 0 0 0 0 0 0 0 0 0 0 0 0 0 0 0 0 0 0 0 0 0 0 0 0 0 0 0 0 0
576 565 596 603 620 644 619 669 663 690 686 722 0 0 0 0 0 0 0 0 0 0 0 0 0 0 0 0 0 0 0 0 0 0 0 0 0 0 0 0 0 0 0 0 0 0 0 2951 2931 2925 2929 2925 2920 2901 2873 2902 2924 2887 2957 2896 2921 2903 2897 2871 2878 0 0 0 0 0 0 0 0 0 0 0 0 0 0 0 0 0 0 0 0 0 0 0 0 0 0 0 0 0 0 0 0 0 0 0 0 0 0 0 0 0 0 0 0 0 0 0 0 0 0 0 0 0 0 0
581 574 580 595 613 614 647 633 636 667 672 679 702 725 711 0 0 0 0 0 0 0 0 0 0 0 0 0 0 0 0 0 0 0 0 0 0 0 0 0 0 0 0 0 0 0 0 2960 2949 2975 2921 2979 2964 2930 2934 2906 2938 2893 2932 2916 2939 2946 2920 2921 2880 0 0 0 0 0 0 0 0 0 0 0 0 0 0 0 0 0 0 0 0 0 0 0 0 0 0 0 0 0 0 0 0 0 0 0 0 0 0 0 0 0 0 0 0 0 0 0 0 0 0 0 0 0 0 0
751 753 793 732 695 664 654 658 635 678 689 685 710 715 748 750 761 759 0 0 0 0 0 0 0 0 0 0 0 0 0 0 0 0 0 0 0 0 0 0 0 0 0 0 0 0 0 2906 2858 2898 2922 2854 2888 2913 2911 2879 2870 2865 2918 2896 2931 2922 2911 2874 2905 2850 0 0 0 0 0 0 0 0 0 0 0 0 0 0 0 0 0 0 0 0 0 0 0 0 0 0 0 0 0 0 0 0 0 0 0 0 0 0 0 0 0 0 0 0 0 0 0 0 0 0 0 0 0 0
798 815 824 826 833 838 859 845 826 812 752 743 749 749 741 754 758 785 781 853 815 0 0 0 0 0 0 0 0 0 0 0 0 0 0 0 0 0 0 0 0 0 0 0 0 0 0 2852 2921 2883 2886 2846 2907 2880 2898 2883 2869 2834 2915 2842 2917 2907 2900 2877 2890 2884 0 0 0 0 0 0 0 0 0 0 0 0 0 0 0 0 0 0 0 0 0 0 0 0 0 0 0 0 0 0 0 0 0 0 0 0 0 0 0 0 0 0 0 0 0 0 0 0 0 0 0 0 0 0
727 815 833 832 864 870 883 905 889 907 911 916 921 914 845 782 824 784 808 833 850 858 893 885 0 0 0 0 0 0 0 0 0 0 0 0 0 0 0 0 0 0 0 0 0 0 0 2893 2867 2921 2928 2883 2889 2868 2902 2926 2890 2887 2926 2886 2841 2867 2931 2891 2919 2858 0 0 0 0 0 0 0 0 0 0 0 0 0 0 0 0 0 0 0 0 0 0 0 0 0 0 0 0 0 0 0 0 0 0 0 0 0 0 0 0 0 0 0 0 0 0 0 0 0 0 0 0 0 0
702 0 839 831 845 853 860 885 888 901 938 944 934 958 949 950 939 926 898 865 847 856 874 876 908 952 0 0 0 0 0 0 0 0 0 0 0 0 0 0 0 0 0 0 0 0 0 2911 2919 2954 2881 2921 2893 2915 2903 2907 2971 2916 2913 2896 2923 2911 2919 2876 2885 2916 0 0 0 0 0 0 0 0 0 0 0 0 0 0 0 0 0 0 0 0 0 0 0 0 0 0 0 0 0 0 0 0 0 0 0 0 0 0 0 0 0 0 0 0 0 0 0 0 0 0 0 0 0 0
666 919 928 928 940 925 895 923 934 913 921 963 954 953 941 964 953 958 950 945 943 929 925 908 924 949 924 973 1031 0 0 0 0 0 0 0 0 0 0 0 0 0 0 0 0 0 0 2915 2876 2863 2917 2959 2872 2909 2942 2947 0 2893 2911 2911 2912 2915 2918 2920 2931 2950 0 0 0 0 0 0 0 0 0 0 0 0 0 0 0 0 0 0 0 0 0 0 0 0 0 0 0 0 0 0 0 0 0 0 0 0 0 0 0 0 0 0 0 0 0 0 0 0 0 0 0 0 0 0
595 653 0 0 0 0 0 0 0 0 981 996 951 957 969 954 971 952 945 931 940 939 938 962 928 958 944 972 998 1022 1019 0 0 0 0 0 0 0 0 0 0 0 0 0 0 0 0 2943 2935 2966 2891 2890 2970 2920 2908 2973 2887 2886 2931 2918 2890 2905 2909 2895 2891 0 0 0 0 0 0 0 0 0 0 0 0 0 0 0 0 0 0 0 0 0 0 0 0 0 0 0 0 0 0 0 0 0 0 0 0 0 0 0 0 0 0 0 0 0 0 0 0 0 0 0 0 0 0 0
560 609 566 0 1108 1154 1150 1142 1134 1133 1156 1146 1140 1139 1127 1145 1116 1057 0 0 1030 1065 1077 987 977 1039 1126 1133 1098 1085 1089 0 0 0 0 0 0 0 0 0 0 0 0 0 0 0 0 3002 2897 2905 2925 2952 2923 2877 2913 2923 2883 2905 2881 2891 2893 2891 2923 2870 2852 2905 0 0 0 0 0 0 0 0 0 0 0 0 0 0 0 0 0 0 0 0 0 0 0 0 0 0 0 0 0 0 0 0 0 0 0 0 0 0 0 0 0 0 0 0 0 0 0 0 0 0 0 0 0 0
578 557 607 581 0 0 0 0 0 0 0 0 0 0 0 0 1362 1004 928 0 1090 1117 1099 0 0 1083 1136 1140 1123 1140 1119 0 0 0 0 0 0 0 0 0 0 0 0 0 0 0 0 2919 2915 2897 2894 2919 2874 2938 2921 2882 2949 2896 2925 2904 2910 2916 2881 2890 2889 0 0 0 0 0 0 0 0 0 0 0 0 0 0 0 0 0 0 0 0 0 0 0 0 0 0 0 0 0 0 0 0 0 0 0 0 0 0 0 0 0 0 0 0 0 0 0 0 0 0 0 0 0 0 0
570 585 598 595 605 0 0 0 0 0 0 0 0 0 0 0 0 943 1019 0 0 0 0 0 0 0 0 0 0 0 0 0 0 0 0 0 0 0 0 0 0 0 0 0 0 0 0 2910 2930 2878 2915 2890 2889 2908 2958 2869 2856 2876 2902 2885 2906 2891 2887 2865 2883 2874 0 0 0 0 0 0 0 0 0 0 0 0 0 0 0 0 0 0 0 0 0 0 0 0 0 0 0 0 0 0 0 0 0 0 0 0 0 0 0 0 0 0 0 0 0 0 0 0 0 0 0 0 0 0
603 634 599 608 629 643 0 0 0 0 0 0 0 0 0 0 0 0 0 0 0 0 0 0 0 0 0 0 0 0 0 0 0 0 0 0 0 0 0 0 0 0 0 0 0 0 0 2933 2913 2883 2874 2902 2861 2915 2904 2906 2863 2923 2912 2918 2912 2905 2886 2927 2855 0 0 0 0 0 0 0 0 0 0 0 0 0 0 0 0 0 0 0 0 0 0 0 0 0 0 0 0 0 0 0 0 0 0 0 0 0 0 0 0 0 0 0 0 0 0 0 0 0 0 0 0 0 0 0
588 581 589 591 593 604 0 0 0 0 0 0 0 0 0 0 0 0 0 0 0 0 988 0 0 0 0 0 0 0 0 0 0 0 0 0 0 0 0 0 0 0 0 0 0 0 0 2904 2912 2892 2850 2919 2926 2896 2897 2881 2909 2886 2892 2861 2916 2856 2867 2881 2889 2853 0 0 0 0 0 0 0 0 0 0 0 0 0 0 0 0 0 0 0 0 0 0 0 0 0 0 0 0 0 0 0 0 0 0 0 0 0 0 0 0 0 0 0 0 0 0 0 0 0 0 0 0 0 0
574 623 625 617 617 609 0 0 0 0 0 0 0 0 0 0 0 0 0 0 0 0 0 0 0 0 0 0 0 0 0 0 0 0 0 0 0 0 0 0 0 0 0 0 0 0 0 2908 2957 2953 2864 2898 2884 2897 2869 2899 2875 2874 2849 2900 2881 2927 2900 2884 2909 0 0 0 0 0 0 0 0 0 0 0 0 0 0 0 0 0 0 0 0 0 0 0 0 0 0 0 0 0 0 0 0 0 0 0 0 0 0 0 0 0 0 0 0 0 0 0 0 0 0 0 0 0 0 0
560 574 613 597 596 574 571 0 0 0 0 0 0 0 0 0 0 0 0 0 0 0 0 0 0 0 0 0 0 0 0 0 0 0 0 0 0 0 0 0 0 0 0 0 0 0 0 2880 2911 2875 2896 2922 2882 2916 2879 2883 2904 2954 2907 2898 2895 2936 2897 2896 2886 0 0 0 0 0 0 0 0 0 0 0 0 0 0 0 0 0 0 0 0 0 0 0 0 0 0 0 0 0 0 0 0 0 0 0 0 0 0 0 0 0 0 0 0 0 0 0 0 0 0 0 0 0 0 0
584 604 563 598 587 592 627 0 0 0 0 0 0 0 0 0 0 0 0 0 0 0 945 966 0 0 0 0 0 0 0 0 0 0 0 0 0 0 0 0 0 0 0 0 0 0 0 2913 2947 2909 2934 2876 2926 2946 2924 2930 2910 2916 2843 2896 2904 2866 2854 2869 2829 2848 0 0 0 0 0 0 0 0 0 0 0 0 0 0 0 0 0 0 0 0 0 0 0 0 0 0 0 0 0 0 0 0 0 0 0 0 0 0 0 0 0 0 0 0 0 0 0 0 0 0 0 0 0 0
589 588 584 591 625 626 596 0 0 0 0 0 0 0 0 0 0 0 0 0 0 0 0 0 0 0 0 0 0 0 0 0 0 0 0 0 0 0 0 0 0 0 0 0 0 0 0 2899 2879 2877 2874 2974 2927 2938 2887 2897 2857 2887 2914 2898 2893 2876 2881 2871 2851 2870 0 0 0 0 0 0 0 0 0 0 0 0 0 0 0 0 0 0 0 0 0 0 0 0 0 0 0 0 0 0 0 0 0 0 0 0 0 0 0 0 0 0 0 0 0 0 0 0 0 0 0 0 0 0
591 589 611 612 587 630 0 0 0 0 0 0 0 0 0 0 0 0 0 0 0 0 0 0 0 0 0 0 0 0 0 0 0 0 0 0 0 0 0 0 0 0 0 0 0 0 0 0 0 0 0 0 0 0 0 0 0 0 0 0 0 2911 3034 2901 2897 0 0 0 0 0 0 0 0 0 0 0 0 0 0 0 0 0 0 0 0 0 0 0 0 0 0 0 0 0 0 0 0 0 0 0 0 0 0 0 0 0 0 0 0 0 0 0 0 0 0 0 0 0 0 0
622 602 602 595 608 595 0 0 0 0 0 0 0 0 0 0 0 0 0 0 0 0 0 0 0 0 0 0 0 0 0 0 0 0 0 0 0 0 0 0 0 0 0 0 0 0 0 0 0 0 0 0 0 0 0 0 0 0 0 0 0 0 0 0 0 0 0 0 0 0 0 0 0 0 0 0 0 0 0 0 0 0 0 0 0 0 0 0 0 0 0 0 0 0 0 0 0 0 0 0 0 0 0 0 0 0 0 0 0 0 0 0 0 0 0 0 0 0 0 0
592 627 634 575 640 543 0 0 0 0 0 0 0 0 0 0 0 0 0 0 0 0 0 0 0 0 0 0 0 0 0 0 0 0 0 0 0 0 0 0 0 0 0 0 0 0 0 0 0 0 0 0 0 0 0 0 0 0 0 0 0 0 0 0 0 0 0 0 0 0 0 0 0 0 0 0 0 0 0 0 0 0 0 0 0 0 0 0 0 0 0 0 0 0 0 0 0 0 0 0 0 0 0 0 0 0 0 0 0 0 0 0 0 0 0 0 0 0 0 0
598 585 585 617 592 0 0 0 0 0 0 0 0 0 0 0 0 0 0 0 0 0 0 0 0 0 0 0 0 0 0 0 0 0 0 0 0 0 0 0 0 0 0 0 0 0 0 0 0 0 0 0 0 0 0 0 0 0 0 0 0 0 0 0 0 0 0 0 0 0 0 0 0 0 0 0 0 0 0 0 0 0 0 0 0 0 0 0 0 0 0 0 0 0 0 0 0 0 0 0 0 0 0 0 0 0 0 0 0 0 0 0 0 0 0 0 0 0 0 0
594 583 587 637 0 0 0 0 0 0 0 0 0 0 0 0 0 0 0 0 0 0 0 0 0 0 864 912 879 906 896 0 906 886 940 934 0 912 960 906 924 0 0 0 0 0 0 0 0 0 0 0 0 0 0 0 0 0 0 0 0 0 0 0 0 0 0 0 0 0 0 0 0 0 0 0 0 0 0 0 0 0 0 0 0 0 0 0 0 0 0 0 0 0 0 0 0 0 0 0 0 0 0 0 0 0 0 0 0 0 0 0 0 0 0 0 0 0 0 0
603 588 0 0 0 0 0 671 675 707 679 721 731 718 690 716 689 693 686 677 691 708 720 738 694 715 677 687 693 715 736 722 729 731 754 763 728 788 709 742 740 757 758 742 722 746 742 759 748 791 756 748 774 747 783 751 782 804 785 775 760 788 736 776 771 799 805 798 778 825 814 742 788 0 0 0 0 0 0 0 0 0 0 0 0 0 0 0 0 0 0 0 0 0 0 0 0 0 0 0 0 0 0 0 0 0 0 0 0 0 0 0 0 0 0 0 0 0 0 0
543 557 540 587 546 559 559 561 529 562 600 580 547 561 597 563 587 557 562 567 559 551 582 584 579 585 571 571 596 601 599 598 573 588 573 590 633 604 597 581 598 598 646 621 611 589 613 614 635 613 630 618 598 655 629 604 613 635 620 606 641 592 613 622 595 636 613 664 638 673 642 617 650 640 627 675 624 650 636 626 660 680 654 612 653 711 654 626 673 670 655 648 672 657 675 0 626 667 677 646 678 661 0 0 0 0 0 0 0 0 0 0 0 0 0 0 0 0 0 0
486 477 514 489 465 493 479 509 486 499 504 500 517 492 487 521 473 511 505 487 512 526 520 517 519 513 519 495 551 506 529 482 530 506 509 506 521 515 526 525 506 525 527 518 533 526 531 529 527 544 543 545 530 559 523 530 525 545 543 533 534 517 525 541 569 526 522 553 538 557 537 562 571 552 561 516 542 558 547 585 552 578 559 562 570 608 596 557 558 566 564 539 581 599 572 593 593 605 576 559 589 607 597 573 0 588 0 595 562 588 0 0 0 0 0 0 0 0 0 0
410 438 407 417 436 425 441 426 448 431 441 449 470 438 447 455 430 454 428 418 450 441 446 443 454 439 451 431 458 453 447 434 458 448 451 458 454 456 459 468 455 460 460 471 438 475 448 469 460 469 473 468 474 457 477 445 466 485 458 473 483 477 486 466 471 470 470 487 457 466 474 478 486 474 479 485 477 471 483 477 486 482 487 459 488 492 478 506 502 473 471 493 487 477 495 501 480 472 469 485 493 503 486 462 491 454 497 482 502 472 458 483 501 0 0 0 0 0 0 0
380 383 392 380 383 401 368 407 389 398 408 386 394 407 398 402 406 399 396 398 378 407 411 407 393 403 408 418 403 413 407 416 405 426 404 405 413 416 416 414 419 407 416 415 422 419 420 416 424 428 420 427 417 423 430 412 418 427 423 432 425 418 417 423 427 421 416 410 432 436 440 424 419 426 433 420 433 434 420 431 438 429 440 421 422 440 430 427 442 425 442 439 445 425 430 442 418 439 423 449 448 440 436 441 432 446 429 436 428 429 456 407 438 444 0 0 0 0 0 0
368 367 346 351 356 370 350 344 361 353 374 352 361 362 357 379 370 360 356 352 365 366 361 381 371 367 357 377 374 363 381 378 368 378 370 376 376 374 370 359 371 372 370 372 387 369 387 382 375 387 391 377 374 373 381 381 372 375 374 397 387 381 383 370 382 393 396 385 392 392 385 393 388 397 388 385 395 393 401 397 391 395 408 382 390 391 388 389 389 392 383 398 386 369 391 387 386 398 386 411 383 387 405 413 404 408 388 405 407 403 406 402 404 395 397 405 0 0 0 0
319 330 320 319 321 299 317 339 340 338 352 341 344 343 340 334 335 330 338 342 349 339 334 337 338 317 343 332 337 338 339 333 346 349 345 340 344 341 338 344 332 345 342 343 336 339 336 345 334 344 349 346 345 330 350 334 346 329 323 345 343 352 346 336 335 342 354 354 350 341 345 348 346 337 353 341 333 342 348 347 357 342 346 348 349 345 358 340 358 356 353 351 353 342 339 347 348 346 362 365 347 345 364 372 369 345 346 340 370 370 357 356 365 368 379 366 376 0 0 0
281 288 295 288 297 299 298 307 305 315 300 285 298 290 300 285 305 290 307 288 304 290 302 312 289 288 295 295 301 308 313 304 297 308 310 310 298 309 319 316 306 322 307 309 305 304 309 311 306 307 315 311 305 311 304 318 316 311 304 305 309 310 305 316 308 316 312 307 309 303 309 316 315 305 310 317 320 306 316 309 313 315 312 321 310 331 320 320 332 312 303 316 309 317 320 338 317 334 331 331 318 315 324 328 321 323 330 328 315 326 326 323 332 332 316 300 304 292 350 0
264 260 275 269 276 280 278 285 272 279 275 276 285 286 284 281 277 284 280 283 286 268 270 281 274 278 276 278 287 276 277 276 277 273 276 281 281 275 281 287 277 284 281 281 286 281 270 283 284 284 285 288 287 286 285 279 279 293 283 293 280 291 287 293 292 285 285 280 293 290 285 293 282 288 287 287 289 284 282 287 282 285 279 293 295 298 297 289 291 298 288 291 288 287 293 289 294 295 301 296 299 292 282 282 283 295 274 294 284 301 293 276 294 301 309 263 303 295 271 250
252 247 259 269 251 256 247 258 256 258 248 242 256 250 263 253 261 260 258 249 254 256 257 247 260 257 249 261 251 258 252 262 259 265 258 261 260 264 265 258 264 259 263 261 261 258 260 253 266 261 262 261 261 262 261 265 264 271 258 268 268 268 271 255 271 265 265 268 267 264 262 269 267 271 263 267 263 262 271 263 274 258 265 267 260 272 270 267 264 259 265 262 269 273 270 254 270 273 275 275 269 263 263 268 262 278 268 271 268 253 261 266 265 281 282 240 243 286 264 259
237 232 231 233 245 237 236 226 233 236 234 237 243 240 247 238 237 240 251 242 233 244 241 242 238 240 241 241 238 245 233 247 248 246 245 249 241 243 243 246 243 243 241 246 250 245 244 240 245 258 246 251 247 251 254 245 250 248 249 250 253 250 253 248 254 253 250 249 252 248 243 244 247 244 248 245 249 245 252 249 250 251 249 252 249 258 252 248 245 242 254 259 250 251 253 246 250 256 252 251 250 241 256 250 256 247 256 249 251 251 257 239 252 243 246 257 255 271 248 235
222 217 214 214 217 220 222 217 225 216 221 222 226 217 226 221 222 224 228 223 225 225 222 237 224 220 228 228 220 222 226 224 223 229 231 234 232 226 229 232 232 225 232 225 229 231 228 231 236 231 234 226 229 227 224 233 228 226 237 229 235 235 232 231 243 232 229 236 231 230 235 238 232 234 228 236 236 230 239 237 235 232 240 230 235 226 225 239 237 231 227 234 239 230 229 235 236 233 227 241 236 236 245 227 239 228 233 236 238 239 240 240 225 239 228 235 227 233 209 223
206 207 215 216 209 204 208 208 204 215 216 213 213 215 218 214 212 215 208 222 218 217 213 213 195 214 213 215 209 216 199 212 213 220 210 217 220 202 197 215 197 217 220 215 226 216 221 219 217 217 215 207 222 221 209 220 216 218 205 230 227 221 228 230 223 201 220 203 206 223 218 220 221 217 205 218 222 220 223 218 222 220 218 227 223 221 217 219 219 217 217 221 227 228 224 222 226 217 231 223 222 223 219 231 219 223 219 219 227 237 233 222 233 225 211 213 231 219 219 223
197 198 196 202 201 200 203 200 186 199 184 201 185 191 204 187 189 185 195 191 192 193 194 191 186 190 187 191 182 210 199 192 195 191 191 190 187 196 191 195 190 190 198 190 197 193 197 197 200 197 201 202 202 195 193 198 200 194 197 202 193 198 197 198 196 196 196 201 193 193 192 196 192 192 190 197 194 191 192 195 194 196 200 201 199 203 191 191 212 216 210 199 210 191 193 187 189 210 212 212 214 210 204 194 219 210 206 207 208 210 202 220 207 207 198 198 207 170 204 200
177 173 178 197 176 177 179 182 183 180 181 174 182 178 186 186 186 188 187 189 181 185 185 187 190 193 192 190 186 194 194 187 193 193 192 195 196 189 192 194 195 197 194 197 197 196 193 199 198 193 196 195 194 202 197 200 196 192 198 200 201 201 197 200 202 194 197 197 193 200 190 195 198 197 198 197 198 197 199 192 194 197 195 189 190 196 192 185 193 195 186 186 182 179 191 190 190 190 185 181 181 186 201 189 190 178 187 187 208 209 201 196 187 193 186 176 180 173 175 166
170 169 177 171 175 174 180 181 179 178 181 184 177 178 185 181 180 189 184 182 187 187 186 188 182 186 182 186 185 193 185 183 188 187 187 181 179 184 185 181 189 185 196 187 188 188 182 190 188 188 192 188 188 186 188 189 188 194 184 185 184 189 189 189 191 190 190 186 189 187 187 186 192 187 192 187 190 188 192 185 190 193 183 189 189 188 189 190 184 188 187 194 192 187 186 185 185 191 186 182 187 181 186 184 176 176 187 179 183 183 175 182 181 177 177 175 194 176 170 184
173 167 156 170 173 166 163 175 170 167 168 175 172 170 179 173 179 179 179 172 177 178 172 177 177 164 177 173 171 176 178 175 172 177 174 171 177 175 174 174 175 173 177 176 182 185 177 182 179 185 176 186 178 181 178 182 177 181 185 178 175 175 182 179 181 176 178 183 177 175 180 178 174 182 182 176 181 181 184 173 181 182 178 176 180 174 182 179 181 178 179 176 181 175 174 182 176 178 180 185 184 187 177 186 181 171 174 181 173 169 176 178 176 169 178 170 174 176 171 173
165 163 163 164 160 167 158 163 165 166 171 168 167 165 162 169 169 167 174 168 168 163 172 165 168 167 169 176 169 169 177 168 167 169 167 167 166 170 169 169 166 172 172 168 173 172 172 167 172 171 177 172 175 174 173 175 171 176 174 170 171 172 173 171 172 172 173 171 173 171 176 177 175 176 173 169 169 175 178 170 169 169 170 166 173 173 172 174 175 173 168 174 172 168 167 171 178 173 169 172 169 177 178 172 171 173 172 165 160 173 179 174 175 173 174 177 168 172 157 165
155 159 165 164 161 159 162 157 153 157 164 160 156 160 161 167 158 166 163 166 158 166 167 165 165 160 164 159 162 167 162 170 161 161 158 161 160 158 165 156 164 164 165 160 170 170 164 156 164 159 163 168 165 169 164 166 160 164 165 171 160 164 165 166 167 168 167 167 162 164 163 160 166 165 164 170 168 167 163 163 162 157 169 168 166 167 162 162 165 166 164 168 163 165 162 165 161 161 170 167 169 167 160 169 164 161 164 167 163 161 163 171 159 161 173 153 164 166 148 159
143 146 149 148 149 150 144 147 150 156 147 149 146 153 150 147 149 163 152 163 154 157 152 151 152 150 152 157 160 158 157 159 155 152 155 158 148 152 149 160 159 153 155 157 154 152 159 156 157 153 156 154 162 159 158 156 156 156 164 162 163 155 157 157 162 156 156 159 156 154 158 157 156 159 158 161 160 153 163 152 159 162 161 153 152 158 158 160 154 159 155 158 157 158 156 150 152 151 155 160 157 158 158 152 157 152 156 151 154 164 153 152 152 151 147 152 153 152 153 150
140 145 149 141 151 147 143 142 152 144 147 145 147 143 147 145 149 148 138 151 152 152 162 147 148 150 146 152 149 150 149 148 148 150 149 144 147 148 147 150 150 156 150 152 152 150 149 151 148 153 150 153 147 146 151 156 150 152 152 155 152 149 155 154 151 154 149 152 151 149 148 154 148 145 153 154 159 161 156 151 154 154 150 146 149 149 152 156 153 151 154 153 152 155 151 156 151 149 152 151 152 155 156 155 150 149 153 146 154 150 151 151 151 144 164 144 140 149 139 149
135 138 134 138 137 142 140 140 139 140 142 143 143 145 142 138 145 138 140 146 142 141 142 145 143 142 150 147 144 146 138 141 141 144 142 144 139 143 143 147 142 142 149 150 145 150 143 142 147 141 147 145 143 145 145 145 150 147 149 147 148 146 131 147 148 148 147 148 149 143 143 149 144 150 143 146 152 152 150 146 140 144 148 139 141 144 153 143 151 146 145 149 141 146 149 148 142 148 148 154 145 146 155 142 139 140 147 142 138 152 135 148 145 140 142 151 139 144 133 145
132 134 132 130 134 140 138 139 140 138 136 0 133 135 134 135 140 143 140 138 143 143 142 141 137 144 148 138 138 141 140 130 133 139 139 129 130 126 138 143 142 144 141 139 139 130 131 130 125 130 132 132 133 142 145 142 144 142 142 144 144 132 133 149 142 142 131 145 135 143 132 144 131 130 142 145 143 142 143 145 144 141 140 126 142 143 143 142 143 139 138 143 142 143 143 140 138 145 146 146 143 136 139 145 142 136 135 146 142 134 129 133 129 132 135 140 126 131 135 138
130 133 130 132 137 134 143 134 130 137 135 133 138 138 138 125 129 139 137 133 141 140 130 137 140 139 140 136 138 125 129 127 127 128 126 130 126 127 130 126 144 130 142 140 0 139 129 128 128 125 130 131 133 134 0 140 0 142 130 130 132 128 133 131 126 128 143 126 133 129 129 124 134 128 129 128 142 132 126 129 136 139 137 129 129 129 130 126 131 141 135 140 139 139 127 127 142 141 143 143 136 134 136 137 141 120 130 139 135 133 136 133 138 138 139 137 135 154 140 144
116 107 116 106 125 127 142 134 112 111 120 118 117 123 123 123 116 132 121 121 120 129 129 120 126 136 135 137 0 130 126 123 118 122 116 115 126 126 124 121 126 127 126 130 0 0 131 126 124 124 121 120 130 127 124 130 132 129 128 122 125 119 123 127 124 128 128 127 122 128 125 125 125 123 119 118 120 131 121 122 125 120 128 126 120 140 123 126 137 125 124 125 125 133 119 116 126 137 140 126 120 119 122 121 117 125 111 118 120 121 117 134 128 131 121 124 127 142 115 94
109 112 112 108 113 118 122 115 119 116 116 120 118 118 123 115 112 124 121 114 123 122 124 119 120 121 124 126 123 125 125 0 126 119 121 117 122 118 0 121 128 121 0 0 0 0 125 126 120 123 124 124 123 122 126 123 124 121 121 122 126 121 114 126 127 122 123 124 123 122 124 121 124 119 119 116 119 128 122 122 118 116 122 123 118 118 124 115 124 123 115 120 117 124 120 118 127 126 117 120 120 117 122 113 108 119 118 113 128 122 128 133 120 140 110 115 130 107 111 136
103 99 114 116 110 109 112 118 111 113 118 115 107 111 111 113 113 108 114 123 116 109 113 117 116 110 118 117 117 123 122 0 119 120 115 109 114 0 114 116 118 0 0 121 125 0 120 118 114 117 116 114 118 121 121 120 118 118 114 118 120 121 122 118 120 120 121 118 119 115 119 116 111 115 115 113 122 117 121 118 117 118 111 118 117 115 122 115 114 114 115 117 120 114 102 124 123 120 112 119 113 121 120 106 115 117 118 122 106 120 112 108 129 116 109 131 111 113 103 129
97 100 107 99 99 104 114 110 103 110 108 107 105 112 118 115 114 109 102 102 113 107 115 103 111 109 112 114 112 114 119 115 106 113 112 108 108 114 0 112 114 113 108 107 109 115 115 0 113 0 111 109 118 114 0 0 108 108 116 109 126 113 107 108 107 111 104 106 113 109 117 105 110 102 110 109 111 109 106 110 108 103 109 103 112 98 108 110 101 112 107 103 98 111 113 112 113 117 107 101 105 110 113 113 107 112 101 112 103 114 113 112 106 107 91 112 94 94 103 108
99 100 104 112 101 106 108 105 107 107 103 110 107 111 116 116 107 113 107 97 107 103 97 106 113 106 112 114 104 113 108 110 108 104 116 111 115 0 105 107 108 106 111 104 105 108 106 109 115 0 110 114 111 114 110 111 109 110 112 108 108 107 114 0 113 108 107 112 109 108 106 102 106 109 104 101 101 100 99 107 106 100 105 107 100 109 101 105 109 102 102 108 100 104 98 108 104 107 99 106 105 110 107 112 108 98 109 106 86 103 110 96 120 114 110 106 87 113 110 89
86 99 108 104 98 94 93 94 93 94 97 102 100 99 102 107 97 100 102 102 97 99 99 100 104 103 106 102 101 106 105 103 101 96 104 105 106 107 104 104 104 106 100 96 102 102 109 99 104 100 104 98 106 103 106 103 94 104 103 104 101 106 105 0 107 106 0 112 103 105 104 96 99 107 103 105 98 101 0 100 0 102 97 101 98 100 96 99 96 103 101 100 103 95 94 90 100 96 104 96 97 99 94 93 98 102 101 97 101 93 101 87 90 112 91 91 100 111 95 127
85 94 79 97 95 91 99 92 95 87 99 97 98 96 105 99 101 94 104 96 100 90 91 94 99 95 102 99 103 99 102 102 106 101 99 101 101 102 100 99 100 102 103 92 100 100 104 102 102 101 108 99 96 103 96 96 101 105 102 98 105 101 109 102 111 104 103 106 105 97 96 105 101 97 96 98 99 104 96 95 0 101 91 93 100 96 98 107 92 99 99 94 97 103 97 103 91 96 84 102 97 90 100 92 89 104 102 99 101 92 99 86 96 92 94 109 100 89 87 104
91 95 90 99 90 91 91 84 85 91 93 91 96 85 90 86 92 87 108 108 103 88 94 89 94 88 100 95 93 93 98 96 102 97 91 105 97 98 94 102 91 93 87 87 96 93 100 98 88 100 98 89 86 94 97 99 100 95 101 96 93 95 103 0 97 100 96 94 97 94 98 97 100 97 85 104 97 92 100 107 95 100 88 104 97 94 91 90 88 98 94 90 96 83 93 89 95 87 102 88 88 99 97 97 103 95 101 76 92 83 89 91 84 84 92 97 104 96 95 76
83 89 78 79 86 84 78 89 81 88 85 88 92 88 86 92 93 88 91 81 84 93 90 90 94 88 96 89 90 97 85 87 95 96 88 91 87 91 94 93 91 96 97 98 87 86 93 90 98 97 98 92 91 94 93 97 98 99 95 88 98 96 99 92 90 90 97 99 93 91 87 95 98 89 85 99 90 98 96 93 94 93 95 93 90 87 84 97 93 93 87 95 93 88 91 92 84 91 90 87 92 87 90 82 86 80 92 91 85 80 83 80 87 83 86 88 92 50 86 134
87 81 86 88 90 87 87 101 83 89 85 83 90 87 89 89 90 93 93 90 83 90 91 95 90 90 94 87 89 87 93 85 99 88 99 89 90 89 91 96 88 92 97 96 92 96 92 92 91 95 95 99 95 94 91 95 93 99 96 93 90 90 99 96 98 93 86 90 96 94 90 87 97 97 96 97 94 93 83 92 97 87 92 92 95 89 92 94 89 93 93 98 100 90 92 93 92 82 94 98 88 87 84 92 92 90 94 82 89 84 90 89 81 83 90 86 83 112 0 0
82 90 84 85 88 85 90 91 85 0 84 91 91 90 82 89 88 92 89 89 94 93 90 99 92 95 87 91 95 95 86 87 93 93 93 95 89 90 93 95 84 87 93 85 97 98 95 98 89 96 88 95 98 91 97 97 98 94 97 91 96 98 90 97 89 95 98 92 99 93 97 98 82 95 92 87 87 93 91 96 90 97 90 88 91 95 95 96 98 85 91 94 97 90 88 93 94 94 91 83 83 91 82 91 85 91 95 86 98 79 87 85 85 89 76 83 84 66 86 0
79 82 78 86 86 84 96 85 85 79 81 81 87 88 82 90 87 90 83 84 90 87 87 85 87 84 89 87 90 88 84 86 91 88 86 91 92 89 90 88 94 89 90 92 97 83 91 94 92 90 95 96 93 86 95 97 94 94 90 94 92 97 91 89 86 94 84 90 86 93 88 98 90 93 97 86 92 95 97 92 86 87 93 90 86 86 88 88 87 89 92 90 87 85 83 81 87 86 84 87 77 80 92 85 84 89 89 86 77 78 79 88 88 91 85 84 67 58 0 0
84 75 82 78 84 85 92 94 82 90 79 81 89 84 91 90 85 88 93 87 87 93 90 82 81 86 84 92 90 86 94 91 93 93 94 86 91 89 86 94 91 92 91 97 92 90 89 89 89 94 90 92 87 84 92 92 90 98 89 89 93 90 86 95 89 97 87 89 89 96 88 83 90 84 92 88 86 93 94 86 87 84 87 85 91 94 90 86 93 89 93 94 82 86 82 90 86 88 92 89 80 93 91 88 89 92 91 89 89 80 76 83 88 89 84 84 0 0 0 0
81 70 61 65 74 80 82 83 84 74 80 79 80 80 80 80 81 83 76 77 81 74 84 74 74 77 78 82 81 80 89 72 82 84 87 79 90 80 81 82 88 84 79 72 79 83 78 86 84 83 85 77 74 88 79 80 80 83 83 77 78 77 80 82 76 91 74 81 80 72 85 87 78 80 85 77 80 83 87 85 78 82 74 79 74 87 82 82 78 83 78 74 81 75 76 76 78 83 67 84 75 77 84 60 71 74 80 77 80 87 69 69 81 69 79 69 0 0 0 0
69 68 75 79 72 80 84 88 79 78 78 87 75 75 80 82 78 84 75 76 80 82 78 81 90 79 77 75 83 84 80 81 82 85 84 73 71 79 80 76 86 82 83 84 81 89 81 81 85 83 84 75 75 77 85 81 84 75 85 75 82 77 78 81 80 75 80 77 86 73 78 81 84 78 80 79 82 88 84 86 86 87 75 79 71 82 90 72 77 79 64 85 71 75 84 79 89 79 72 79 87 69 73 69 74 76 72 78 74 73 70 44 65 84 101 0 0 0 0 0
