0 0 0 0 0 0 0 0 0 0 0 0 0 0 0 0 0 0 0 0 0 0 0 0 0 0 0 0 0 0 0 0 0 0 0 0 0 0 0 0 0 0 0 0 0 0 0 0 0 0 0 0 0 0 0 0 0 0 0 0 0 0 0 0 0 0 0 0 0 0 0 0 0 0 0 0 0 0 0 0 0 0 0 0 0 0 0 0 0 0 0 0 0 0 0 0 0 0 0 0 0 0 0 0 0 0 0 0 0 0 0 0 0 0 0 0 0 0 0 0
0 0 0 0 0 0 0 0 0 0 0 0 0 0 0 0 0 0 0 0 0 0 0 0 0 0 0 0 0 0 0 0 0 0 0 0 0 0 0 0 0 0 0 0 0 0 0 0 0 0 0 0 0 0 0 0 0 0 0 0 0 0 0 0 0 0 0 0 0 0 0 0 0 0 0 0 0 0 0 0 0 0 0 0 0 0 0 0 0 0 0 0 0 0 0 0 0 0 0 0 0 0 0 0 0 0 0 0 0 0 0 0 0 0 0 0 0 0 0 0
0 0 0 0 0 0 0 0 0 0 0 0 0 0 0 0 0 1271 0 0 0 0 0 0 0 0 0 0 0 0 0 0 0 0 0 0 0 0 0 0 0 0 0 0 0 0 0 0 0 0 0 0 0 0 0 0 0 0 0 0 0 0 0 0 0 0 0 0 0 0 0 0 0 0 0 0 0 0 0 0 0 0 0 0 0 0 0 0 0 0 0 0 0 0 0 0 0 0 0 0 0 0 0 0 0 0 0 0 0 0 0 0 0 0 0 0 0 0 0 0
0 0 0 0 0 0 0 0 0 0 0 1090 1110 1133 0 0 1279 1264 0 0 0 1280 1280 1277 0 0 0 0 0 0 0 0 0 0 0 0 0 0 0 0 0 0 0 0 0 0 0 0 0 0 0 0 0 0 0 0 0 0 0 0 0 0 0 0 0 0 0 0 0 0 0 0 0 0 0 0 0 0 0 0 0 0 0 0 0 0 0 0 0 0 0 0 0 0 0 0 0 0 0 0 0 0 0 0 0 0 0 0 0 0 0 0 0 0 0 0 0 0 0 0
0 0 0 0 0 0 0 1119 1129 1120 1136 1139 1175 1173 1158 0 1270 1276 1319 1246 1246 1268 1268 0 0 0 0 0 0 0 0 0 0 0 0 0 0 0 0 0 0 0 0 0 0 0 0 0 0 0 0 0 0 0 0 0 0 0 0 0 0 0 0 0 0 0 0 0 0 0 0 0 0 0 0 0 0 0 0 0 0 0 0 0 0 0 0 0 0 0 0 0 0 0 0 0 0 0 0 0 0 0 0 0 0 0 0 0 0 0 0 0 0 0 0 0 0 0 0 0
0 0 0 0 0 0 0 1114 1101 1133 1140 0 1140 1153 1171 1202 1274 1265 1260 1313 1294 1244 1283 1261 0 0 0 0 0 0 0 0 0 0 0 0 0 0 0 0 0 0 0 0 0 0 0 0 0 0 0 0 0 0 0 0 0 0 0 0 0 0 0 0 0 0 0 0 0 0 0 0 0 0 0 0 0 0 0 0 0 0 0 0 0 0 0 0 0 0 0 0 0 0 0 0 0 0 0 0 0 0 0 0 0 0 0 0 0 0 0 0 0 0 0 0 0 0 0 0
0 0 0 0 0 0 0 0 0 0 0 0 1227 1259 1230 1289 1274 1282 1265 1280 1277 1238 1261 1265 1282 0 0 0 0 0 0 1403 0 0 0 0 0 0 0 0 0 0 0 0 0 0 0 0 0 0 0 0 0 0 0 0 0 0 0 0 0 0 0 0 0 0 0 0 0 0 0 0 0 0 0 0 0 0 0 0 0 0 0 0 0 0 0 0 0 0 0 0 0 0 0 0 0 0 0 0 0 0 0 0 0 0 0 0 0 0 0 0 0 0 0 0 0 0 0 0
0 0 0 0 0 0 0 0 0 0 0 0 1283 1259 1288 1276 1279 1282 1269 1259 1256 1275 1284 1271 0 1371 1341 1385 1357 1378 0 1418 0 0 0 0 0 0 0 0 0 0 0 0 0 0 0 0 0 0 0 0 0 0 0 0 0 0 0 0 0 0 0 0 0 0 0 0 0 0 0 0 0 0 0 0 0 0 0 0 0 0 0 0 0 0 0 0 0 0 0 0 0 0 0 0 0 0 0 0 0 0 0 0 0 0 0 0 0 0 0 0 0 0 0 0 0 0 0 0
0 0 0 0 0 0 0 0 0 0 0 0 1282 1289 1286 1291 1269 1282 1288 1247 1253 1252 1282 1239 0 0 1320 1361 1359 1370 1359 1441 0 0 0 0 0 0 0 0 0 0 0 0 0 0 0 0 0 0 0 0 0 0 0 0 0 0 0 0 0 0 0 0 0 0 0 0 0 0 0 0 0 0 0 0 0 0 0 0 0 0 0 0 0 0 0 0 0 0 0 0 0 0 0 0 0 0 0 0 0 0 0 0 0 0 0 1779 0 0 0 0 0 0 0 0 0 0 0 0
0 0 0 0 0 0 0 0 0 0 0 0 0 0 1293 1277 1284 1282 1280 1290 1261 1260 1283 1287 1311 0 0 1383 1366 1362 1379 1456 1404 0 0 0 0 0 0 0 0 0 0 0 0 0 0 0 0 0 0 0 0 0 0 0 0 0 0 0 0 0 0 0 0 0 0 0 0 0 0 0 0 0 0 0 0 0 0 0 0 0 0 0 0 0 0 0 0 0 0 0 0 0 0 0 0 0 0 0 0 0 0 0 0 0 0 0 0 0 0 0 0 0 0 0 0 0 0 0
0 0 0 0 0 0 0 0 0 0 0 0 0 0 0 0 0 0 0 0 0 1255 1235 1259 1283 0 0 1353 1344 1353 1357 1408 1433 0 0 0 0 0 0 0 0 0 0 0 0 0 0 0 0 0 0 0 0 0 0 0 0 0 0 0 0 0 0 0 0 0 0 0 0 0 0 0 0 0 0 0 0 0 0 0 0 0 0 0 0 0 0 0 0 0 0 0 0 0 0 0 0 0 0 0 0 0 0 0 0 0 0 0 0 0 0 0 0 0 0 0 0 0 0 0
0 0 0 0 0 0 0 0 0 0 0 0 0 0 0 0 0 0 0 0 0 0 0 1362 1319 0 0 0 1337 1337 1328 1369 1405 0 0 0 0 0 0 0 0 0 0 0 0 0 0 0 0 0 0 0 0 0 0 0 0 0 0 0 0 0 0 0 0 0 0 0 0 0 0 0 0 0 0 0 0 0 0 0 0 0 0 0 0 0 0 0 0 0 0 0 0 0 0 0 0 0 0 0 0 0 0 0 0 0 0 1712 0 0 0 0 0 0 0 0 0 0 0 0
0 0 0 0 0 0 0 0 0 0 0 0 0 0 0 0 0 0 0 0 0 0 0 1368 1403 1309 1296 1323 1351 1343 1362 1375 1427 0 0 0 0 0 0 0 0 0 0 0 0 0 0 0 0 0 0 0 0 0 0 0 0 0 0 0 0 0 0 0 0 0 0 0 0 0 0 0 0 0 0 0 0 0 0 0 0 0 0 0 0 0 0 0 0 0 0 0 0 0 0 0 0 0 0 0 0 0 0 0 0 0 1747 1763 0 0 0 0 0 0 0 0 0 0 0 0
0 0 0 0 0 0 0 0 0 0 0 0 0 0 0 0 0 0 0 0 0 0 0 1341 1354 1367 1327 1274 1313 1327 1338 1389 1398 0 0 0 0 0 0 0 0 0 0 0 0 0 0 0 0 0 0 0 0 0 0 0 0 0 0 0 0 0 0 0 0 0 0 0 0 0 0 0 0 0 0 0 0 0 0 0 0 0 0 0 0 0 0 0 0 0 0 0 0 0 0 0 0 0 0 0 0 0 0 0 0 0 1725 1705 0 0 0 0 0 0 0 0 0 0 0 0
0 0 0 0 0 0 0 0 0 0 0 0 0 0 0 0 0 0 0 0 0 0 0 1373 1367 1379 1373 1308 1309 1363 1324 1416 1427 0 0 0 0 0 0 0 0 0 0 0 0 0 0 0 0 0 0 0 0 0 0 0 0 0 0 0 0 0 0 0 0 0 0 0 0 0 0 0 0 0 0 0 0 0 0 0 0 0 0 0 0 0 0 0 0 0 0 0 0 0 0 0 0 0 0 0 0 0 0 0 0 0 1734 0 0 0 0 0 0 0 0 0 0 0 0 0
0 0 0 0 0 0 0 0 0 0 0 0 0 0 0 0 0 0 0 0 0 0 0 1354 1376 1379 1392 1382 1368 1327 1352 1408 1445 0 0 0 0 0 0 0 0 0 0 0 0 0 0 0 0 0 0 0 0 0 0 0 0 0 0 0 0 0 0 0 0 0 0 0 0 0 0 0 0 0 0 0 0 0 0 0 0 0 0 0 0 0 0 0 0 0 0 0 0 0 0 0 0 0 0 0 0 0 0 0 0 1835 0 1742 1768 0 0 0 0 0 0 0 0 0 0 0
1244 1268 1259 1285 1297 1304 1308 0 0 0 0 0 0 0 0 0 0 0 0 0 0 0 0 0 1384 1377 1380 1392 1376 1386 1357 1443 1430 0 0 0 0 0 0 0 0 0 0 0 0 0 0 0 0 0 0 0 0 0 0 0 0 0 0 0 0 0 0 0 0 0 0 0 0 0 0 0 0 0 0 0 0 0 0 0 0 0 0 0 0 0 0 0 0 0 0 0 0 0 0 0 0 0 0 0 0 0 0 0 0 1752 1738 1709 1704 1718 0 0 1657 0 0 0 0 0 0 0
1262 1256 1264 1269 1284 1306 1329 1316 1334 1316 1355 0 0 0 0 0 0 0 0 0 0 0 0 1405 1349 1366 1382 1374 1359 1368 1413 1436 1419 0 0 0 0 0 0 0 0 0 0 0 0 0 0 0 0 0 0 0 0 0 0 0 0 0 0 0 0 0 0 0 0 0 0 0 0 0 0 0 0 0 0 0 0 0 0 0 0 0 0 0 0 0 0 0 0 0 0 0 0 0 0 0 0 0 0 0 0 0 0 0 1794 1720 1712 1728 1708 1661 1647 1644 1724 0 0 0 0 0 0 0
1202 1246 1245 1266 1286 1298 1295 1310 1315 1316 1337 1360 1369 1386 1408 1377 0 0 0 0 0 0 0 0 0 1370 0 0 1353 0 0 1404 1408 0 0 0 0 0 0 0 0 0 0 0 0 0 0 0 0 0 0 0 0 0 0 0 0 0 0 0 0 0 0 0 0 0 0 0 0 0 0 0 0 0 0 0 0 0 0 0 0 0 0 0 0 0 0 0 0 0 0 0 0 0 0 0 0 0 0 0 0 0 0 1799 1733 1757 1729 1685 1718 1743 1743 1620 0 0 0 0 0 0 0 0
0 0 0 0 1251 1272 1289 1291 1307 1320 1340 1345 1351 1351 1371 1413 1391 1410 1420 1412 0 0 0 0 0 0 0 0 0 0 0 1406 1425 1419 0 0 0 0 0 0 0 0 0 0 0 0 0 0 0 0 0 0 0 0 0 0 0 0 0 0 0 0 0 0 0 0 0 0 0 0 0 0 0 0 0 0 0 0 0 0 0 0 0 0 0 0 0 0 0 0 0 0 0 0 0 0 0 0 0 0 0 0 1720 1791 1761 1751 1697 1700 1693 1694 0 0 0 0 0 0 0 0 0 0
0 0 0 0 0 0 0 0 0 1316 1336 1364 1339 1361 1406 1398 1376 1403 1448 1436 1446 1473 0 0 0 0 0 0 0 0 0 1467 1459 1477 0 0 0 0 0 0 0 0 0 0 0 0 0 0 0 0 0 0 0 0 0 0 0 0 0 0 0 0 0 0 0 0 0 0 0 0 0 0 0 0 0 0 0 0 0 0 0 0 0 0 0 0 0 0 0 0 0 0 0 0 0 0 0 0 0 0 0 0 0 1789 1681 1619 1624 1583 1606 1578 1611 1596 1636 1605 1566 0 0 0 0 0
0 0 0 0 0 0 0 0 0 0 0 0 0 0 0 1365 1364 1432 1427 1437 1440 1503 0 0 0 0 0 0 0 0 0 0 1487 0 0 0 0 0 0 0 0 0 0 0 0 0 0 0 0 0 0 0 0 0 0 0 0 0 0 0 0 0 0 0 0 0 0 0 0 0 0 0 0 0 0 0 0 0 0 0 0 0 0 0 0 0 0 0 0 0 0 0 0 0 0 0 0 0 0 0 0 0 1601 1592 1577 1584 1603 1543 1589 1555 1559 1566 1592 1538 1540 0 0 0 0 0
0 0 0 0 0 0 0 0 0 0 0 0 0 0 0 0 0 0 0 0 0 0 0 0 0 0 0 0 0 0 0 0 0 0 0 0 0 0 0 0 0 0 0 0 0 0 0 0 0 0 0 0 0 0 0 0 0 0 0 0 0 0 0 0 0 0 0 0 0 0 0 0 0 0 0 0 0 0 0 0 0 0 0 0 0 0 0 0 0 0 0 0 0 0 0 0 0 0 0 0 0 1649 1569 1600 1590 1574 1595 1594 1586 1571 1551 1598 1559 1621 0 0 0 0 0 0
0 0 0 0 0 0 0 0 0 0 0 0 0 0 0 0 0 0 0 0 0 0 0 0 0 0 0 0 0 0 0 0 0 0 0 0 0 0 0 0 0 0 0 0 0 0 0 0 0 0 0 0 0 0 0 0 0 0 0 0 0 0 0 0 0 0 0 0 0 0 0 0 0 0 0 0 0 0 0 0 0 0 0 0 0 0 0 0 0 0 0 0 0 0 0 0 0 0 0 0 0 0 0 1553 1576 1602 1597 1581 1595 1598 1579 1594 0 0 0 0 0 0 0 0
0 0 0 0 0 0 0 0 0 0 0 0 0 0 0 0 0 0 0 0 0 0 0 0 0 0 0 0 0 0 0 0 0 0 0 0 0 0 0 0 0 0 0 0 0 0 0 0 0 0 0 0 0 0 0 0 0 0 0 0 0 0 0 0 0 0 0 0 0 0 0 0 0 0 0 0 0 0 0 0 0 0 0 0 0 0 0 0 0 0 0 0 0 0 0 0 0 0 0 0 0 0 0 0 0 0 0 0 0 0 0 0 0 0 0 0 0 0 0 0
0 0 0 0 0 0 0 0 0 0 0 0 0 0 0 0 0 0 0 0 0 0 0 0 0 0 0 0 0 0 0 0 0 0 0 0 0 0 0 0 0 0 0 0 0 0 0 0 0 0 0 0 0 0 0 0 0 0 0 0 0 0 0 0 0 0 0 0 0 0 0 0 0 0 0 0 0 0 0 0 0 0 0 0 0 0 0 0 0 0 0 0 0 0 0 0 0 1679 0 0 0 0 0 0 0 0 0 0 0 0 0 0 0 0 0 0 0 0 0 0
582 582 0 0 0 0 0 0 0 0 0 0 0 0 0 0 0 0 0 0 0 0 0 0 0 1887 1865 0 0 0 0 0 0 0 0 0 0 0 0 0 0 0 0 0 0 0 0 2928 2868 2940 2884 2915 2907 2877 2913 2922 2828 2915 2889 2895 2880 2953 2932 2869 2883 2898 0 0 0 0 0 0 0 0 0 0 0 0 0 0 0 0 0 0 0 0 0 0 0 0 0 0 0 0 0 0 1670 1680 0 0 0 0 0 0 0 0 0 0 0 0 0 0 0 0 0 0 0 0 0 0
569 591 596 572 606 638 0 0 0 0 0 0 0 0 0 0 0 0 0 0 0 0 0 0 0 0 0 1871 1930 0 0 0 0 0 0 0 0 0 0 0 0 0 0 0 0 0 0 2898 2933 2881 2900 2867 2911 2906 2899 2973 2916 2942 2920 2897 2869 2961 2907 2909 2891 3005 0 0 0 0 0 0 0 0 0 0 0 0 0 0 0 0 0 0 0 0 0 0 0 0 0 0 0 0 0 0 0 0 0 0 0 0 0 0 0 0 0 0 0 0 0 0 0 0 0 0 0 0 0 0
591 586 585 606 600 634 628 642 621 0 0 0 0 0 0 0 0 0 0 0 0 0 0 0 0 0 0 0 0 0 0 0 0 0 0 0 0 0 0 0 0 0 0 0 0 0 0 2968 2947 2956 2899 2909 2919 2968 2884 2955 2911 2898 2914 2885 2956 2892 2907 2911 2884 0 0 0 0 0 0 0 0 0 0 0 0 0 0 0 0 0 0 0 0 0 0 0 0 0 0 0 0 0 0 0 0 0 0 0 0 0 0 0 0 0 0 0 0 0 0 0 0 0 0 0 0 0 0 0
562 574 574 594 619 607 622 648 657 657 647 663 0 0 0 0 0 0 0 0 0 0 0 0 0 0 0 0 0 0 0 0 0 0 0 0 0 0 0 0 0 0 0 0 0 0 0 2981 2949 2901 2937 2942 2953 2909 2905 2950 2942 2948 2937 2940 2894 2909 2918 2900 2915 2940 0 0 0 0 0 0 0 0 0 0 0 0 0 0 0 0 0 0 0 0 0 0 0 0 0 0 0 0 0 0 0 0 0 0 0 0 0 0 0 0 0 0 0 0 0 0 0 0 0 0 0 0 0 0
601 598 599 600 640 639 631 667 678 670 686 686 706 740 784 0 0 0 0 0 0 0 0 0 0 0 0 0 0 0 0 0 0 0 0 0 0 0 0 0 0 0 0 0 0 0 0 2875 2872 2933 2909 2913 2884 2926 2902 2876 2836 2894 2873 2899 2901 2886 2898 2891 2867 2867 0 0 0 0 0 0 0 0 0 0 0 0 0 0 0 0 0 0 0 0 0 0 0 0 0 0 0 0 0 0 0 0 0 0 0 0 0 0 0 0 0 0 0 0 0 0 0 0 0 0 0 0 0 0
809 793 759 731 705 669 654 688 662 655 676 704 708 748 746 750 803 768 0 0 0 0 0 0 0 0 0 0 0 0 0 0 0 0 0 0 0 0 0 0 0 0 0 0 0 0 0 2877 2890 2911 2921 2867 2901 2929 2890 2930 2915 2929 2900 2919 2940 2896 2857 2933 2885 2921 0 0 0 0 0 0 0 0 0 0 0 0 0 0 0 0 0 0 0 0 0 0 0 0 0 0 0 0 0 0 0 0 0 0 0 0 0 0 0 0 0 0 0 0 0 0 0 0 0 0 0 0 0 0
789 809 818 818 828 844 836 837 837 770 750 719 707 698 713 757 762 755 786 801 859 0 0 0 0 0 0 0 0 0 0 0 0 0 0 0 0 0 0 0 0 0 0 0 0 0 0 2905 2904 2928 2901 2935 2900 2911 2922 2909 2890 2903 2916 2900 2885 2929 2940 2857 2908 2836 0 0 0 0 0 0 0 0 0 0 0 0 0 0 0 0 0 0 0 0 0 0 0 0 0 0 0 0 0 0 0 0 0 0 0 0 0 0 0 0 0 0 0 0 0 0 0 0 0 0 0 0 0 0
761 810 813 834 849 866 877 897 873 919 933 939 928 898 859 793 778 820 811 818 857 861 905 930 0 0 0 0 0 0 0 0 0 0 0 0 0 0 0 0 0 0 0 0 0 0 0 2893 2909 2917 2895 2867 2880 2858 2865 2858 2867 2918 2913 2885 2872 2868 2867 2931 2899 2897 0 0 0 0 0 0 0 0 0 0 0 0 0 0 0 0 0 0 0 0 0 0 0 0 0 0 0 0 0 0 0 0 0 0 0 0 0 0 0 0 0 0 0 0 0 0 0 0 0 0 0 0 0 0
625 0 841 842 863 842 882 884 884 914 933 945 949 961 946 948 936 920 897 859 826 844 861 872 928 930 0 0 0 0 0 0 0 0 0 0 0 0 0 0 0 0 0 0 0 0 0 2950 2895 2884 2916 2931 2960 2879 2911 2915 2940 2875 2893 2921 2929 2911 2883 2911 2955 2936 0 0 0 0 0 0 0 0 0 0 0 0 0 0 0 0 0 0 0 0 0 0 0 0 0 0 0 0 0 0 0 0 0 0 0 0 0 0 0 0 0 0 0 0 0 0 0 0 0 0 0 0 0 0
642 891 950 963 911 934 922 909 912 909 941 949 953 944 956 942 952 944 944 950 934 919 905 902 915 925 945 969 1025 0 0 0 0 0 0 0 0 0 0 0 0 0 0 0 0 0 0 2888 2937 2925 2964 2916 2890 2908 2926 2961 2899 2894 2962 2889 2895 2923 2888 2908 2899 0 0 0 0 0 0 0 0 0 0 0 0 0 0 0 0 0 0 0 0 0 0 0 0 0 0 0 0 0 0 0 0 0 0 0 0 0 0 0 0 0 0 0 0 0 0 0 0 0 0 0 0 0 0 0
602 725 0 0 0 0 0 0 0 0 989 991 989 992 1008 970 960 974 958 959 952 944 950 952 976 932 988 1001 1060 1048 1067 0 0 0 0 0 0 0 0 0 0 0 0 0 0 0 0 2868 2910 2885 2873 2875 2937 2900 2850 2912 2887 2869 2869 2882 2892 2889 2861 2891 2876 2838 0 0 0 0 0 0 0 0 0 0 0 0 0 0 0 0 0 0 0 0 0 0 0 0 0 0 0 0 0 0 0 0 0 0 0 0 0 0 0 0 0 0 0 0 0 0 0 0 0 0 0 0 0 0
600 621 574 0 1116 1120 1112 1129 1145 1123 1130 1130 1130 1140 1158 1126 1134 1039 0 0 1024 1066 1053 971 996 1042 1117 1101 1093 1088 1093 0 0 0 0 0 0 0 0 0 0 0 0 0 0 0 0 2892 2982 2965 2903 2915 2918 2935 2893 2909 2911 2904 2945 2942 2893 2902 2858 2934 2939 2863 0 0 0 0 0 0 0 0 0 0 0 0 0 0 0 0 0 0 0 0 0 0 0 0 0 0 0 0 0 0 0 0 0 0 0 0 0 0 0 0 0 0 0 0 0 0 0 0 0 0 0 0 0 0
578 583 599 605 0 0 0 0 0 0 0 0 0 0 0 0 1412 1052 988 0 0 1176 1126 0 0 1098 1158 1153 1133 1165 1119 0 0 0 0 0 0 0 0 0 0 0 0 0 0 0 0 2914 2879 2882 2900 2919 2876 2919 2888 2854 2890 2853 2907 2927 2892 2888 2839 2900 2882 2849 0 0 0 0 0 0 0 0 0 0 0 0 0 0 0 0 0 0 0 0 0 0 0 0 0 0 0 0 0 0 0 0 0 0 0 0 0 0 0 0 0 0 0 0 0 0 0 0 0 0 0 0 0 0
580 603 610 613 590 0 0 0 0 0 0 0 0 0 0 0 0 985 993 0 0 0 0 0 0 0 0 0 0 0 0 0 0 0 0 0 0 0 0 0 0 0 0 0 0 0 0 2903 2925 2886 2894 2879 2906 2916 2913 2896 2907 2894 2893 2923 2944 2941 2871 2889 2903 2820 0 0 0 0 0 0 0 0 0 0 0 0 0 0 0 0 0 0 0 0 0 0 0 0 0 0 0 0 0 0 0 0 0 0 0 0 0 0 0 0 0 0 0 0 0 0 0 0 0 0 0 0 0 0
596 595 631 590 620 590 0 0 0 0 0 0 0 0 0 0 0 0 0 0 0 0 0 0 0 0 0 0 0 0 0 0 0 0 0 0 0 0 0 0 0 0 0 0 0 0 0 2935 2935 2906 2900 2878 2926 2905 2908 2898 2874 2926 2911 2947 2937 2898 2879 2882 2896 0 0 0 0 0 0 0 0 0 0 0 0 0 0 0 0 0 0 0 0 0 0 0 0 0 0 0 0 0 0 0 0 0 0 0 0 0 0 0 0 0 0 0 0 0 0 0 0 0 0 0 0 0 0 0
610 599 606 644 607 649 0 0 0 0 0 0 0 0 0 0 0 0 0 0 0 0 940 0 0 0 0 0 0 0 0 0 0 0 0 0 0 0 0 0 0 0 0 0 0 0 0 2899 2874 2925 2908 2904 2926 2881 2888 2866 2863 2927 2938 2905 2893 2875 2868 2868 2891 2876 0 0 0 0 0 0 0 0 0 0 0 0 0 0 0 0 0 0 0 0 0 0 0 0 0 0 0 0 0 0 0 0 0 0 0 0 0 0 0 0 0 0 0 0 0 0 0 0 0 0 0 0 0 0
569 614 637 615 612 645 0 0 0 0 0 0 0 0 0 0 0 0 0 0 0 0 934 0 0 0 0 0 0 0 0 0 0 0 0 0 0 0 0 0 0 0 0 0 0 0 0 2897 2942 2856 2984 2915 2955 2910 2898 2879 2917 2863 2858 2869 2907 2874 2859 2909 2887 0 0 0 0 0 0 0 0 0 0 0 0 0 0 0 0 0 0 0 0 0 0 0 0 0 0 0 0 0 0 0 0 0 0 0 0 0 0 0 0 0 0 0 0 0 0 0 0 0 0 0 0 0 0 0
578 592 591 548 616 613 630 0 0 0 0 0 0 0 0 0 0 0 0 0 0 0 0 0 0 0 0 0 0 0 0 0 0 0 0 0 0 0 0 0 0 0 0 0 0 0 0 2879 2870 2940 2910 2869 2920 2905 2936 2908 2919 2946 2893 2909 2876 2924 2888 2865 2900 0 0 0 0 0 0 0 0 0 0 0 0 0 0 0 0 0 0 0 0 0 0 0 0 0 0 0 0 0 0 0 0 0 0 0 0 0 0 0 0 0 0 0 0 0 0 0 0 0 0 0 0 0 0 0
578 593 593 609 588 606 604 0 0 0 0 0 0 0 0 0 2304 0 0 0 0 0 969 956 0 0 0 0 0 0 0 0 0 0 0 0 0 0 0 0 0 0 0 0 0 0 0 2923 2890 2931 2942 2876 2916 2897 2964 2937 2860 2898 2859 2918 2879 2886 2900 2877 2882 2843 0 0 0 0 0 0 0 0 0 0 0 0 0 0 0 0 0 0 0 0 0 0 0 0 0 0 0 0 0 0 0 0 0 0 0 0 0 0 0 0 0 0 0 0 0 0 0 0 0 0 0 0 0 0
593 591 606 581 624 611 552 0 0 0 0 0 0 0 0 0 0 0 0 0 0 0 0 0 0 0 0 0 0 0 0 0 0 0 0 0 0 0 0 0 0 0 0 0 0 0 0 2896 2897 2918 2943 2938 2880 2930 2965 2886 2912 2894 2954 2897 2890 2924 2909 2912 2902 2873 0 0 0 0 0 0 0 0 0 0 0 0 0 0 0 0 0 0 0 0 0 0 0 0 0 0 0 0 0 0 0 0 0 0 0 0 0 0 0 0 0 0 0 0 0 0 0 0 0 0 0 0 0 0
580 576 583 614 586 608 0 0 0 0 0 0 0 0 0 0 0 0 0 0 0 0 0 0 0 0 0 0 0 0 0 0 0 0 0 0 0 0 0 0 0 0 0 0 0 0 0 0 0 0 0 0 0 0 0 0 0 0 0 0 0 2914 3043 2910 2950 0 0 0 0 0 0 0 0 0 0 0 0 0 0 0 0 0 0 0 0 0 0 0 0 0 0 0 0 0 0 0 0 0 0 0 0 0 0 0 0 0 0 0 0 0 0 0 0 0 0 0 0 0 0 0
585 584 640 605 590 611 0 0 0 0 0 0 0 0 0 0 0 0 0 0 0 0 0 0 0 0 0 0 0 0 0 0 0 0 0 0 0 0 0 0 0 0 0 0 0 0 0 0 0 0 0 0 0 0 0 0 0 0 0 0 0 0 0 0 0 0 0 0 0 0 0 0 0 0 0 0 0 0 0 0 0 0 0 0 0 0 0 0 0 0 0 0 0 0 0 0 0 0 0 0 0 0 0 0 0 0 0 0 0 0 0 0 0 0 0 0 0 0 0 0
580 638 589 608 605 0 0 0 0 0 0 0 0 0 0 0 0 0 0 0 0 0 0 0 0 0 0 0 0 0 0 0 0 0 0 0 0 0 0 0 0 0 0 0 0 0 0 0 0 0 0 0 0 0 0 0 0 0 0 0 0 0 0 0 0 0 0 0 0 0 0 0 0 0 0 0 0 0 0 0 0 0 0 0 0 0 0 0 0 0 0 0 0 0 0 0 0 0 0 0 0 0 0 0 0 0 0 0 0 0 0 0 0 0 0 0 0 0 0 0
593 608 625 593 655 0 0 0 0 0 0 0 0 0 0 0 0 0 0 0 0 0 0 0 0 0 0 0 0 0 0 0 0 0 0 0 0 0 0 0 0 0 0 0 0 0 0 0 0 0 0 0 0 0 0 0 0 0 0 0 0 0 0 0 0 0 0 0 0 0 0 0 0 0 0 0 0 0 0 0 0 0 0 0 0 0 0 0 0 0 0 0 0 0 0 0 0 0 0 0 0 0 0 0 0 0 0 0 0 0 0 0 0 0 0 0 0 0 0 0
575 600 619 616 0 0 0 0 0 0 0 0 0 0 0 0 0 0 0 0 0 0 0 0 0 0 879 882 913 900 910 0 0 0 0 929 926 865 913 921 937 0 908 0 0 0 0 0 0 0 0 0 0 0 0 0 0 0 0 0 0 0 0 0 0 0 0 0 0 0 0 0 0 0 0 0 0 0 0 0 0 0 0 0 0 0 0 0 0 0 0 0 0 0 0 0 0 0 0 0 0 0 0 0 0 0 0 0 0 0 0 0 0 0 0 0 0 0 0 0
592 565 624 0 0 0 677 671 725 709 697 686 746 700 696 698 689 693 685 694 699 646 721 681 709 638 739 717 673 700 736 707 721 718 697 717 686 741 746 769 761 721 766 728 745 762 784 789 756 741 748 735 798 786 736 751 782 733 762 755 744 781 735 750 806 783 780 772 778 803 798 812 812 0 0 809 0 0 0 0 0 0 0 0 0 0 0 0 0 0 0 0 0 0 0 0 0 0 0 0 0 0 0 0 0 0 0 0 0 0 0 0 0 0 0 0 0 0 0 0
524 590 587 577 562 583 590 598 571 586 548 573 578 566 578 615 572 614 594 568 578 592 602 593 578 579 573 611 603 626 590 590 569 620 576 618 606 648 587 615 598 616 638 595 609 631 586 636 586 638 637 619 628 634 634 636 673 657 656 637 662 631 629 624 657 627 674 631 620 631 674 640 663 697 669 616 660 668 662 675 693 644 671 658 678 678 716 652 652 765 648 677 687 708 0 0 662 674 719 0 703 737 0 0 0 0 0 0 0 0 0 0 0 0 0 0 0 0 0 0
483 485 491 486 486 463 487 502 508 511 486 489 517 520 547 493 488 496 491 511 506 500 505 523 493 525 506 511 516 502 512 515 519 524 521 525 524 499 514 525 533 521 530 505 527 531 518 523 505 521 526 531 533 537 526 520 532 533 531 522 524 542 571 561 523 548 556 559 530 547 536 548 546 533 532 559 556 565 523 569 567 543 576 574 561 578 579 580 587 599 587 599 553 542 586 544 557 592 539 564 584 593 596 581 0 586 0 595 601 549 620 0 0 0 0 0 0 0 0 0
407 433 433 441 437 439 432 437 436 411 423 464 445 456 447 437 442 455 441 453 459 464 441 472 450 461 456 456 466 449 438 455 461 447 465 475 460 457 452 469 463 449 465 464 478 456 454 477 474 481 461 471 480 471 482 466 488 492 467 473 489 465 476 480 472 487 496 493 485 494 483 487 488 487 482 492 478 492 496 470 482 481 489 487 489 525 504 481 528 484 478 476 487 493 480 483 485 477 507 477 463 483 482 485 532 493 478 483 506 503 516 522 0 0 0 0 0 0 0 0
408 395 402 407 415 390 396 414 391 399 398 399 405 411 401 398 415 406 406 396 401 405 404 404 411 407 420 412 406 406 402 421 410 415 416 418 408 411 416 412 418 415 438 421 429 418 426 426 427 411 430 432 432 423 431 428 425 429 426 425 415 428 423 434 428 426 417 430 438 444 447 439 436 415 436 431 431 430 420 442 440 435 440 436 438 422 455 430 443 434 452 443 448 441 431 435 448 448 436 438 448 427 456 447 452 448 444 430 435 447 461 444 443 433 0 0 0 0 0 0
341 357 345 340 362 369 356 363 349 365 363 349 363 355 353 363 361 360 366 378 370 364 355 387 363 376 356 362 373 357 376 381 366 382 373 368 376 372 372 371 374 373 377 377 361 366 380 367 376 386 376 374 377 379 375 384 372 378 379 376 375 387 383 388 376 384 385 399 395 387 389 398 393 381 379 388 395 389 404 383 380 382 393 377 381 393 405 390 387 414 398 394 389 406 397 392 384 401 398 406 377 397 393 372 400 385 398 401 400 389 376 392 388 379 372 418 0 0 0 0
312 329 327 321 313 317 333 326 337 323 349 331 335 327 331 330 346 338 328 326 346 337 345 337 346 328 350 341 335 347 342 343 333 353 347 345 348 350 331 344 342 338 343 348 339 337 345 347 343 347 365 350 339 340 349 343 353 335 343 350 349 356 348 341 346 343 343 342 342 353 352 349 349 347 348 356 348 352 361 359 342 351 342 352 334 356 352 358 362 351 362 357 360 353 366 343 326 338 338 360 365 360 366 344 355 355 359 350 372 359 382 363 381 383 368 352 368 0 0 0
299 314 285 290 300 290 303 304 300 304 310 290 303 289 291 304 297 309 306 291 288 303 314 296 291 297 295 316 294 304 310 303 302 306 303 313 305 308 318 309 312 310 296 313 303 307 310 318 320 309 308 313 319 304 311 317 316 320 313 318 319 310 310 320 310 322 317 309 322 312 319 329 308 317 295 321 306 316 317 316 311 320 317 328 313 326 330 317 316 308 327 315 323 330 324 336 335 329 341 348 333 312 318 341 337 323 323 314 335 352 335 321 318 331 349 324 301 346 365 0
274 270 280 284 291 288 276 278 276 277 278 273 283 288 290 289 275 289 283 281 289 268 272 273 281 275 282 282 285 271 286 287 281 284 288 281 282 278 279 296 290 273 275 290 285 285 285 284 286 288 283 282 293 287 284 294 287 288 284 291 290 284 283 293 299 291 283 287 295 287 285 290 290 286 288 287 286 297 288 289 294 290 288 292 291 294 283 295 299 294 294 290 307 293 305 301 291 296 294 305 299 306 288 287 317 296 307 304 283 293 303 302 306 289 331 272 275 294 334 242
247 254 258 260 258 257 252 256 262 253 254 251 248 267 266 251 261 267 259 258 260 264 261 256 266 265 254 259 248 262 256 259 260 256 268 265 265 269 265 265 265 258 268 268 270 270 257 256 267 266 269 269 268 263 268 268 261 261 259 267 260 261 269 264 272 265 272 268 270 269 266 263 275 273 268 267 270 268 260 266 270 270 267 268 273 268 269 264 272 265 267 264 264 268 261 263 277 274 273 280 275 278 281 267 270 279 272 289 275 280 270 278 281 261 274 265 264 291 299 261
242 232 234 228 245 230 236 237 245 234 227 229 249 251 242 249 240 243 251 240 240 244 240 235 245 240 241 245 243 241 243 245 242 239 243 253 238 254 257 248 253 238 245 247 256 253 245 248 242 253 245 250 245 243 245 241 247 240 252 249 251 250 246 254 250 258 247 247 247 248 251 249 252 250 248 257 249 251 248 258 255 256 250 252 257 256 260 258 248 246 250 250 247 252 259 260 248 251 244 257 251 248 255 252 256 243 263 253 251 252 256 245 252 263 254 235 260 248 216 246
216 216 220 216 222 228 222 219 219 210 219 229 224 228 220 224 227 218 230 223 228 227 229 230 226 220 223 229 232 226 226 231 229 239 225 227 231 227 228 239 231 232 233 225 235 237 227 234 234 233 231 234 233 237 231 234 232 231 232 235 233 236 237 232 237 239 234 240 239 227 226 239 230 236 233 232 234 229 230 226 237 227 236 236 231 226 237 236 233 227 236 234 234 230 237 234 233 237 236 243 245 238 238 234 227 245 236 237 242 251 237 246 236 249 226 232 240 244 216 227
209 211 220 219 216 204 208 208 218 212 216 214 210 223 213 214 215 212 210 214 216 216 214 215 212 216 216 217 216 201 215 220 217 215 217 212 213 216 217 223 214 216 216 215 225 220 203 217 220 220 199 217 219 199 200 224 221 217 225 206 224 208 223 221 221 221 224 218 223 221 223 223 224 205 205 226 226 224 223 221 221 222 223 234 220 230 231 226 218 217 218 216 223 219 219 230 227 217 226 225 220 220 227 227 218 228 226 224 228 238 213 222 220 221 230 209 232 215 237 225
193 184 197 200 213 207 201 198 188 183 201 203 200 208 189 203 189 183 209 192 192 191 193 191 188 188 188 192 186 212 211 191 191 195 202 198 187 195 196 188 191 195 197 199 192 190 194 191 191 195 195 201 202 196 202 203 198 196 196 198 194 194 198 194 194 202 193 203 197 198 193 200 196 194 200 190 197 191 196 189 188 193 201 216 196 197 197 189 194 213 214 197 209 210 193 210 188 208 208 210 213 215 206 195 210 220 210 199 201 206 207 201 211 213 202 175 197 200 208 201
174 175 196 198 178 180 196 186 184 181 185 180 177 181 200 180 180 184 182 185 190 187 188 190 180 193 189 182 185 193 194 195 194 191 197 189 194 193 191 193 195 195 197 201 198 199 193 201 196 195 197 201 195 199 197 200 194 197 200 200 200 198 198 200 200 196 197 199 190 197 191 193 200 191 192 197 189 194 198 197 196 195 197 186 186 190 196 193 195 185 191 193 189 191 191 187 184 189 189 185 191 188 189 192 187 185 184 201 205 203 202 178 201 200 198 205 203 170 207 196
179 174 174 177 181 174 179 186 174 184 179 174 181 184 178 183 182 186 179 181 187 184 187 188 182 186 183 190 192 189 188 182 185 189 191 185 183 184 188 184 189 185 192 189 185 185 187 190 192 188 188 190 184 190 187 191 191 190 189 196 185 188 184 193 189 192 188 191 191 186 188 191 190 194 182 189 192 195 187 191 189 191 191 184 194 195 183 192 187 190 185 182 187 187 189 191 190 189 189 182 180 179 180 184 187 182 185 181 182 182 181 176 181 183 180 174 176 195 179 197
173 170 157 169 166 170 166 172 168 173 173 178 175 170 175 172 169 179 179 181 175 177 172 172 171 174 176 174 177 180 170 183 175 180 172 175 173 175 177 175 180 176 177 174 181 180 178 184 178 183 178 179 179 181 180 180 181 184 181 177 172 175 181 182 176 175 180 176 177 178 178 182 180 179 180 177 182 183 183 184 182 181 186 170 174 176 178 179 186 178 174 175 175 170 182 175 177 180 182 176 172 178 183 181 176 167 175 175 179 178 167 174 181 168 178 162 169 176 177 161
159 167 167 168 169 169 158 158 171 165 167 169 164 173 169 167 165 173 169 173 170 169 170 168 168 166 167 169 173 166 175 172 175 168 169 168 174 174 171 169 166 172 166 168 182 177 169 172 176 175 174 169 175 175 173 174 174 174 172 175 175 176 174 172 173 178 178 173 177 167 174 172 172 174 174 178 172 176 173 173 172 171 175 169 168 173 177 169 179 173 168 169 174 170 166 174 173 176 169 180 167 173 163 178 177 178 166 174 166 173 179 175 178 172 164 175 177 170 174 168
151 159 163 164 161 159 163 156 158 152 166 157 158 159 163 168 164 163 165 170 156 160 166 164 162 163 160 158 162 163 166 169 164 165 160 162 161 162 163 159 167 165 168 165 165 166 164 163 167 166 166 166 165 167 169 169 172 165 161 169 163 168 164 162 167 165 161 168 163 164 166 168 167 166 162 169 165 167 170 165 163 164 167 165 168 165 168 166 163 164 166 163 170 161 166 162 164 159 169 168 167 170 162 165 161 161 158 167 160 163 162 179 158 165 177 171 172 166 154 169
146 146 155 145 152 153 146 150 155 158 148 149 151 153 153 154 150 159 153 160 153 156 156 155 157 156 146 160 158 163 158 158 153 150 153 155 154 154 153 157 163 160 164 160 161 153 159 155 158 155 162 156 160 163 155 155 156 155 159 162 164 156 159 161 162 161 157 159 153 153 160 156 157 162 156 163 163 157 161 153 164 152 161 157 152 157 156 163 161 161 157 159 157 157 157 154 149 153 152 156 153 159 157 157 162 156 155 158 155 161 157 157 149 163 157 148 158 166 155 145
138 144 147 142 150 153 144 153 148 141 152 151 147 147 147 144 147 150 144 151 150 151 152 154 153 151 151 148 150 148 147 151 147 148 148 148 150 154 149 154 155 155 153 153 149 148 153 152 150 151 154 149 147 151 150 147 150 153 153 157 153 157 156 154 146 152 147 154 152 150 153 154 146 154 153 151 163 156 156 152 151 156 156 147 145 154 156 156 155 151 153 154 159 154 156 154 154 151 151 160 156 159 155 154 147 150 150 149 151 158 153 150 151 150 161 153 154 152 155 132
137 136 137 137 137 136 138 142 143 141 140 138 146 141 135 141 144 139 142 148 141 144 142 145 139 145 152 146 144 140 140 133 142 139 138 143 142 144 142 149 146 144 147 143 143 147 144 138 144 148 140 149 148 133 143 145 148 144 146 145 146 147 142 143 147 149 148 148 144 152 143 148 144 145 146 149 153 152 150 147 141 147 142 144 144 144 149 146 150 146 146 151 145 149 151 148 143 144 149 146 148 146 147 141 142 144 147 146 138 142 142 144 145 145 143 157 137 147 134 146
131 135 131 131 138 141 137 140 137 137 137 0 132 139 137 138 139 141 137 138 145 143 142 135 141 141 146 136 138 129 139 137 133 131 132 129 132 138 138 138 145 141 143 140 142 140 133 142 129 130 132 144 133 140 144 145 146 134 142 129 126 130 130 149 143 141 142 143 144 144 143 132 134 140 141 147 146 144 143 145 146 139 126 141 146 145 142 141 140 144 138 145 146 143 143 141 139 141 144 143 142 139 139 139 142 137 133 137 148 140 135 137 131 135 140 139 137 130 138 144
134 134 127 134 136 135 141 134 138 138 134 138 138 139 139 132 134 136 133 135 142 141 139 139 140 136 138 138 139 122 128 128 130 129 127 127 126 131 129 128 145 130 131 139 0 143 132 128 131 129 124 141 131 133 0 142 0 134 132 133 134 141 135 134 130 129 142 128 141 130 127 128 129 140 132 128 135 141 133 130 136 140 130 125 129 123 126 130 129 141 125 138 138 138 136 129 139 134 143 142 137 121 136 138 137 125 130 134 131 143 136 132 137 137 136 136 129 156 105 135
117 102 113 108 128 127 140 133 115 111 123 115 120 122 124 121 123 126 122 121 122 126 129 123 128 137 136 137 0 138 125 120 118 122 118 114 123 126 123 119 125 129 129 128 140 0 129 126 127 123 121 122 129 127 125 127 131 130 129 123 126 123 127 127 122 131 132 133 125 127 124 120 122 124 120 120 120 133 125 128 132 121 120 121 121 121 126 127 122 129 121 127 135 126 123 120 125 137 135 128 118 116 122 121 119 132 119 122 120 131 118 138 127 138 122 125 109 152 99 85
109 117 109 115 114 118 120 114 127 115 118 122 121 125 114 113 111 125 121 119 133 124 126 121 123 120 132 125 126 127 133 0 123 116 118 113 120 121 0 118 128 124 0 0 0 0 125 126 123 121 124 120 129 124 125 126 122 129 121 121 126 122 114 122 123 124 127 124 118 121 121 120 125 121 118 118 118 128 124 127 124 119 120 124 117 122 121 123 124 123 115 117 118 123 121 122 126 120 125 122 121 114 122 118 114 119 117 116 130 135 114 136 121 133 129 140 132 108 111 129
104 97 109 115 111 114 111 116 111 114 119 116 116 111 113 116 116 110 110 116 116 113 110 118 116 112 118 116 114 120 124 0 122 120 118 114 115 0 114 117 121 0 0 122 125 0 123 119 111 111 118 118 120 121 120 121 118 116 117 117 123 122 126 120 121 123 121 121 114 116 120 120 115 115 116 118 116 117 114 124 113 114 117 123 115 116 115 116 115 114 117 120 121 114 107 122 120 121 114 121 117 119 114 106 117 112 127 115 124 123 110 124 117 134 124 120 128 115 103 104
94 105 109 107 101 100 114 112 102 114 110 107 109 114 123 116 115 110 106 101 114 108 110 106 111 109 115 118 116 113 118 116 115 116 115 113 107 115 112 114 113 117 107 107 111 114 122 0 113 0 116 114 121 115 0 0 105 106 119 112 124 117 106 111 104 112 106 109 116 108 115 114 112 102 110 105 107 112 109 111 114 107 109 107 116 108 113 110 107 113 110 104 95 111 107 112 114 110 110 107 104 112 118 105 113 111 110 102 112 120 110 112 107 106 98 110 93 92 102 76
103 101 110 109 108 103 114 105 109 109 107 109 113 113 118 121 112 116 115 102 104 101 103 107 113 109 112 115 104 117 109 111 104 109 114 112 113 0 107 108 115 110 109 104 105 105 110 108 116 0 111 116 108 116 109 110 105 105 113 109 110 112 117 0 114 112 105 111 113 105 110 101 107 112 104 104 101 104 105 109 110 106 109 110 102 110 102 109 109 106 104 108 101 100 97 103 106 105 109 108 106 115 110 114 113 101 106 108 102 113 108 101 110 101 132 117 101 118 116 123
95 89 107 106 101 92 96 97 91 91 101 100 99 99 98 101 100 103 106 102 107 100 93 102 106 105 102 101 98 107 106 107 104 100 104 101 103 107 106 107 113 106 101 98 97 105 106 100 104 104 105 103 108 102 104 106 96 101 105 98 102 109 105 0 108 104 0 110 104 107 105 103 98 108 102 107 98 104 0 99 0 103 97 104 101 100 94 96 97 102 101 109 101 94 97 96 94 97 100 101 99 99 97 100 100 103 98 98 105 90 97 99 97 109 105 82 84 95 79 121
94 93 90 96 94 92 98 95 97 100 97 100 101 96 103 97 95 98 108 97 98 91 89 95 100 98 102 100 104 102 108 105 110 104 104 102 105 104 105 98 103 100 100 93 100 97 104 101 101 108 109 100 101 103 99 99 105 105 101 104 106 102 105 105 112 106 103 107 106 101 103 105 98 104 93 102 107 102 99 98 0 103 97 95 98 100 98 107 97 102 104 94 105 104 95 103 91 96 88 105 97 90 103 91 94 102 105 90 91 105 95 90 105 89 94 112 105 86 90 105
89 93 90 96 90 97 97 89 83 93 91 97 94 94 93 87 97 87 102 108 103 94 82 90 92 94 100 93 93 104 101 101 101 99 98 102 99 91 96 102 95 98 90 92 101 91 102 101 86 101 103 93 100 92 94 105 91 103 95 98 94 100 98 0 98 100 94 96 100 96 97 104 100 101 89 106 95 99 101 106 98 102 89 105 98 94 89 91 94 95 90 94 96 80 91 96 91 89 102 92 91 97 99 91 97 96 104 78 95 86 91 88 89 104 100 93 110 98 93 79
84 80 78 89 77 86 78 88 85 90 86 88 94 88 93 90 85 92 86 91 92 89 91 88 94 88 99 89 87 96 90 89 102 93 91 92 97 92 94 91 87 99 93 98 98 96 90 89 91 94 96 92 90 96 89 92 93 98 85 92 90 88 98 95 90 99 90 88 99 99 87 93 98 88 98 98 93 98 98 89 99 89 97 94 96 83 94 97 92 91 94 95 93 89 92 92 86 91 90 92 90 88 84 91 91 90 91 80 91 85 74 80 90 86 90 89 77 59 88 103
88 80 81 81 90 88 90 103 88 88 88 86 87 90 89 91 90 87 95 94 81 95 94 85 94 93 94 87 91 86 91 95 96 88 100 85 92 90 90 100 91 94 88 92 95 97 95 94 92 95 99 90 98 97 93 99 95 93 90 99 97 88 95 94 98 98 90 90 88 97 91 89 96 94 94 90 96 96 98 94 101 89 94 95 96 90 94 94 94 89 95 96 97 91 95 92 90 86 93 102 88 89 83 95 92 90 94 85 87 79 88 89 86 90 83 88 95 107 0 0
82 88 87 86 91 90 85 87 88 0 82 87 87 88 92 86 89 92 88 88 88 91 90 96 90 90 94 95 90 94 90 93 93 97 95 95 91 94 97 96 86 90 95 88 85 99 93 90 90 86 99 96 95 89 93 96 95 97 94 88 97 96 94 99 93 89 85 94 95 95 87 97 85 85 94 90 88 90 97 88 91 92 87 94 94 92 96 96 96 93 87 94 102 87 90 86 90 92 89 86 83 86 84 91 82 79 96 86 88 82 85 84 83 84 71 84 85 118 119 0
79 85 75 88 91 85 92 90 87 79 84 81 89 91 89 89 83 82 87 93 85 89 92 85 88 89 88 84 93 91 85 87 91 89 91 90 88 92 91 91 94 91 96 91 88 89 93 97 92 92 98 95 92 86 98 88 90 95 95 97 92 97 93 89 84 94 84 86 95 98 86 97 94 91 97 89 92 95 94 82 94 88 90 89 92 95 88 88 86 88 92 86 85 88 79 81 88 86 92 86 77 84 91 84 87 90 89 86 75 88 81 86 87 92 70 78 87 82 0 0
83 73 83 77 84 82 95 99 85 87 84 90 88 89 79 91 85 88 92 90 81 92 91 82 83 94 85 88 90 91 90 87 90 90 86 86 89 91 88 94 90 88 86 95 94 88 93 92 97 93 91 89 84 88 88 94 95 94 86 95 94 94 90 96 93 83 90 87 90 93 94 92 97 86 94 87 92 92 93 84 90 88 93 82 88 96 90 92 91 85 92 94 85 89 87 85 88 86 91 92 81 91 86 88 83 88 81 88 86 80 86 86 88 89 122 105 0 0 0 0
75 69 64 64 78 80 84 87 83 76 83 77 87 79 87 81 83 83 82 80 88 75 85 79 81 75 78 79 83 76 87 70 82 82 86 76 78 80 87 79 82 78 84 74 81 85 79 87 87 81 85 79 78 82 86 82 83 84 88 72 82 80 89 84 78 83 76 81 78 81 82 84 80 76 91 78 79 83 87 89 77 81 73 80 72 91 80 81 83 86 87 70 84 77 82 83 83 87 71 84 71 77 76 66 76 75 78 82 68 80 79 78 89 95 86 67 0 0 0 0
72 69 78 80 71 81 86 86 84 80 79 89 76 73 79 81 80 82 76 80 78 84 75 77 89 84 71 73 85 83 82 76 84 81 86 68 78 76 81 80 90 88 86 89 85 89 83 81 88 83 81 76 83 78 89 87 86 77 86 68 86 83 81 85 74 80 73 73 88 70 79 79 85 83 87 82 78 86 84 87 86 81 82 81 71 81 77 72 83 85 74 91 73 76 83 77 89 77 71 76 82 73 72 69 66 74 70 73 72 78 71 84 82 54 82 0 0 0 0 0
