0 0 0 0 0 0 0 0 0 0 0 0 0 0 0 0 0 0 0 0 0 0 0 0 0 0 0 0 0 0 0 0 0 0 0 0 0 0 0 0 0 0 0 0 0 0 0 0 0 0 0 0 0 0 0 0 0 0 0 0 0 0 0 0 0 0 0 0 0 0 0 0 0 0 0 0 0 0 0 0 0 0 0 0 0 0 0 0 0 0 0 0 0 0 0 0 0 0 0 0 0 0 0 0 0 0 0 0 0 0 0 0 0 0 0 0 0 0 0 0
0 0 0 0 0 0 0 0 0 0 0 0 0 0 0 0 0 0 0 0 0 0 0 0 0 0 0 0 0 0 0 0 0 0 0 0 0 0 0 0 0 0 0 0 0 0 0 0 0 0 0 0 0 0 0 0 0 0 0 0 0 0 0 0 0 0 0 0 0 0 0 0 0 0 0 0 0 0 0 0 0 0 0 0 0 0 0 0 0 0 0 0 0 0 0 0 0 0 0 0 0 0 0 0 0 0 0 0 0 0 0 0 0 0 0 0 0 0 0 0
0 0 0 0 0 0 0 0 0 0 0 0 0 0 0 0 1316 1305 0 0 0 0 0 0 0 0 0 0 0 0 0 0 0 0 0 0 0 0 0 0 0 0 0 0 0 0 0 0 0 0 0 0 0 0 0 0 0 0 0 0 0 0 0 0 0 0 0 0 0 0 0 0 0 0 0 0 0 0 0 0 0 0 0 0 0 0 0 0 0 0 0 0 0 0 0 0 0 0 0 0 0 0 0 0 0 0 0 0 0 0 0 0 0 0 0 0 0 0 0 0
0 0 0 0 0 0 0 0 0 0 0 1134 1087 1121 1127 0 1276 1268 1274 0 0 0 1229 0 0 0 0 0 0 0 0 0 0 0 0 0 0 0 0 0 0 0 0 0 0 0 0 0 0 0 0 0 0 0 0 0 0 0 0 0 0 0 0 0 0 0 0 0 0 0 0 0 0 0 0 0 0 0 0 0 0 0 0 0 0 0 0 0 0 0 0 0 0 0 0 0 0 0 0 0 0 0 0 0 0 0 0 0 0 0 0 0 0 0 0 0 0 0 0 0
0 0 0 0 0 0 0 0 1132 1141 1103 1144 1173 1135 1143 0 1279 1296 1267 1258 1273 1281 1278 0 0 0 0 0 0 0 0 0 0 0 0 0 0 0 0 0 0 0 0 0 0 0 0 0 0 0 0 0 0 0 0 0 0 0 0 0 0 0 0 0 0 0 0 0 0 0 0 0 0 0 0 0 0 0 0 0 0 0 0 0 0 0 0 0 0 0 0 0 0 0 0 0 0 0 0 0 0 0 0 0 0 0 0 0 0 0 0 0 0 0 0 0 0 0 0 0
0 0 0 0 0 0 0 1107 1117 1079 0 1149 1171 1172 1183 1210 1306 1242 1306 0 1255 1253 1237 1249 0 0 0 0 0 0 0 0 0 0 0 0 0 0 0 0 0 0 0 0 0 0 0 0 0 0 0 0 0 0 0 0 0 0 0 0 0 0 0 0 0 0 0 0 0 0 0 0 0 0 0 0 0 0 0 0 0 0 0 0 0 0 0 0 0 0 0 0 0 0 0 0 0 0 0 0 0 0 0 0 0 0 0 0 0 0 0 0 0 0 0 0 0 0 0 0
0 0 0 0 0 0 0 0 0 0 0 0 1221 1195 1239 1258 1278 1259 1248 1285 1266 1243 1248 1262 0 0 0 0 0 0 0 1361 0 0 0 0 0 0 0 0 0 0 0 0 0 0 0 0 0 0 0 0 0 0 0 0 0 0 0 0 0 0 0 0 0 0 0 0 0 0 0 0 0 0 0 0 0 0 0 0 0 0 0 0 0 0 0 0 0 0 0 0 0 0 0 0 0 0 0 0 0 0 0 0 0 0 0 0 0 0 0 0 0 0 0 0 0 0 0 0
0 0 0 0 0 0 0 0 0 0 0 0 1266 1281 1278 1294 1291 1307 1272 1293 1285 1301 1266 1326 1346 1337 1401 1346 1372 0 0 1427 0 0 0 0 0 0 0 0 0 0 0 0 0 0 0 0 0 0 0 0 0 0 0 0 0 0 0 0 0 0 0 0 0 0 0 0 0 0 0 0 0 0 0 0 0 0 0 0 0 0 0 0 0 0 0 0 0 0 0 0 0 0 0 0 0 0 0 0 0 0 0 0 0 0 0 0 0 0 0 0 0 0 0 0 0 0 0 0
0 0 0 0 0 0 0 0 0 0 0 0 1284 1266 1282 1293 1292 1296 1258 1290 1269 1261 1290 1273 0 0 1331 1342 1338 1394 0 1419 0 0 0 0 0 0 0 0 0 0 0 0 0 0 0 0 0 0 0 0 0 0 0 0 0 0 0 0 0 0 0 0 0 0 0 0 0 0 0 0 0 0 0 0 0 0 0 0 0 0 0 0 0 0 0 0 0 0 0 0 0 0 0 0 0 0 0 0 0 0 0 0 0 0 0 0 0 0 0 0 0 0 0 0 0 0 0 0
0 0 0 0 0 0 0 0 0 0 0 0 0 1366 1303 1290 1287 1285 1282 1261 1251 1282 1284 1285 1304 0 0 1376 1384 1362 1409 1451 1412 0 0 0 0 0 0 0 0 0 0 0 0 0 0 0 0 0 0 0 0 0 0 0 0 0 0 0 0 0 0 0 0 0 0 0 0 0 0 0 0 0 0 0 0 0 0 0 0 0 0 0 0 0 0 0 0 0 0 0 0 0 0 0 0 0 0 0 0 0 0 0 0 0 0 0 0 0 0 0 0 0 0 0 0 0 0 0
0 0 0 0 0 0 0 0 0 0 0 0 0 0 0 0 0 0 0 0 0 1289 1272 1282 1319 0 0 1373 1381 1378 1408 1440 1487 0 0 0 0 0 0 0 0 0 0 0 0 0 0 0 0 0 0 0 0 0 0 0 0 0 0 0 0 0 0 0 0 0 0 0 0 0 0 0 0 0 0 0 0 0 0 0 0 0 0 0 0 0 0 0 0 0 0 0 0 0 0 0 0 0 0 0 0 0 0 0 0 0 0 0 0 0 0 0 0 0 0 0 0 0 0 0
0 0 0 0 0 0 0 0 0 0 0 0 0 0 0 0 0 0 0 0 0 0 0 1331 1293 0 0 1307 1306 1348 1347 1353 1411 0 0 0 0 0 0 0 0 0 0 0 0 0 0 0 0 0 0 0 0 0 0 0 0 0 0 0 0 0 0 0 0 0 0 0 0 0 0 0 0 0 0 0 0 0 0 0 0 0 0 0 0 0 0 0 0 0 0 0 0 0 0 0 0 0 0 0 0 0 0 0 0 0 0 1746 0 0 0 0 0 0 0 0 0 0 0 0
0 0 0 0 0 0 0 0 0 0 0 0 0 0 0 0 0 0 0 0 0 0 0 1391 1396 1293 1308 1306 1339 1338 1354 1370 1433 0 0 0 0 0 0 0 0 0 0 0 0 0 0 0 0 0 0 0 0 0 0 0 0 0 0 0 0 0 0 0 0 0 0 0 0 0 0 0 0 0 0 0 0 0 0 0 0 0 0 0 0 0 0 0 0 0 0 0 0 0 0 0 0 0 0 0 0 0 0 0 0 0 1722 1727 0 0 0 0 0 0 0 0 0 0 0 0
0 0 0 0 0 0 0 0 0 0 0 0 0 0 0 0 0 0 0 0 0 0 0 1363 1377 1342 1303 1308 1296 1313 1327 1402 1416 0 0 0 0 0 0 0 0 0 0 0 0 0 0 0 0 0 0 0 0 0 0 0 0 0 0 0 0 0 0 0 0 0 0 0 0 0 0 0 0 0 0 0 0 0 0 0 0 0 0 0 0 0 0 0 0 0 0 0 0 0 0 0 0 0 0 0 0 0 0 0 0 1735 1670 1679 1647 0 0 0 0 0 0 0 0 0 0 0
0 0 0 0 0 0 0 0 0 0 0 0 0 0 0 0 0 0 0 0 0 0 0 1365 1351 1373 1349 1323 1312 1341 1312 1363 1410 0 0 0 0 0 0 0 0 0 0 0 0 0 0 0 0 0 0 0 0 0 0 0 0 0 0 0 0 0 0 0 0 0 0 0 0 0 0 0 0 0 0 0 0 0 0 0 0 0 0 0 0 0 0 0 0 0 0 0 0 0 0 0 0 0 0 0 0 0 0 0 0 1755 1685 0 1750 1778 0 0 0 0 0 0 0 0 0 0
0 0 0 0 0 0 0 0 0 0 0 0 0 0 0 0 0 0 0 0 0 0 0 1403 1364 1391 1407 1397 1364 1358 1368 1427 1442 0 0 0 0 0 0 0 0 0 0 0 0 0 0 0 0 0 0 0 0 0 0 0 0 0 0 0 0 0 0 0 0 0 0 0 0 0 0 0 0 0 0 0 0 0 0 0 0 0 0 0 0 0 0 0 0 0 0 0 0 0 0 0 0 0 0 0 0 0 0 0 0 0 0 1754 1784 1749 0 0 1700 1701 0 0 0 0 0 0
1268 1281 1289 1319 1309 1306 1329 0 0 0 0 0 0 0 0 0 0 0 0 0 0 0 0 0 1387 1381 1370 1386 1386 1373 1366 1429 1434 0 0 0 0 0 0 0 0 0 0 0 0 0 0 0 0 0 0 0 0 0 0 0 0 0 0 0 0 0 0 0 0 0 0 0 0 0 0 0 0 0 0 0 0 0 0 0 0 0 0 0 0 0 0 0 0 0 0 0 0 0 0 0 0 0 0 0 0 0 0 0 1729 1778 1728 1760 1689 1747 0 1671 1671 0 0 0 0 0 0 0
1260 1260 1265 1282 1284 1282 1326 1331 1338 1378 1355 0 0 0 0 0 0 0 0 0 0 0 0 1426 1362 1370 1359 1380 1374 1405 1394 1438 1437 0 0 0 0 0 0 0 0 0 0 0 0 0 0 0 0 0 0 0 0 0 0 0 0 0 0 0 0 0 0 0 0 0 0 0 0 0 0 0 0 0 0 0 0 0 0 0 0 0 0 0 0 0 0 0 0 0 0 0 0 0 0 0 0 0 0 0 0 0 0 1792 1801 1760 1739 1694 1787 1645 1682 1703 0 0 0 0 0 0 0 0
1265 1263 1279 1283 1306 1320 1316 1344 1324 1346 1354 1380 1362 1407 1403 1430 0 0 0 0 0 0 0 0 0 1378 0 0 1376 0 0 1450 1446 0 0 0 0 0 0 0 0 0 0 0 0 0 0 0 0 0 0 0 0 0 0 0 0 0 0 0 0 0 0 0 0 0 0 0 0 0 0 0 0 0 0 0 0 0 0 0 0 0 0 0 0 0 0 0 0 0 0 0 0 0 0 0 0 0 0 0 0 0 0 1793 1741 1804 1727 1707 1692 1665 1736 1680 0 0 0 0 0 0 0 0
0 0 0 0 1267 1283 1286 1292 1309 1296 1311 1325 1331 1355 1366 1380 1389 1395 1410 1427 0 0 0 0 0 0 0 0 0 0 0 1405 1395 1419 0 0 0 0 0 0 0 0 0 0 0 0 0 0 0 0 0 0 0 0 0 0 0 0 0 0 0 0 0 0 0 0 0 0 0 0 0 0 0 0 0 0 0 0 0 0 0 0 0 0 0 0 0 0 0 0 0 0 0 0 0 0 0 0 0 0 0 0 0 1724 1750 1733 1673 1721 1606 1614 0 0 0 0 0 0 0 0 0 0
0 0 0 0 0 0 0 0 0 1326 1328 1308 1360 1365 1368 1376 1400 1403 1415 1459 1466 1486 0 0 0 0 0 0 0 0 0 1452 1475 1444 0 0 0 0 0 0 0 0 0 0 0 0 0 0 0 0 0 0 0 0 0 0 0 0 0 0 0 0 0 0 0 0 0 0 0 0 0 0 0 0 0 0 0 0 0 0 0 0 0 0 0 0 0 0 0 0 0 0 0 0 0 0 0 0 0 0 0 0 0 1672 1684 1620 1631 1586 1540 1583 1534 1621 1552 1538 1534 0 0 0 0 0
0 0 0 0 0 0 0 0 0 0 0 0 0 0 0 1383 1395 1411 1436 1425 1448 1461 0 0 0 0 0 0 0 0 0 0 1468 0 0 0 0 0 0 0 0 0 0 0 0 0 0 0 0 0 0 0 0 0 0 0 0 0 0 0 0 0 0 0 0 0 0 0 0 0 0 0 0 0 0 0 0 0 0 0 0 0 0 0 0 0 0 0 0 0 0 0 0 0 0 0 0 0 0 0 0 1716 1628 1605 1601 1593 1610 1612 1595 1589 1589 1550 1572 1567 1548 0 0 0 0 0
0 0 0 0 0 0 0 0 0 0 0 0 0 0 0 0 0 0 0 0 0 1430 0 0 0 0 0 0 0 0 0 0 0 0 0 0 0 0 0 0 0 0 0 0 0 0 0 0 0 0 0 0 0 0 0 0 0 0 0 0 0 0 0 0 0 0 0 0 0 0 0 0 0 0 0 0 0 0 0 0 0 0 0 0 0 0 0 0 0 0 0 0 0 0 0 0 0 0 0 0 0 1578 1572 1593 1596 1583 1603 1590 1554 1586 1602 1600 1577 1532 0 0 0 0 0 0
0 0 0 0 0 0 0 0 0 0 0 0 0 0 0 0 0 0 0 0 0 0 0 0 0 0 0 0 0 0 0 0 0 0 0 0 0 0 0 0 0 0 0 0 0 0 0 0 0 0 0 0 0 0 0 0 0 0 0 0 0 0 0 0 0 0 0 0 0 0 0 0 0 0 0 0 0 0 0 0 0 0 0 0 0 0 0 0 0 0 0 0 0 0 0 0 0 0 0 0 0 0 1604 1610 1630 1616 1617 1598 1633 1629 1613 1619 0 0 0 0 0 0 0 0
0 0 0 0 0 0 0 0 0 0 0 0 0 0 0 0 0 0 0 0 0 0 0 0 0 0 0 0 0 0 0 0 0 0 0 0 0 0 0 0 0 0 0 0 0 0 0 0 0 0 0 0 0 0 0 0 0 0 0 0 0 0 0 0 0 0 0 0 0 0 0 0 0 0 0 0 0 0 0 0 0 0 0 0 0 0 0 0 0 0 0 0 0 0 0 0 0 0 0 0 0 0 0 0 0 0 1611 1638 1625 0 0 0 0 0 0 0 0 0 0 0
0 0 0 0 0 0 0 0 0 0 0 0 0 0 0 0 0 0 0 0 0 0 0 0 0 0 0 0 0 0 0 0 0 0 0 0 0 0 0 0 0 0 0 0 0 0 0 0 0 0 0 0 0 0 0 0 0 0 0 0 0 0 0 0 0 0 0 0 0 0 0 0 0 0 0 0 0 0 0 0 0 0 0 0 0 0 0 0 0 0 0 0 0 0 0 0 0 0 0 0 0 0 0 0 0 0 0 0 0 0 0 0 0 0 0 0 0 0 0 0
598 568 0 0 0 0 0 0 0 0 0 0 0 0 0 0 0 0 0 0 0 0 0 0 0 1866 1931 0 0 0 0 0 0 0 0 0 0 0 0 0 0 0 0 0 0 0 0 2915 2905 2918 2916 2916 2870 2896 2905 2941 2931 2913 2915 2960 2963 2949 2877 2865 2874 2928 0 0 0 0 0 0 0 0 0 0 0 0 0 0 0 0 0 0 0 0 0 0 0 0 0 0 0 0 0 1813 1749 0 0 0 0 0 0 0 0 0 0 0 0 0 0 0 0 0 0 0 0 0 0 0
560 570 574 579 607 614 0 0 0 0 0 0 0 0 0 0 0 0 0 0 0 0 0 0 0 0 0 1859 0 0 0 0 0 0 0 0 0 0 0 0 0 0 0 0 0 0 0 2981 2925 2900 2949 2960 2946 2950 2939 2908 2948 2901 2962 2936 2985 2916 2927 2926 2894 2918 0 0 0 0 0 0 0 0 0 0 0 0 0 0 0 0 0 0 0 0 0 0 0 0 0 0 0 0 0 0 0 0 0 0 0 0 0 0 0 0 0 0 0 0 0 0 0 0 0 0 0 0 0 0
609 594 599 597 615 637 626 636 720 0 0 0 0 0 0 0 0 0 0 0 0 0 0 0 0 0 0 0 0 0 0 0 0 0 0 0 0 0 0 0 0 0 0 0 0 0 0 2947 2884 2922 2863 2874 2889 2887 2937 2919 2902 2888 2920 2947 2936 2868 2913 2930 2949 0 0 0 0 0 0 0 0 0 0 0 0 0 0 0 0 0 0 0 0 0 0 0 0 0 0 0 0 0 0 0 0 0 0 0 0 0 0 0 0 0 0 0 0 0 0 0 0 0 0 0 0 0 0 0
568 582 582 606 614 621 638 650 664 663 674 706 0 0 0 0 0 0 0 0 0 0 0 0 0 0 0 0 0 0 0 0 0 0 0 0 0 0 0 0 0 0 0 0 0 0 0 2976 2978 2965 2923 2915 2883 2891 2909 2926 2954 2883 2893 2934 2890 2943 2912 2907 2891 0 0 0 0 0 0 0 0 0 0 0 0 0 0 0 0 0 0 0 0 0 0 0 0 0 0 0 0 0 0 0 0 0 0 0 0 0 0 0 0 0 0 0 0 0 0 0 0 0 0 0 0 0 0 0
569 596 601 607 633 623 636 646 653 674 688 696 705 700 732 0 0 0 0 0 0 0 0 0 0 0 0 0 0 0 0 0 0 0 0 0 0 0 0 0 0 0 0 0 0 0 0 2912 2934 2936 2943 2905 2935 2939 2906 2935 2887 2886 2961 2938 2940 2869 2921 2930 2884 2869 0 0 0 0 0 0 0 0 0 0 0 0 0 0 0 0 0 0 0 0 0 0 0 0 0 0 0 0 0 0 0 0 0 0 0 0 0 0 0 0 0 0 0 0 0 0 0 0 0 0 0 0 0 0
759 799 798 770 687 707 649 698 660 687 689 711 722 769 756 752 762 844 0 0 0 0 0 0 0 0 0 0 0 0 0 0 0 0 0 0 0 0 0 0 0 0 0 0 0 0 0 2897 2864 2912 2892 2919 2872 2862 2929 2897 2913 2870 2871 2898 2922 2904 2895 2895 2913 2906 0 0 0 0 0 0 0 0 0 0 0 0 0 0 0 0 0 0 0 0 0 0 0 0 0 0 0 0 0 0 0 0 0 0 0 0 0 0 0 0 0 0 0 0 0 0 0 0 0 0 0 0 0 0
764 809 814 823 837 837 837 862 832 808 770 756 730 747 723 760 742 774 803 818 862 0 0 0 0 0 0 0 0 0 0 0 0 0 0 0 0 0 0 0 0 0 0 0 0 0 0 2915 2916 2939 2903 2903 2920 2917 2914 2910 2922 2895 2945 2926 2891 2856 2906 2899 2899 2926 0 0 0 0 0 0 0 0 0 0 0 0 0 0 0 0 0 0 0 0 0 0 0 0 0 0 0 0 0 0 0 0 0 0 0 0 0 0 0 0 0 0 0 0 0 0 0 0 0 0 0 0 0 0
772 814 815 811 857 853 890 907 908 900 934 919 938 917 841 841 793 784 809 823 853 874 904 912 0 0 0 0 0 0 0 0 0 0 0 0 0 0 0 0 0 0 0 0 0 0 0 2898 2930 2891 2892 2890 2891 2903 2889 2896 2915 2849 2856 2945 2916 2947 2912 2898 2898 2857 0 0 0 0 0 0 0 0 0 0 0 0 0 0 0 0 0 0 0 0 0 0 0 0 0 0 0 0 0 0 0 0 0 0 0 0 0 0 0 0 0 0 0 0 0 0 0 0 0 0 0 0 0 0
674 0 873 867 871 864 869 881 901 924 946 947 952 963 944 948 939 925 932 877 834 845 907 900 918 907 0 0 0 0 0 0 0 0 0 0 0 0 0 0 0 0 0 0 0 0 0 2897 2923 2855 2921 2912 2949 2865 2890 2914 2902 2869 2908 2864 2859 2884 2913 2879 2912 2904 0 0 0 0 0 0 0 0 0 0 0 0 0 0 0 0 0 0 0 0 0 0 0 0 0 0 0 0 0 0 0 0 0 0 0 0 0 0 0 0 0 0 0 0 0 0 0 0 0 0 0 0 0 0
598 901 928 925 920 940 915 902 900 899 928 934 949 938 951 946 946 948 941 945 937 922 906 888 897 906 924 975 936 0 0 0 0 0 0 0 0 0 0 0 0 0 0 0 0 0 0 2909 2906 2945 2940 2942 2953 2902 2919 2981 2944 2908 2930 2885 2933 2958 2921 2932 2968 0 0 0 0 0 0 0 0 0 0 0 0 0 0 0 0 0 0 0 0 0 0 0 0 0 0 0 0 0 0 0 0 0 0 0 0 0 0 0 0 0 0 0 0 0 0 0 0 0 0 0 0 0 0 0
567 688 0 0 0 0 0 0 0 0 1026 988 984 975 947 956 960 968 941 929 941 942 952 956 961 974 972 979 1022 1046 1079 0 0 0 0 0 0 0 0 0 0 0 0 0 0 0 0 2915 2885 2933 2910 2911 2928 2926 2964 2945 2884 2899 2911 2910 2908 2880 2938 2876 2901 2886 0 0 0 0 0 0 0 0 0 0 0 0 0 0 0 0 0 0 0 0 0 0 0 0 0 0 0 0 0 0 0 0 0 0 0 0 0 0 0 0 0 0 0 0 0 0 0 0 0 0 0 0 0 0
584 577 585 0 1106 1137 1132 1136 1158 1131 1131 1132 1146 1138 1141 1149 1108 1030 0 0 1006 1064 1064 981 996 1020 1114 1123 1097 1079 1077 0 0 0 0 0 0 0 0 0 0 0 0 0 0 0 0 2950 2929 2971 2883 2835 2970 2887 2893 2925 2926 2891 2958 2919 2926 2925 2885 2961 2895 2889 0 0 0 0 0 0 0 0 0 0 0 0 0 0 0 0 0 0 0 0 0 0 0 0 0 0 0 0 0 0 0 0 0 0 0 0 0 0 0 0 0 0 0 0 0 0 0 0 0 0 0 0 0 0
593 587 639 623 0 0 0 0 0 0 0 0 0 0 0 0 1355 1041 957 0 0 1151 1072 0 0 1136 1149 1142 1119 1133 1148 0 0 0 0 0 0 0 0 0 0 0 0 0 0 0 0 2883 2893 2918 2980 2915 2933 2918 2937 2854 2927 2949 2875 2883 2894 2908 2884 2893 2899 2880 0 0 0 0 0 0 0 0 0 0 0 0 0 0 0 0 0 0 0 0 0 0 0 0 0 0 0 0 0 0 0 0 0 0 0 0 0 0 0 0 0 0 0 0 0 0 0 0 0 0 0 0 0 0
613 588 611 605 602 0 0 0 0 0 0 0 0 0 0 0 0 1018 993 0 0 0 0 0 0 0 0 0 0 0 0 0 0 0 0 0 0 0 0 0 0 0 0 0 0 0 0 2898 2901 2888 2897 2892 2886 2883 2902 2923 2894 2902 2894 2854 2894 2902 2882 2885 2917 2872 0 0 0 0 0 0 0 0 0 0 0 0 0 0 0 0 0 0 0 0 0 0 0 0 0 0 0 0 0 0 0 0 0 0 0 0 0 0 0 0 0 0 0 0 0 0 0 0 0 0 0 0 0 0
567 612 612 615 628 629 0 0 0 0 0 0 0 0 0 0 0 0 0 0 0 0 0 0 0 0 0 0 0 0 0 0 0 0 0 0 0 0 0 0 0 0 0 0 0 0 0 2910 2898 2916 2893 2891 2913 2915 2928 2876 2933 2907 2891 2886 2927 2867 2887 2870 2879 2820 0 0 0 0 0 0 0 0 0 0 0 0 0 0 0 0 0 0 0 0 0 0 0 0 0 0 0 0 0 0 0 0 0 0 0 0 0 0 0 0 0 0 0 0 0 0 0 0 0 0 0 0 0 0
566 602 639 621 627 605 0 0 0 0 0 0 0 0 0 0 0 0 0 0 0 0 1011 0 0 0 0 0 0 0 0 0 0 0 0 0 0 0 0 0 0 0 0 0 0 0 0 2866 2924 2881 2867 2866 2928 2928 2849 2860 2901 2874 2895 2895 2877 2862 2873 2895 2853 2884 0 0 0 0 0 0 0 0 0 0 0 0 0 0 0 0 0 0 0 0 0 0 0 0 0 0 0 0 0 0 0 0 0 0 0 0 0 0 0 0 0 0 0 0 0 0 0 0 0 0 0 0 0 0
576 575 596 596 627 609 0 0 0 0 0 0 0 0 0 0 0 0 0 0 0 0 0 0 0 0 0 0 0 0 0 0 0 0 0 0 0 0 0 0 0 0 0 0 0 0 0 2876 2897 2927 2864 2881 2855 2880 2917 2879 2899 2890 2849 2957 2879 2896 2872 2866 2922 0 0 0 0 0 0 0 0 0 0 0 0 0 0 0 0 0 0 0 0 0 0 0 0 0 0 0 0 0 0 0 0 0 0 0 0 0 0 0 0 0 0 0 0 0 0 0 0 0 0 0 0 0 0 0
563 590 615 574 602 588 617 0 0 0 0 0 0 0 0 0 0 0 0 0 0 0 0 0 0 0 0 0 0 0 0 0 0 0 0 0 0 0 0 0 0 0 0 0 0 0 0 2900 2903 2926 2909 2915 2891 2961 2909 2900 2932 2929 2881 2907 2910 2914 2910 2899 2913 0 0 0 0 0 0 0 0 0 0 0 0 0 0 0 0 0 0 0 0 0 0 0 0 0 0 0 0 0 0 0 0 0 0 0 0 0 0 0 0 0 0 0 0 0 0 0 0 0 0 0 0 0 0 0
595 602 609 585 644 603 568 0 0 0 0 0 0 0 0 0 2296 0 0 0 0 0 946 985 0 0 0 0 0 0 0 0 0 0 0 0 0 0 0 0 0 0 0 0 0 0 0 2919 2874 2864 2892 2856 2889 2903 2923 2902 2916 2930 2870 2873 2912 2931 2883 2893 2885 2866 0 0 0 0 0 0 0 0 0 0 0 0 0 0 0 0 0 0 0 0 0 0 0 0 0 0 0 0 0 0 0 0 0 0 0 0 0 0 0 0 0 0 0 0 0 0 0 0 0 0 0 0 0 0
564 566 605 588 618 609 567 0 0 0 0 0 0 0 0 0 0 0 0 0 0 0 0 0 0 0 0 0 0 0 0 0 0 0 0 0 0 0 0 0 0 0 0 0 0 0 0 2899 2909 2922 2962 2899 2901 2929 2914 2892 2864 2890 2898 2879 2874 2902 2902 2894 2874 2943 0 0 0 0 0 0 0 0 0 0 0 0 0 0 0 0 0 0 0 0 0 0 0 0 0 0 0 0 0 0 0 0 0 0 0 0 0 0 0 0 0 0 0 0 0 0 0 0 0 0 0 0 0 0
589 558 562 613 585 595 0 0 0 0 0 0 0 0 0 0 0 0 0 0 0 0 0 0 0 0 0 0 0 0 0 0 0 0 0 0 0 0 0 0 0 0 0 0 0 0 0 0 0 0 0 0 0 0 0 0 0 0 0 0 0 2913 3022 2925 2955 0 0 0 0 0 0 0 0 0 0 0 0 0 0 0 0 0 0 0 0 0 0 0 0 0 0 0 0 0 0 0 0 0 0 0 0 0 0 0 0 0 0 0 0 0 0 0 0 0 0 0 0 0 0 0
606 615 627 620 611 604 0 0 0 0 0 0 0 0 0 0 0 0 0 0 0 0 0 0 0 0 0 0 0 0 0 0 0 0 0 0 0 0 0 0 0 0 0 0 0 0 0 0 0 0 0 0 0 0 0 0 0 0 0 0 0 0 0 0 0 0 0 0 0 0 0 0 0 0 0 0 0 0 0 0 0 0 0 0 0 0 0 0 0 0 0 0 0 0 0 0 0 0 0 0 0 0 0 0 0 0 0 0 0 0 0 0 0 0 0 0 0 0 0 0
621 586 617 609 573 0 0 0 0 0 0 0 0 0 0 0 0 0 0 0 0 0 0 0 0 0 0 0 0 0 0 0 0 0 0 0 0 0 0 0 0 0 0 0 0 0 0 0 0 0 0 0 0 0 0 0 0 0 0 0 0 0 0 0 0 0 0 0 0 0 0 0 0 0 0 0 0 0 0 0 0 0 0 0 0 0 0 0 0 0 0 0 0 0 0 0 0 0 0 0 0 0 0 0 0 0 0 0 0 0 0 0 0 0 0 0 0 0 0 0
585 580 606 598 645 0 0 0 0 0 0 0 0 0 0 0 0 0 0 0 0 0 0 0 0 0 0 0 0 0 0 0 0 0 0 0 0 0 0 0 0 0 0 0 0 0 0 0 0 0 0 0 0 0 0 0 0 0 0 0 0 0 0 0 0 0 0 0 0 0 0 0 0 0 0 0 0 0 0 0 0 0 0 0 0 0 0 0 0 0 0 0 0 0 0 0 0 0 0 0 0 0 0 0 0 0 0 0 0 0 0 0 0 0 0 0 0 0 0 0
583 610 603 620 0 0 0 0 0 0 0 0 0 0 0 0 0 0 0 0 0 0 0 0 0 0 850 909 883 906 832 0 0 903 0 946 0 927 914 911 0 0 0 0 0 0 0 0 0 0 0 0 0 0 0 0 0 0 0 0 0 0 0 0 0 0 0 0 0 0 0 0 0 0 0 0 0 0 0 0 0 0 0 0 0 0 0 0 0 0 0 0 0 0 0 0 0 0 0 0 0 0 0 0 0 0 0 0 0 0 0 0 0 0 0 0 0 0 0 0
606 574 632 0 0 729 675 670 696 700 696 678 689 735 668 666 689 671 686 739 682 668 698 697 693 707 673 679 649 707 727 686 705 702 700 686 728 687 707 741 767 756 719 741 704 700 733 766 740 780 732 699 766 739 759 743 752 764 746 746 759 750 742 807 725 774 794 788 744 783 771 794 788 760 825 781 0 0 0 0 0 0 0 0 0 0 0 0 0 0 0 0 0 0 0 0 0 0 0 0 0 0 0 0 0 0 0 0 0 0 0 0 0 0 0 0 0 0 0 0
528 564 559 571 585 575 577 573 571 550 561 577 571 594 573 578 571 569 600 566 578 582 570 580 565 597 592 611 585 606 587 586 604 612 599 576 558 602 619 607 630 598 626 594 573 586 626 593 586 620 608 618 634 604 629 620 626 614 621 604 614 629 631 610 647 634 641 632 596 608 623 680 628 619 606 670 642 647 673 653 581 633 662 670 646 684 687 715 710 659 710 659 709 714 709 0 678 674 661 673 670 710 0 0 0 0 0 0 0 0 0 0 0 0 0 0 0 0 0 0
492 482 493 483 487 484 478 463 499 506 490 507 504 484 498 491 479 516 494 505 510 481 512 520 505 492 493 507 516 494 502 499 515 515 526 496 504 516 504 506 510 528 524 511 520 526 513 511 529 537 511 528 547 527 509 519 518 525 530 507 527 516 519 537 514 533 539 525 527 553 566 532 522 539 554 526 552 559 556 547 551 585 555 541 537 558 588 535 567 591 555 564 566 561 580 530 548 583 576 572 612 566 591 597 0 570 639 598 557 575 0 0 0 0 0 0 0 0 0 0
441 403 424 419 428 411 428 441 438 429 427 456 445 435 454 441 452 453 446 454 448 458 455 432 443 442 459 443 449 453 451 459 466 450 450 465 452 465 471 450 453 456 466 474 468 480 458 467 471 477 458 462 461 463 485 471 479 492 468 481 478 460 470 492 463 476 494 481 475 487 475 467 490 473 476 489 481 477 479 492 476 481 483 475 459 458 507 482 494 471 475 505 497 486 477 507 494 497 504 471 501 503 487 477 454 512 488 491 486 476 519 461 470 0 0 0 0 0 0 0
401 416 417 400 403 393 405 397 404 392 405 395 387 393 410 400 396 402 414 400 407 418 404 422 417 406 406 412 407 421 391 416 415 414 418 420 405 420 429 409 417 416 425 413 427 414 422 427 425 438 427 431 422 422 420 421 419 433 429 430 427 431 417 448 438 431 423 434 447 429 425 440 441 432 432 433 435 422 442 427 432 416 441 444 443 462 441 438 429 448 445 447 432 462 426 429 434 440 455 450 450 426 434 436 445 456 454 455 465 461 423 464 452 463 0 0 0 0 0 0
366 351 348 350 344 366 359 363 357 364 358 352 355 355 359 364 363 373 360 366 357 362 362 383 372 376 358 376 369 368 387 370 371 367 375 371 378 376 369 377 375 376 367 386 367 375 383 359 381 377 367 391 379 385 384 379 369 381 375 398 385 385 391 396 393 397 400 382 394 386 399 383 388 389 395 384 394 392 388 407 399 384 392 380 394 396 391 403 391 413 403 394 390 405 396 401 395 394 400 390 392 387 397 407 356 393 388 403 403 408 395 405 401 401 421 384 0 0 0 0
323 308 335 326 330 328 337 334 340 332 324 330 326 347 336 359 352 343 343 355 332 334 332 336 342 329 327 326 336 338 327 336 353 349 340 347 343 338 327 336 337 345 341 350 349 338 347 355 342 359 348 336 339 350 340 342 346 339 342 360 364 349 341 356 349 338 354 341 342 348 361 362 350 354 347 359 343 359 331 346 340 339 342 355 355 361 357 354 371 347 365 353 354 343 354 348 349 337 365 359 353 366 350 356 361 340 366 357 379 367 356 369 368 373 342 402 375 0 0 0
282 298 299 295 300 290 299 293 298 305 302 291 298 291 290 290 307 298 296 288 304 288 317 307 299 304 304 297 300 316 305 309 304 304 305 309 309 303 312 304 299 314 307 304 310 309 310 302 310 306 306 308 313 310 310 312 317 306 315 314 329 316 320 324 317 315 308 312 320 322 315 315 311 311 315 315 313 312 312 326 317 309 313 324 318 335 335 327 324 320 325 330 331 328 323 323 326 318 332 343 341 330 345 292 325 328 339 322 324 342 330 336 331 321 297 339 352 305 368 0
289 276 276 285 268 287 270 278 271 285 284 278 283 284 277 282 277 278 286 288 282 264 285 276 281 271 276 283 287 267 270 277 279 279 283 277 277 280 283 291 280 284 281 280 280 284 285 291 291 288 284 289 287 282 282 288 281 287 286 289 286 295 284 287 289 289 291 286 299 286 286 284 283 287 287 287 291 279 291 291 293 290 286 291 295 295 287 295 290 295 291 285 291 293 296 288 293 295 298 302 286 300 294 293 295 295 278 290 293 293 303 309 288 311 308 307 287 298 305 283
249 248 253 255 254 252 253 255 256 247 252 254 246 256 262 258 269 257 255 254 258 265 265 250 259 261 250 252 248 257 255 253 262 259 252 260 260 261 259 264 263 266 264 260 264 268 268 264 271 268 265 269 265 266 270 261 262 265 267 266 262 271 267 264 277 263 267 263 266 271 268 273 265 272 273 259 264 267 264 258 253 268 266 268 268 261 267 261 264 279 268 265 267 265 266 264 274 276 275 278 266 266 277 281 277 281 264 295 272 289 264 281 289 282 277 269 294 265 263 268
234 227 235 236 235 234 235 237 236 230 231 241 241 249 243 242 234 237 246 242 238 246 234 238 243 238 241 241 241 240 240 238 240 241 237 245 242 241 251 247 243 244 251 244 245 249 249 245 243 250 248 248 245 236 249 241 247 247 249 246 258 248 251 255 243 255 253 248 246 258 251 240 254 247 253 252 250 250 254 246 243 249 252 246 262 256 251 248 252 244 246 258 252 256 256 247 242 248 250 249 246 244 253 254 241 247 259 245 244 250 259 243 258 230 227 255 232 276 274 231
218 212 215 214 220 227 222 214 220 214 220 222 217 224 224 223 221 222 229 220 227 226 222 228 222 228 227 227 219 223 226 230 231 223 241 231 227 228 227 231 232 232 234 234 234 237 234 238 238 229 233 233 234 230 227 233 226 233 235 232 234 234 234 235 238 227 231 233 231 232 237 234 228 234 229 232 229 228 229 229 234 239 235 229 234 233 233 241 240 230 230 237 238 234 229 230 238 235 244 244 239 227 238 240 246 239 236 232 237 242 236 247 243 246 235 224 237 228 220 259
205 207 214 218 219 204 206 213 212 215 216 215 215 215 218 213 213 212 210 218 217 214 217 211 211 212 213 211 212 216 219 217 214 209 211 215 211 217 217 216 198 216 221 214 222 214 221 216 226 220 219 221 221 217 222 219 223 220 226 220 219 222 225 226 217 218 224 218 221 226 218 223 218 217 222 224 217 223 216 221 219 224 217 226 221 217 220 222 223 216 226 214 221 220 228 222 215 226 229 215 223 220 224 238 221 226 219 225 228 224 232 217 229 223 233 238 226 224 235 224
195 197 199 201 204 205 205 202 197 201 182 201 187 193 208 189 205 190 189 205 189 191 190 192 189 189 185 186 191 194 192 192 190 186 198 194 186 196 190 189 190 197 188 190 193 199 193 191 198 192 193 191 191 216 191 196 196 191 191 195 200 199 198 195 195 200 199 196 192 199 195 198 195 189 191 194 198 196 189 185 190 213 200 214 213 212 197 190 196 215 213 214 210 205 195 186 191 207 219 188 187 214 204 193 216 216 216 208 204 203 204 218 217 216 221 209 196 202 177 214
175 177 196 195 180 177 182 182 183 184 182 175 178 177 181 177 176 187 180 177 188 183 180 185 179 181 191 192 182 194 184 188 192 190 185 185 195 188 188 192 189 195 194 198 187 195 190 196 195 199 193 195 195 192 194 196 201 192 201 200 199 192 191 199 199 196 201 196 189 195 189 195 192 191 199 194 194 194 195 191 193 195 186 196 185 184 193 188 193 186 180 192 191 186 189 189 183 185 192 182 189 183 186 191 188 178 202 188 206 204 200 180 187 193 185 183 181 176 212 174
168 170 177 175 171 179 172 183 174 181 176 178 182 184 176 186 186 182 184 185 185 188 188 186 182 183 182 186 189 192 187 181 186 185 188 185 184 185 181 181 184 183 190 192 188 185 190 194 189 183 188 190 191 190 196 187 188 193 189 190 183 196 186 192 192 191 190 188 187 187 189 187 191 189 183 185 192 186 191 187 190 196 192 190 191 193 186 187 189 186 189 182 184 191 191 191 184 190 188 186 180 176 183 186 186 175 184 181 180 176 181 174 201 200 179 169 177 174 179 187
169 164 158 166 170 166 169 173 167 164 170 174 170 165 174 172 174 175 176 176 174 177 172 171 171 169 171 175 172 174 172 182 172 173 175 172 171 176 180 179 175 179 178 175 184 181 178 179 175 183 178 179 174 183 179 181 183 182 180 178 179 178 182 181 182 183 178 185 182 179 178 177 176 181 179 179 179 185 179 180 179 178 171 174 179 175 177 180 176 181 172 172 174 168 180 178 176 177 181 176 176 184 175 177 179 177 177 167 180 179 179 178 173 169 172 159 167 164 171 172
166 163 168 165 162 164 159 162 168 164 169 166 165 165 163 173 167 172 173 167 172 167 173 165 166 165 170 172 168 167 178 172 171 172 162 167 168 164 172 166 167 170 173 167 172 174 170 172 174 169 180 173 170 174 177 170 173 173 173 166 168 171 169 175 173 173 174 167 167 173 173 178 169 171 174 174 175 171 173 171 170 170 171 173 167 175 175 171 175 168 172 177 167 176 167 173 175 170 175 176 170 178 174 170 175 176 175 168 167 173 169 172 171 173 173 170 169 184 176 161
156 153 162 164 161 162 164 156 155 162 160 159 157 159 163 164 160 167 164 163 163 162 163 166 163 160 161 156 159 163 160 167 164 164 159 163 157 162 159 161 159 162 165 158 162 167 163 160 161 166 160 167 164 163 168 165 165 165 162 164 163 164 162 164 167 161 161 158 164 169 161 155 164 163 161 164 168 163 170 163 158 159 160 160 162 166 162 163 166 164 167 162 162 157 166 163 161 162 161 163 171 166 158 161 157 157 158 159 159 161 159 173 161 162 171 166 150 142 162 175
150 148 153 148 154 149 146 154 155 155 149 150 153 152 152 151 153 155 153 164 157 155 149 161 154 154 149 155 159 159 160 156 158 153 154 156 151 155 152 158 155 161 160 160 161 158 164 153 151 159 156 161 157 160 161 156 159 159 163 158 163 161 161 164 163 161 161 157 156 158 157 162 157 162 160 163 165 165 164 153 156 158 156 157 160 159 156 154 157 161 156 160 155 161 160 158 156 153 154 156 160 155 157 158 158 154 157 151 151 159 155 161 156 170 159 152 155 164 164 157
137 141 149 144 148 146 142 154 152 148 149 147 147 145 148 143 147 155 143 148 149 151 154 152 148 148 148 148 149 149 153 149 144 149 147 150 153 149 148 149 152 153 151 151 146 155 151 150 146 151 148 149 147 155 154 147 149 152 154 154 157 148 149 155 146 151 149 154 150 150 149 152 151 151 154 154 159 162 156 152 152 150 148 145 148 149 152 153 156 151 149 154 154 153 156 151 149 150 151 154 156 156 158 153 152 153 147 146 155 156 154 146 157 150 165 142 157 147 174 140
133 136 137 134 140 139 135 144 141 140 143 142 140 140 136 136 144 139 142 146 142 144 144 144 142 142 150 145 144 145 143 139 145 142 140 142 143 148 143 149 142 142 146 147 143 146 131 137 140 144 143 143 143 146 145 143 143 148 150 146 148 146 145 145 146 143 148 148 147 144 150 151 147 147 151 147 150 150 150 148 143 143 145 138 141 146 148 141 149 148 146 151 144 146 147 146 142 145 150 153 145 142 149 137 142 144 140 146 143 147 134 141 147 140 142 142 134 143 154 139
132 134 134 131 135 141 135 137 137 139 140 0 133 135 133 137 141 139 140 138 146 143 143 139 142 143 146 139 138 139 138 128 138 130 130 138 132 128 139 130 139 148 141 138 130 138 141 140 124 127 131 143 134 139 135 143 147 144 145 141 135 131 141 147 145 142 130 141 145 139 132 132 133 142 145 145 141 143 143 142 148 141 128 141 145 142 139 139 141 141 129 145 143 145 140 139 137 142 138 145 138 142 142 140 143 134 134 143 143 139 133 143 137 136 132 138 131 135 142 138
130 130 124 132 132 133 142 131 131 138 137 135 140 137 139 123 126 139 135 133 140 142 140 137 139 138 138 136 138 125 127 129 137 127 129 126 125 130 137 131 138 140 140 128 0 140 130 128 129 123 127 127 128 140 0 144 0 132 130 127 133 126 142 130 130 128 141 128 142 127 126 125 128 124 127 130 132 123 139 139 137 127 136 137 137 127 136 125 130 142 133 139 138 140 128 135 142 142 142 139 125 118 136 141 132 120 140 132 120 130 130 134 140 142 146 134 127 136 96 155
122 103 114 108 124 126 133 123 115 109 122 117 115 120 123 123 124 131 122 120 122 125 128 134 124 137 138 136 0 138 125 124 118 122 122 120 125 122 125 118 124 129 129 131 0 0 128 123 127 123 123 121 125 129 125 127 133 131 127 124 123 124 124 125 125 139 129 128 118 124 127 127 125 123 116 121 119 128 122 126 128 123 120 123 122 130 123 124 125 126 124 127 123 123 124 119 122 139 134 132 117 118 123 121 121 116 113 118 128 128 118 140 127 126 108 113 116 111 123 88
108 118 109 109 108 115 121 127 115 117 115 119 117 121 117 112 108 121 122 120 132 126 127 122 133 124 131 126 125 125 128 0 126 117 117 112 122 122 0 121 127 124 0 0 0 0 122 127 122 117 128 125 125 121 128 125 127 120 121 121 128 123 113 124 124 124 124 121 122 122 124 119 124 120 128 121 118 127 123 119 120 114 127 122 118 117 125 117 127 123 121 124 121 119 118 120 125 121 118 123 125 117 122 113 104 121 118 114 115 135 126 136 132 128 123 129 133 110 108 143
106 99 111 114 113 109 113 112 111 114 116 113 111 104 116 116 114 118 108 122 116 109 116 119 114 112 121 116 114 117 123 0 117 119 117 114 111 0 115 116 120 0 0 121 122 0 121 120 112 116 118 115 118 120 124 118 118 117 114 119 121 125 121 120 119 121 116 119 115 117 117 119 113 115 115 115 115 117 111 120 116 119 115 117 112 112 115 121 115 117 116 116 122 112 109 117 123 118 111 113 114 117 117 110 113 114 119 116 110 122 125 114 117 127 122 115 127 124 94 135
95 105 111 101 102 103 118 108 103 110 110 102 107 109 123 121 117 110 105 109 112 110 111 102 110 110 113 117 116 110 120 113 115 116 112 111 108 119 0 114 117 113 111 110 108 115 114 0 114 0 115 112 118 115 0 0 106 107 120 114 120 115 106 112 110 114 107 112 119 109 114 105 108 105 110 109 109 108 103 113 110 106 112 107 111 105 114 111 108 112 110 111 103 116 108 113 110 116 107 109 108 111 114 105 109 114 105 113 112 120 111 108 103 110 100 114 108 97 87 77
104 98 112 108 100 105 105 105 107 106 107 109 108 109 113 120 115 114 111 105 106 98 105 104 113 110 102 108 103 117 109 108 105 105 117 111 114 0 107 108 106 107 113 101 108 105 105 106 113 0 109 107 107 112 109 115 103 106 110 111 106 111 112 0 116 111 108 112 110 112 102 103 104 113 102 107 106 101 100 110 108 104 105 106 99 107 104 109 108 111 111 107 101 104 90 109 102 107 108 108 107 113 109 109 108 100 101 108 92 110 115 103 119 109 130 110 80 127 88 118
91 95 108 105 102 92 99 93 94 95 103 99 98 99 101 102 98 106 103 102 99 100 95 99 106 101 101 100 98 104 104 98 103 102 105 99 103 104 101 110 101 103 96 96 99 103 102 99 105 104 104 103 105 103 104 103 97 102 109 104 101 108 107 0 108 107 0 111 103 106 105 99 100 106 103 108 99 101 0 98 0 103 94 102 96 100 99 99 96 102 105 102 94 98 92 96 97 93 99 100 102 102 96 100 97 104 101 92 128 85 111 89 91 115 100 92 102 111 81 114
90 93 84 92 93 93 99 90 92 91 93 98 101 95 103 100 94 98 103 97 101 91 94 92 96 96 103 99 99 100 107 104 104 105 100 100 103 100 102 101 101 101 95 92 97 96 104 103 106 105 110 98 103 103 96 97 98 107 106 99 105 96 104 103 113 102 105 106 104 100 104 104 102 101 95 98 104 100 101 98 0 100 98 90 99 91 99 106 93 98 101 101 100 99 100 104 85 95 83 104 101 91 96 89 93 107 98 93 106 97 82 84 104 92 93 100 109 92 85 98
90 94 89 96 93 92 92 91 86 95 94 93 95 90 90 86 95 94 106 109 104 94 82 88 93 88 101 98 94 97 96 96 101 95 94 103 97 95 93 105 93 91 88 89 97 94 100 99 94 98 99 92 85 88 96 102 92 93 98 96 99 93 100 0 97 99 94 96 97 96 99 101 102 104 84 105 100 101 100 105 98 102 96 104 96 96 89 95 93 93 92 95 93 80 93 91 94 86 104 91 96 97 92 94 99 98 104 76 90 89 98 100 86 100 95 89 129 113 94 87
85 88 80 78 80 82 90 88 83 88 79 86 95 90 86 91 90 88 93 81 90 91 94 91 91 90 97 89 91 96 86 83 101 97 94 92 85 97 96 91 90 84 90 87 88 96 89 88 91 96 97 90 90 98 98 90 94 91 96 95 98 97 98 94 92 96 92 87 95 98 89 92 92 93 95 94 90 97 88 91 95 89 85 92 86 87 92 91 89 94 89 90 94 89 91 86 83 93 87 92 93 83 91 78 89 89 88 84 90 84 86 79 86 91 82 80 75 61 94 86
94 79 84 79 90 85 85 96 87 88 84 88 88 88 89 89 93 86 87 87 81 92 93 87 91 92 92 87 90 87 93 94 99 90 99 83 91 89 91 97 88 95 90 93 93 97 91 93 89 94 93 98 89 97 90 96 92 98 90 97 92 93 95 92 92 90 89 90 88 88 94 90 98 95 95 92 95 97 89 96 97 86 92 93 96 86 91 93 87 90 98 99 97 92 93 97 86 83 89 95 92 86 89 95 84 94 90 83 84 82 83 89 81 92 89 79 85 94 0 0
83 91 88 81 83 87 75 83 84 0 79 83 83 90 80 79 87 86 86 92 88 93 92 97 91 87 89 87 90 88 84 92 88 96 92 95 93 96 94 94 84 96 97 83 96 89 92 96 86 97 98 95 97 92 93 97 96 95 90 97 94 85 95 86 98 98 89 93 97 95 87 92 94 93 93 94 86 90 94 83 85 84 93 85 88 95 94 95 99 94 90 99 98 83 82 88 90 93 92 87 80 91 84 90 85 83 90 86 88 79 86 82 79 85 87 82 80 85 90 0
79 82 77 88 88 80 92 84 86 78 81 82 84 89 86 89 85 87 86 83 89 88 93 91 85 84 89 86 93 89 85 83 91 94 85 91 90 89 92 88 90 92 93 97 95 87 96 91 93 90 96 97 92 84 95 94 94 93 96 96 92 93 96 90 87 92 82 86 88 87 92 96 95 95 97 86 90 94 90 88 87 87 88 93 87 85 93 88 87 81 93 90 85 87 84 81 88 85 88 90 77 79 87 82 88 89 91 88 72 86 75 88 85 82 74 81 83 93 0 0
81 72 81 81 86 85 89 93 79 89 79 76 82 82 77 89 87 89 92 89 84 91 88 82 80 93 82 91 90 88 91 83 91 91 87 84 89 86 89 92 91 88 85 95 84 86 96 88 91 97 90 85 83 84 91 94 87 95 92 91 92 92 83 95 87 96 84 85 88 93 88 86 86 89 92 87 90 94 94 83 94 89 92 86 91 87 89 86 93 92 90 91 84 85 86 89 87 92 91 88 82 87 88 87 88 90 90 92 86 85 86 84 88 88 105 0 0 0 0 0
79 65 60 59 78 79 80 84 83 76 81 73 81 89 81 79 81 77 77 76 90 75 80 77 72 73 78 83 81 79 88 76 77 86 85 73 82 83 82 80 85 79 79 69 81 83 81 84 83 83 86 77 76 82 81 82 88 88 88 80 85 73 81 77 78 83 73 81 77 73 80 85 78 76 82 74 77 84 88 84 73 77 66 75 75 86 80 79 76 82 87 69 86 76 79 77 76 88 78 79 77 74 78 59 67 77 77 79 72 81 89 82 86 85 77 77 0 0 0 0
68 67 74 79 73 79 84 86 83 77 78 84 73 77 83 85 81 84 75 78 77 80 72 81 83 82 75 72 85 81 93 82 82 83 83 69 80 82 79 78 91 78 87 88 84 90 87 75 83 81 88 72 74 76 83 83 80 78 79 70 77 75 82 83 82 78 84 76 91 73 81 79 82 80 80 76 83 90 89 84 84 77 80 77 71 76 78 64 89 91 67 80 71 78 84 72 84 72 71 70 83 74 72 77 68 74 73 89 67 69 73 56 65 78 81 0 0 0 0 0
